# .PCD v.7 - Point Cloud Data file format
VERSION .7
FIELDS x y z rgb
SIZE 4 4 4 4
TYPE F F F U
COUNT 1 1 1 1
WIDTH 1059
HEIGHT 1
VIEWPOINT 5893.149902 -4018.600586 135.317734 -0.158654 -0.140720 -0.005820 0.977237
POINTS 1059
DATA ascii
-194.94913 0.94032 53.29824 325
-194.97861 2.66369 53.23196 325
-194.96625 4.50070 53.25346 325
-195.03001 6.33444 53.28979 325
-195.02699 8.12874 53.27627 325
-195.03413 9.91562 53.29445 325
-195.01117 11.69979 53.26480 325
-269.39432 57.44993 32.27595 319
-283.77249 59.67657 35.09371 316
-263.09293 58.77772 33.94486 320
-277.51819 61.04013 36.61897 322
-293.70380 63.62633 39.32984 312
-258.80460 60.23689 34.99113 350
-273.37439 62.72154 37.60436 347
-289.29227 65.33356 40.28470 341
-256.89395 62.24363 35.47484 351
-271.36679 64.74409 38.06741 347
-287.33047 67.49754 40.65750 341
-255.02658 64.12597 35.88973 351
-269.36832 66.65207 38.41413 345
-287.53329 69.96022 40.52210 319
-253.11342 65.98757 36.30741 351
-268.08884 68.75986 38.72136 322
-290.70117 72.94653 39.69994 253
-251.31096 67.84489 36.74067 352
-269.89771 71.42771 38.10529 319
-252.09047 70.27746 36.40633 322
-272.16928 74.20313 37.47314 319
-254.08850 72.84825 35.73341 322
-256.17563 75.57200 35.09344 321
-17777.72266 4451.73584 2531.30542 1000
54.13527 14.47316 130.64047 1000
-60784.17578 26476.66992 5502.94287 1000
-13492.23926 6415.73193 116.61265 1000
-1204.77686 664.69446 10.96539 425
-1212.02356 668.61475 34.53421 288
-2475.00073 1312.55798 34.53316 453
-1196.59045 670.43134 11.46680 496
-1199.72571 672.18097 35.16727 472
-1203.82532 674.20239 58.77752 432
-1824.44409 995.75690 59.12509 397
-2469.67065 1329.91333 81.72108 487
-1192.60828 678.55847 11.22479 496
-1195.21570 679.81470 35.28200 496
-1197.84192 681.01324 59.09450 471
-1199.93420 682.55603 83.03469 496
-1817.10352 1007.05615 94.88650 483
-1193.85364 689.54761 11.00251 426
-1197.59961 691.14807 34.88536 363
-50567.62500 44255.04297 -1007.28693 1000
-49911.80859 43664.11328 11053.28711 1000
-23632.49805 33298.07031 4148.81299 1000
-8827.52246 22790.41992 6262.54932 1000
-5035.51953 14686.25195 -377.48059 458
-5004.37939 14590.97363 -119.25659 464
-4931.12305 14683.64355 -373.34113 451
-4899.21875 14581.82324 -118.72795 464
-4890.35449 14562.21191 132.25803 458
-4830.75830 14677.90137 -375.29636 448
-4799.27344 14578.70898 -117.78746 469
-4788.31982 14557.12207 131.40857 445
-4728.24707 14673.61035 -371.60718 449
-4696.28711 14574.86816 -117.90615 470
-4629.38184 14667.21289 -370.68472 449
-4595.98242 14570.85449 -117.09433 470
-4713.29492 14935.53027 133.75276 413
-4524.93311 14663.56738 -370.44357 450
-4494.59521 14566.97949 -115.25270 471
-4397.92969 14561.74121 -118.28063 471
-4327.44727 14653.85254 -365.68137 451
-4295.19531 14556.39648 -117.63673 472
-4837.59814 16343.45801 135.55463 453
-4226.87354 14647.70117 -366.57944 451
-4196.83008 14551.60742 -112.84159 472
-4721.42236 16322.36426 131.86308 319
-4125.10596 14640.79883 -367.43961 451
-4099.73584 14547.85254 -114.48448 472
-4028.53760 14637.85254 -363.89465 452
-4001.91919 14546.07910 -113.88464 473
-3928.62964 14631.13281 -362.41486 452
-3903.80469 14543.58594 -111.44812 473
-3830.76465 14627.73242 -363.13580 453
-3809.26538 14536.51270 -112.15134 474
-3734.25317 14619.51270 -360.60184 471
-3708.77100 14532.18066 -110.87205 474
-3638.20264 14614.26562 -359.59546 472
-3614.78955 14527.60449 -112.64227 475
-3541.07251 14612.80566 -359.77258 472
-3517.83325 14526.11719 -112.48746 475
-3444.58325 14605.48340 -358.29578 473
-3424.85278 14520.59863 -112.56524 475
-3345.88525 14602.42188 -357.19437 473
-3326.10669 14519.43457 -110.58209 476
-3252.27124 14600.84863 -358.36838 473
-3232.27954 14513.16309 -110.70160 476
-3158.19531 14593.74805 -356.24387 474
-3138.24561 14509.46973 -110.53060 477
-3061.09302 14593.09668 -354.89041 474
-3044.27979 14506.91309 -109.87851 477
-2967.55713 14588.54004 -355.01590 475
-2947.97607 14500.16504 -109.23252 477
-2874.29199 14584.18164 -353.25742 475
-2857.46094 14497.05859 -109.22794 478
-2777.34424 14580.01855 -353.20355 475
-2760.32031 14493.18457 -108.80331 478
-2684.44165 14574.29688 -353.41788 476
-2668.39795 14489.20703 -109.33753 478
-2590.76807 14573.82324 -350.99686 476
-2574.41235 14487.37891 -108.28477 479
-2496.94702 14566.41797 -350.90234 478
-2482.14771 14482.82129 -108.31743 479
-2407.45874 14565.25684 -350.76065 478
-2393.09399 14480.45801 -106.85258 479
-2311.48584 14558.96387 -349.25919 478
-2298.79785 14476.14355 -107.63241 487
-2220.37305 14557.33594 -346.71164 478
-2205.20166 14471.92969 -105.51929 488
-2126.69263 14552.88574 -348.99316 479
-2116.53125 14470.88965 -103.36073 488
-2035.13770 14548.51953 -348.63614 479
-2022.84766 14465.54102 -106.92260 488
-1942.20862 14546.97461 -345.62350 479
-1931.53784 14462.57324 -106.01301 488
-1851.90198 14541.91406 -343.99429 480
-1842.55933 14458.28516 -104.36294 489
-1845.05969 14488.50293 133.50162 429
-1758.96631 14537.07715 -344.39508 480
-1749.34375 14457.61328 -103.11499 489
-1755.10620 14483.84277 133.93130 429
-1668.37024 14532.33789 -344.33417 480
-1658.50867 14452.52246 -102.18015 489
-1661.71082 14482.86426 135.34511 429
-1750.45850 15201.44336 384.33060 486
-1578.48083 14528.60840 -342.12054 480
-1569.04932 14451.02344 -105.16567 489
-1572.11157 14478.45117 134.78816 429
-1654.32458 15179.29102 384.97705 487
-1487.88318 14527.20801 -343.03873 480
-1477.94446 14445.76465 -101.19427 490
-1480.72461 14472.37695 134.68074 429
-1556.21521 15158.11914 382.35818 487
-1394.11548 14521.49023 -341.40643 481
-1388.47083 14442.43164 -104.00336 490
-1391.94421 14470.07129 134.55605 430
-1461.71960 15138.15234 385.64389 488
-1307.72754 14519.08398 -341.78018 481
-1301.15503 14442.11230 -103.09795 490
-1300.86414 14467.20898 134.38045 431
-1363.69543 15122.04395 382.37625 488
-1216.35107 14516.46973 -343.72308 481
-1209.59265 14439.69531 -103.07894 490
-1211.20850 14463.25391 133.31783 436
-1270.84631 15100.92676 383.57281 488
-1126.17944 14510.46777 -343.52032 481
-1117.38062 14433.67676 -102.74000 490
-1122.36682 14459.85840 132.96387 386
-1174.07654 15080.07129 382.23193 489
-1036.04321 14508.45801 -341.28348 481
-1029.40857 14431.25000 -100.95018 491
-1031.97009 14462.66309 135.61220 386
-1079.04834 15059.72754 384.13184 489
-943.51196 14502.97754 -340.90775 482
-939.26880 14427.95508 -102.83212 491
-942.57690 14460.96094 136.73286 386
-982.67035 15040.86719 383.64343 490
-854.35974 14501.95215 -340.73172 482
-849.95825 14426.18262 -102.92605 491
-855.00018 14460.84082 134.12865 386
-890.93469 15022.08398 379.87775 490
-765.79633 14496.13281 -340.27164 482
-760.49237 14423.97852 -101.09702 491
-764.88055 14458.34180 132.78923 386
-797.30847 15008.36523 380.46124 498
-674.30609 14492.22070 -341.51974 482
-672.77728 14420.87500 -100.69804 491
-700.77594 14997.75586 134.87129 498
-703.72113 15007.63867 379.59628 498
-587.26953 14489.21973 -341.84766 482
-586.27795 14475.21680 -110.02203 490
-610.42743 14995.28320 133.55453 498
-611.85095 15001.72168 380.31989 498
-496.49899 14486.74512 -341.60797 482
-495.15924 14413.10449 -102.18128 491
-517.30579 14992.53613 134.57373 498
-518.70251 14996.71094 382.16345 498
-406.90515 14482.82031 -341.67297 482
-406.55313 14409.23242 -99.28918 492
-426.46454 14975.87598 132.80074 470
-425.38123 14995.44141 379.60947 498
-319.22546 14477.90137 -337.27301 482
-315.82254 14405.80957 -102.19740 492
-329.60141 14931.48145 136.65680 471
-332.17676 14989.45801 380.13162 499
-231.34332 14475.55566 -338.58484 483
-226.04591 14405.31055 -100.65464 492
-237.62093 14885.76270 135.22708 472
-241.58566 14985.96094 382.03516 499
-138.36334 14471.67773 -338.81793 483
-138.73691 14402.37012 -99.22614 492
-145.35260 14840.27539 133.62926 472
-146.83755 14981.95215 379.30774 499
-52.43469 14468.43652 -337.35162 483
-50.26032 14398.05566 -101.00781 495
-56.17025 14796.10938 135.00797 473
-55.48350 14980.86719 378.86658 499
36.55616 14465.16211 -339.48584 483
38.32647 14395.45410 -101.46880 495
38.64196 14751.15430 133.60011 474
36.08715 14977.17969 379.96313 499
128.14383 14460.07324 -338.64224 483
127.81191 14394.91406 -101.49593 495
128.70297 14708.98047 132.87361 474
128.52170 14971.66406 380.90591 499
217.16083 14455.64062 -339.19714 483
216.51564 14391.36719 -100.06895 495
219.28622 14699.73730 135.40547 499
221.73584 14966.89844 380.90491 499
222.22871 15018.02832 624.53448 499
224.06699 15214.69727 883.25775 472
304.36557 14454.38672 -338.52591 483
304.64554 14388.47461 -100.49088 495
307.19012 14693.06934 134.17096 499
309.99075 14964.07031 381.27109 499
311.32391 15015.11914 628.06244 499
316.46631 15172.60449 881.71765 472
393.21716 14450.81934 -340.15390 483
393.07739 14384.43945 -101.88536 495
399.98175 14690.49707 133.17438 499
404.21545 14959.26758 379.46964 499
405.66763 15013.40723 625.11658 499
410.93790 15206.98535 880.41644 371
483.71185 14448.46680 -339.43881 483
479.62109 14380.14062 -99.78013 495
488.25299 14685.40137 136.24136 499
495.69302 14954.99609 381.61111 499
495.55350 14967.77930 626.57678 455
572.17468 14441.75977 -336.72131 483
568.16504 14378.31543 -100.88500 495
578.51831 14681.50195 133.53929 499
587.30914 14893.24023 380.66202 456
584.99628 14903.44922 622.13336 456
591.39838 15049.83203 876.52063 363
658.38312 14439.39551 -338.20352 483
656.84052 14373.54102 -101.03977 495
670.16803 14679.41016 133.55647 499
677.31934 14827.76172 378.79547 457
677.04999 14838.82129 622.33289 457
678.89020 14976.74707 872.06097 363
748.09900 14437.03125 -340.12872 483
745.75720 14372.84961 -99.05854 495
758.36438 14672.31152 137.13542 499
763.75818 14763.90918 376.15277 458
764.24133 14772.99316 618.87677 458
772.14197 14905.68652 869.19891 364
838.75354 14432.36230 -336.81488 483
834.75043 14368.33105 -100.15662 495
851.19519 14671.01074 135.76076 499
851.54633 14726.90234 375.30807 499
852.44684 14733.55957 618.44336 499
859.26910 14841.75098 864.75879 389
1113.65283 17631.34375 -3982.14771 1000
926.44611 14428.88672 -336.66772 483
922.81354 14364.32812 -101.71732 495
939.86969 14668.58008 134.54907 499
942.88678 14724.50488 376.34930 499
944.29663 14730.39355 618.71161 499
951.69452 14838.93066 866.88037 389
964.31195 15098.97656 1124.87622 485
1018.02332 14424.65918 -339.25620 483
1011.03705 14361.78027 -102.31805 495
1033.50769 14711.87012 136.24921 499
1031.87097 14690.77246 376.92450 499
1033.38025 14697.10156 617.38367 499
1042.80896 14838.11328 864.36310 389
1046.86792 14947.55371 1115.68237 483
1048.71887 14951.28027 1364.46191 483
1049.89893 14958.62012 1611.12927 483
1102.99194 14423.59961 -339.43353 483
1100.59546 14359.67383 -100.31296 495
1124.86780 14707.32617 134.49602 499
1124.85547 14685.64160 377.57635 499
1121.57495 14693.03125 617.25250 499
1133.25037 14833.89844 866.15808 389
1151.13477 15090.70605 1126.76465 485
1193.86096 14417.99219 -337.00690 483
1186.75183 14358.84473 -102.52020 495
1214.78101 14705.57715 135.75636 499
1214.12451 14684.37402 376.59897 499
1213.55969 14691.70898 615.45233 499
1225.48657 14832.84082 867.20001 389
1241.73193 15039.87793 1122.77563 453
1281.21606 14414.59863 -336.48502 483
1275.96704 14356.29590 -98.83791 495
1307.39844 14700.54492 135.77927 499
1302.10583 14679.67090 376.10016 499
1304.90210 14688.23145 616.97272 499
1318.64709 14830.94922 866.10107 389
1336.38232 15082.40039 1125.69800 485
1370.71460 14413.55664 -339.79990 483
1366.98901 14351.97070 -101.06034 495
1396.10388 14696.37891 136.62822 499
1395.01123 14676.46289 376.59436 499
1396.78479 14681.91699 617.76550 499
1408.30505 14829.41113 867.24725 389
1429.29102 15081.56445 1128.38733 485
1458.68152 14408.79395 -337.54010 483
1452.78418 14349.33496 -100.37636 495
1486.18921 14693.49121 135.99454 499
1484.26587 14671.56738 375.18961 499
1486.89258 14681.17969 617.81067 499
1498.07544 14829.57422 867.24451 389
1524.36560 15078.63281 1128.17358 485
1550.24414 14405.01465 -338.06329 483
1543.38147 14345.57715 -99.27971 495
1580.07092 14687.41504 133.81212 499
1575.73242 14666.61914 378.00455 499
1577.23462 14676.21875 615.80176 499
1593.87866 14827.01855 866.98663 389
1637.97815 14403.58203 -337.93747 482
1631.52173 14342.34180 -100.73610 495
1668.06323 14682.95020 134.56364 499
1665.56519 14664.31738 374.65927 499
1668.06543 14671.92578 617.09613 498
1681.67651 14827.44629 869.22400 389
1728.59399 14397.19043 -340.04236 482
1719.64819 14339.81445 -99.74151 494
1760.16077 14681.42969 136.72275 499
1760.41492 14691.07227 377.23639 499
1761.14062 14696.14746 619.53589 498
1775.69922 14826.15332 869.57257 389
1819.49683 14394.54199 -341.64243 482
1808.86511 14336.41602 -100.01112 494
1850.94250 14676.73145 136.52705 499
1851.64026 14683.86328 376.72186 498
1854.48572 14692.88281 617.63837 498
1869.55969 14824.10449 867.75122 389
1906.47290 14390.88379 -337.90652 482
1901.45630 14335.23438 -99.93201 494
1940.97937 14672.19336 135.63293 498
1942.18738 14681.66406 377.93546 498
1943.91748 14687.79785 619.67828 498
1962.02112 14824.03125 868.33411 389
1996.05701 14387.97168 -340.85614 482
1988.41968 14332.06738 -103.09016 494
2035.38123 14669.47070 136.97346 498
2036.68958 14677.86426 378.48871 498
2037.09106 14686.11914 618.82623 498
2054.32080 14820.48047 870.46313 389
2088.01074 14383.76660 -342.25681 482
2076.82935 14329.58008 -103.88279 494
2124.25562 14667.41016 134.93457 498
2126.42407 14674.50586 378.58887 498
2128.70947 14684.08594 619.73895 498
2146.88477 14818.89355 867.96442 389
2175.55566 14379.23438 -338.79477 482
2166.25879 14324.09668 -101.99721 494
2215.65527 14662.01074 136.33972 498
2217.75830 14668.67871 376.91882 498
2217.17188 14676.65723 621.79755 498
2241.08276 14818.24414 871.25360 380
2264.01929 14379.21582 -340.77856 482
2256.59058 14323.35742 -102.60397 494
2312.21582 14672.01172 135.59125 446
2312.49414 14677.39355 379.90555 445
2313.61011 14684.07422 622.79315 445
2340.89429 14871.85938 873.28705 351
2357.44922 14373.16992 -340.19864 481
2345.52319 14320.07617 -102.51119 496
2409.27026 14708.18066 133.10568 469
2412.97095 14736.61914 379.30145 444
2415.02881 14745.20215 621.29218 444
2452.27026 14984.07324 881.43286 441
2446.38721 14370.41699 -341.64310 481
2435.66064 14317.66602 -102.02770 496
2507.49951 14740.35156 134.66473 468
2514.43213 14793.92285 379.46265 443
2516.63965 14803.17676 623.94617 443
2552.32471 15015.38672 880.35272 440
2537.77002 14366.35840 -342.67764 481
2528.19800 14316.50684 -104.41229 495
2604.52686 14769.81445 133.84143 467
2614.74316 14831.50000 380.91849 466
2619.72778 14863.06152 628.94818 442
2628.88403 14363.79492 -343.04337 481
2615.99390 14309.71582 -103.26736 495
2704.90918 14800.28320 133.35959 467
2713.55493 14862.86133 380.87485 466
2726.67139 14921.89355 632.58478 441
2716.53271 14361.01758 -344.01233 481
2708.46924 14311.04102 -103.52896 495
2802.70532 14828.15918 134.08916 466
2812.39575 14891.90332 384.30637 465
2807.32788 14358.47559 -345.32755 480
2796.38257 14306.81055 -102.67831 495
2901.38208 14861.37207 135.46130 465
2897.35303 14355.17871 -342.99435 480
2889.17163 14302.09375 -104.69533 495
3006.20239 14909.74805 135.04909 442
2990.08618 14351.86719 -343.42978 488
2980.17236 14303.05371 -105.54860 494
3081.00366 14345.86914 -344.30722 488
3072.90454 14299.12207 -105.87381 494
4983.66699 22763.79102 -4892.47949 1000
3173.19360 14345.49414 -346.65582 487
3162.32178 14295.72754 -103.15677 494
3266.24536 14340.63770 -345.53076 487
3255.74854 14292.96680 -105.03245 493
3358.62354 14337.97754 -345.03342 487
3346.11060 14290.47949 -104.26982 493
3449.35693 14335.83789 -346.37338 486
3438.99683 14286.16211 -104.72345 493
3540.30664 14334.00977 -346.84470 486
3529.53906 14284.84082 -104.31593 493
3636.34302 14328.63184 -349.58386 486
3622.55176 14282.46387 -105.91045 492
3725.99292 14327.51855 -349.34909 485
3715.29980 14280.43457 -105.79592 492
8560.57910 32521.09766 -4847.50928 1000
3818.54834 14324.34961 -351.23294 485
3809.54688 14278.05176 -108.00227 492
3913.49707 14319.30273 -349.96780 485
3902.72534 14274.27930 -108.46009 491
4006.08911 14317.64453 -351.67340 485
3994.08154 14270.36328 -108.28611 491
4100.98438 14313.67480 -354.29852 484
4090.26782 14267.04004 -107.48228 491
4196.26025 14313.66406 -353.34232 484
4182.80811 14266.21582 -108.38918 490
4288.31006 14310.44336 -355.02808 483
4275.45557 14260.50977 -110.58956 490
4387.19531 14305.73828 -354.03348 483
4372.85400 14258.47363 -108.60120 489
4478.94531 14302.68359 -355.68945 483
4464.33398 14256.31738 -108.77946 489
4575.15674 14301.34082 -358.40625 482
4562.05518 14255.50488 -108.87192 489
4672.32080 14298.43164 -355.38382 482
4656.28076 14253.09082 -110.30528 488
4766.57031 14292.12695 -357.67258 481
4752.24902 14246.48145 -109.06700 488
4863.38672 14288.30859 -357.08902 481
4847.43457 14245.65625 -113.52489 487
4959.87988 14287.20508 -362.06299 481
4944.55469 14243.25488 -113.32907 487
5058.71094 14286.42969 -362.80869 480
5041.59326 14239.34863 -110.75960 486
5157.69873 14281.95508 -363.17676 480
5140.09668 14238.56641 -111.40843 486
5254.05322 14277.14746 -364.23605 479
5238.39648 14232.89062 -112.62881 485
5353.32666 14277.60156 -362.21066 479
5338.29736 14230.26074 -112.26852 485
5449.56006 14271.85840 -363.15369 478
5436.60840 14226.66211 -114.65071 484
5550.97217 14267.32715 -366.45480 478
5532.35840 14224.52539 -113.94069 484
5649.87158 14265.67090 -369.20041 477
5631.57861 14223.35254 -114.61066 483
5750.13867 14262.38672 -366.90799 477
5733.10791 14217.34180 -116.89594 483
5852.16895 14260.28613 -371.87872 476
5835.21582 14215.83008 -116.34226 482
5950.61523 14256.14648 -370.06705 476
5931.82227 14214.85645 -118.53848 482
6055.12061 14261.10156 -371.83304 453
6037.32275 14212.23340 -120.56715 478
6164.28467 14274.78711 -374.80997 452
6138.83789 14214.91992 -120.18398 477
6272.50977 14286.43945 -376.08249 452
6245.61426 14217.69727 -120.41240 477
6386.01025 14294.98242 -376.16919 452
6350.26318 14219.60352 -119.10391 476
6493.29541 14306.43359 -379.80209 452
6454.42871 14220.33691 -121.00146 457
6605.40869 14321.06641 -382.70444 451
6566.21436 14232.81934 -121.06107 457
6715.82617 14331.37598 -384.38998 450
6680.00732 14245.78418 -122.66367 455
6831.92236 14343.32422 -383.56894 449
6795.67676 14264.82910 -122.47699 454
6957.10840 14385.27051 -388.82526 405
6910.29395 14286.58691 -125.89335 454
7089.07129 14428.03223 -391.77725 404
7029.07910 14305.58301 -125.30527 453
7220.59180 14474.76660 -393.74301 381
7145.83545 14322.88965 -130.31303 452
7359.25586 14530.35840 -398.65128 380
7265.41211 14341.11230 -131.08337 451
7508.34912 14600.84082 -403.48306 353
7384.59473 14362.22656 -132.82484 450
7668.71680 14696.29199 -406.36597 352
7518.14014 14403.05469 -131.95935 393
7666.72900 14466.08789 -133.74922 389
7819.13721 14539.38965 -136.61467 387
7974.10400 14617.79297 -138.50243 386
8133.50488 14699.32031 -140.21356 351
1564.17981 1486.77136 -71.10770 466
1569.64307 1492.26624 -36.75227 466
1575.50476 1498.18701 -2.98721 418
1571.53064 1475.67627 -70.63725 496
1578.19421 1481.92188 -37.03667 473
1585.89844 1490.23901 -3.10813 368
1590.95520 1476.82629 -72.03043 295
5.15325 4.91966 1.42784 1000
46610.72656 22024.04297 1040.89966 1000
44020.70703 15115.69434 -7481.76416 1000
10168.71777 2990.14307 2236.97266 1000
3179.79346 634.56744 -19.40459 424
3169.95117 612.91797 -18.69328 470
3209.79688 601.05713 -72.67727 431
3164.11938 591.56146 -18.36204 471
3200.60596 579.25256 -72.04473 432
3159.00781 571.42365 -17.91044 471
3187.62744 557.20770 -70.46849 414
3154.21558 551.16376 -17.82326 461
3179.99121 535.96735 -70.43173 476
3152.34692 530.57104 -17.16567 461
3176.61792 516.10754 -69.50012 477
3150.90796 511.22482 -17.30080 460
3149.34082 491.62225 -16.34036 461
3150.02466 472.94128 -16.81607 463
3150.18530 453.50665 -16.29542 464
3151.28613 434.01581 -16.37397 391
3152.68774 415.54224 -16.16512 391
3155.32715 396.27493 -16.71439 391
3157.73779 377.57004 -16.26585 390
3160.61182 358.78870 -16.60877 390
3162.74268 339.59424 -16.26912 390
3218.63696 345.84927 32.56289 498
3161.74316 320.27878 -16.17598 429
3166.30542 301.62936 -16.47171 429
3170.92554 282.77740 -16.65330 419
3176.41406 264.06586 -16.54762 419
3184.44214 245.81451 -16.88275 294
3187.39917 227.28885 -17.72926 295
3187.98169 207.67766 -17.71145 420
3328.70020 217.39571 29.05214 404
3186.08276 188.86137 -17.64700 439
3192.82251 170.26921 -17.12395 388
3348.57080 178.71333 188.39981 496
3195.98535 150.62572 -17.97307 388
3201.96680 131.64340 -69.46006 333
3198.98340 132.16190 -17.58928 388
3425.97803 141.01131 25.68434 496
30035.00586 1262.57959 649.58490 1000
3208.02710 112.57107 -69.24099 333
3202.46289 112.53043 -17.95361 388
3289.67749 116.11375 30.02513 413
3213.71753 94.22344 -69.72565 333
3205.86548 93.32877 -17.91089 388
3244.56519 95.01155 31.37794 495
3220.26074 74.85210 -70.21828 333
3209.08276 74.37908 -18.01253 388
3225.88647 55.82004 -70.98179 332
3212.09180 55.24741 -18.45217 388
3215.17383 36.46045 -18.25462 387
3366.29834 37.87475 135.49408 292
3218.98438 17.02307 -19.21918 387
3280.22632 17.40611 30.23412 485
3222.09766 -2.43890 -18.98090 387
3225.28638 -21.69735 -19.07626 387
3228.85327 -40.71794 -19.67666 460
3232.53296 -60.32470 -19.39268 460
3237.05200 -80.04974 -19.72959 459
3240.39355 -99.71931 -19.93574 459
3244.71680 -119.04839 -20.52999 459
3247.93262 -138.63136 -20.10246 459
3252.01123 -158.16107 -21.08373 458
3256.19775 -177.73698 -21.22518 458
3260.29004 -197.53935 -21.22730 458
3264.15894 -217.67235 -21.23619 457
37644.49219 -2811.43481 -6056.09961 1000
3274.22827 -238.29402 -22.05022 428
3285.97681 -259.05762 -22.79127 359
30162.88477 -12531.04785 5524.49219 1000
2554.87183 -1151.99170 -0.08049 332
2538.19165 -1162.73523 0.05782 499
2543.35864 -1165.13123 44.32658 485
2551.17407 -1168.62646 88.79119 415
2541.20996 -1182.83728 -0.38038 321
4273.01953 -3581.22534 42.79451 307
4259.21338 -3612.45044 41.88765 430
4426.92139 -3759.69434 133.13356 445
4255.60742 -3654.34229 42.24434 419
4388.00879 -3770.99487 133.27478 443
4250.84180 -3696.53223 41.23651 411
4348.66064 -3783.58594 132.90627 446
4249.80957 -3741.68018 40.81162 393
4309.08398 -3795.89771 133.02959 447
4251.57275 -3789.56006 40.05329 390
4271.92773 -3807.74390 133.17151 448
4258.00391 -3842.83301 40.50754 374
4248.81787 -3833.81396 132.84283 483
4274.03711 -3905.76538 38.33813 356
4257.71533 -3890.32983 133.00993 370
4333.70801 -4109.99316 132.58618 361
4253.35352 -4342.35693 33.94320 357
10104.53809 -10712.06250 -2534.55420 1000
2915.11206 -3054.75146 64.19008 497
28786.35547 -33492.26172 4478.03662 1000
8214.40332 -9961.94238 -1559.42188 1000
24523.99609 -33188.08984 807.38928 1000
2929.72241 -4218.11182 132.44118 378
9321.72266 -14691.04883 -4213.37402 1000
2035.83264 -3262.22681 256.13388 1000
3098.87256 -5213.94434 136.01988 386
3085.76001 -5189.16943 234.59836 362
3040.64453 -5183.42432 135.61447 288
2884.01904 -5204.50586 232.14525 475
2871.00708 -5181.02002 328.13889 422
2843.47632 -5205.94385 232.34366 476
2835.94897 -5190.90918 327.71045 422
2805.92993 -5210.55127 231.50960 496
2800.28101 -5201.32227 327.42651 423
2752.20264 -5186.78662 135.57831 472
2770.70508 -5220.31201 232.38936 496
2765.17090 -5212.41895 327.31827 465
2717.08179 -5195.60840 135.13336 474
2733.08472 -5226.81982 231.52505 496
2731.74390 -5224.41748 327.68069 496
2681.88403 -5205.54932 135.54585 474
2698.57202 -5237.93457 231.81717 497
2697.25269 -5235.49170 327.15244 497
2810.86523 -5462.85693 436.07166 463
2648.16992 -5217.45312 135.00328 441
2664.56812 -5249.50977 231.51108 497
2662.86865 -5247.54102 327.19949 497
2614.71460 -5229.58545 135.36974 441
2630.96362 -5265.47461 231.19170 497
2630.97729 -5264.71729 326.96890 497
2580.73022 -5240.16113 135.10332 441
2597.72607 -5276.03271 230.71037 497
215.16843 -452.77359 16.66425 497
2546.48291 -5253.38672 134.92024 446
2562.58911 -5287.25732 231.56476 498
2561.84082 -5286.18457 326.50607 497
2605.10132 -5379.93750 427.52628 407
2513.15942 -5264.00684 134.51903 446
2559.68994 -5365.24072 231.40077 280
2565.36011 -5380.08789 329.90204 302
2569.20459 -5386.93750 426.22943 471
2478.91919 -5277.86865 134.50938 391
2544.59424 -5421.02490 427.00269 468
48.56168 -109.01812 0.05550 391
2514.93237 -5444.81787 428.49960 487
2412.59766 -5301.92578 134.70181 385
2379.54688 -5314.55078 134.36263 385
2346.30591 -5326.22119 135.07368 385
2314.21436 -5342.23584 134.86862 316
2369.82178 -5476.15088 232.12639 492
2281.02124 -5356.11768 134.11812 316
2386.38745 -5615.28467 233.72958 491
2248.67310 -5370.73193 134.03947 316
2259.02515 -5395.71045 229.40202 499
2224.65259 -5406.68994 229.39830 499
2206.96338 -5461.23584 230.51505 480
2167.64502 -5461.08447 230.45651 481
2133.79028 -5469.80957 229.77570 495
2096.18701 -5471.01025 325.50006 436
1338.26855 -4377.33789 207.99013 436
906.59143 -3511.40796 132.85168 290
858.33899 -3396.07593 132.46585 291
812.93146 -3289.52148 132.69125 287
772.60266 -3200.87378 132.40903 331
779.25201 -3230.39551 186.96680 304
743.49487 -3157.31323 132.48593 359
749.54181 -3184.98291 185.86072 459
716.51965 -3125.02173 132.56566 379
727.42615 -3177.32471 185.44487 449
692.27893 -3099.02466 133.03413 387
708.15582 -3183.54736 185.31592 472
668.40094 -3077.23950 132.74780 362
689.57410 -3190.82471 185.74776 471
645.62830 -3059.36792 132.55586 411
670.83466 -3198.74097 185.72838 471
622.25348 -3040.72119 133.02005 412
651.53601 -3206.93384 186.20287 471
601.01361 -3027.36499 132.92563 405
632.90851 -3215.61743 185.93979 470
579.88544 -3012.05273 132.88670 410
613.69714 -3223.37573 186.34978 470
558.40491 -2997.22290 132.74966 411
594.92792 -3231.43994 186.41719 470
537.27728 -2983.68701 132.74501 412
575.54700 -3239.74536 186.38318 469
521.58569 -3005.60010 132.72858 260
556.15283 -3247.58887 185.89017 469
511.17654 -3065.49390 132.84871 302
538.98676 -3266.55615 185.93983 362
-20543.48438 -63699.55078 6702.44336 1000
-928.85760 -1858.94897 96.56029 488
-927.63934 -1857.48718 130.97520 488
-926.99176 -1855.94202 165.68719 489
-925.95514 -1854.33984 200.34486 489
-925.50977 -1852.70459 235.17648 489
-924.49371 -1850.99536 269.70425 489
-923.62970 -1849.29419 304.14093 454
-590.95551 -1228.93127 61.97746 483
-590.38654 -1228.11194 85.04893 499
-589.97736 -1227.19934 108.18337 499
-589.66034 -1226.35449 131.44966 499
-589.00824 -1225.27905 154.40025 490
-588.93445 -1224.56250 177.24142 490
-588.50909 -1224.01025 200.21402 490
-587.89569 -1223.14783 223.22597 457
-587.80060 -1223.00500 246.32268 456
-587.68329 -1222.33960 269.34735 456
-587.22852 -1222.24731 292.77142 363
-597.16125 -1221.57825 223.60732 317
-596.14941 -1220.16589 246.59515 388
-595.17029 -1218.60413 269.63913 445
-594.60480 -1217.58630 292.45761 397
90.16898 -2.93946 127.74903 360
90.16872 -2.93887 128.00009 361
90.16895 -2.94004 128.24748 361
89.69221 -3.09265 128.38774 302
90.28287 -2.82626 127.76896 361
90.28217 -2.82529 128.02057 362
90.28026 -2.82658 128.26663 362
89.73017 -3.00031 128.38669 302
88.51551 -3.37849 128.38545 298
90.39107 -2.71524 127.78968 363
90.39395 -2.71558 128.03902 363
90.39318 -2.71402 128.28474 364
89.76867 -2.90657 128.38776 302
88.55068 -3.28057 128.38663 298
90.50130 -2.60583 127.81120 364
90.50069 -2.60575 128.05763 364
90.50118 -2.60676 128.30219 365
89.80643 -2.81341 128.38669 302
88.59123 -3.18050 128.38690 298
90.61011 -2.49678 127.82970 365
90.61040 -2.49836 128.07516 366
90.61073 -2.49862 128.31659 366
89.84772 -2.72092 128.38585 302
88.62783 -3.08027 128.38696 298
90.71450 -2.39204 127.84969 367
90.71524 -2.39227 128.09099 367
90.71575 -2.39133 128.33412 368
89.88759 -2.62798 128.38741 302
88.66744 -2.97901 128.38538 298
90.81969 -2.28617 127.86550 368
90.82038 -2.28680 128.10767 368
90.81898 -2.28640 128.34859 369
89.92972 -2.53695 128.38538 302
88.70722 -2.87953 128.38658 298
90.92384 -2.18496 127.88262 369
90.92332 -2.18510 128.12553 370
90.92394 -2.18454 128.36433 370
89.97149 -2.44467 128.38582 302
88.75039 -2.77757 128.38649 298
87.31055 -3.17133 128.38484 294
91.02597 -2.08184 127.90137 370
91.02702 -2.08161 128.14070 371
91.02630 -2.08181 128.37784 371
90.01407 -2.35204 128.38773 302
88.79174 -2.67802 128.38789 298
87.35118 -3.06304 128.38837 294
91.12578 -1.98033 127.91782 372
91.12651 -1.98015 128.15625 372
91.10616 -1.98722 128.38722 306
90.05546 -2.26026 128.38739 302
88.83122 -2.57753 128.38776 298
87.38944 -2.95389 128.38574 294
91.22601 -1.88016 127.93175 373
91.22581 -1.88057 128.16927 374
91.15224 -1.89935 128.38718 306
90.09943 -2.16729 128.38643 302
88.87373 -2.47667 128.38504 298
87.43240 -2.84175 128.38773 294
91.32523 -1.78127 127.94819 374
91.32449 -1.78133 128.18307 375
91.19481 -1.81459 128.38553 306
90.14343 -2.07301 128.38788 302
88.91872 -2.37775 128.38512 298
87.47480 -2.73326 128.38477 294
91.36597 -1.69903 127.94822 462
91.36546 -1.69991 128.18297 463
91.24017 -1.72903 128.38605 306
90.18797 -1.98159 128.38731 302
88.96352 -2.27749 128.38583 298
87.51746 -2.62414 128.38585 294
91.38786 -1.61970 127.94119 462
91.38567 -1.61934 128.17699 463
91.28594 -1.64247 128.38620 306
90.23285 -1.88825 128.38617 302
89.00729 -2.17551 128.38589 298
87.56090 -2.51557 128.38487 294
91.40833 -1.54140 127.93494 463
91.40781 -1.54124 128.17000 464
91.33434 -1.55597 128.38568 306
90.27810 -1.79778 128.38631 302
88.17667 -2.27368 128.20866 364
87.60381 -2.40530 128.38594 294
91.43018 -1.46008 127.92724 464
91.42873 -1.46040 128.16490 465
91.37948 -1.47163 128.38655 306
90.32681 -1.70556 128.38591 302
87.98012 -2.22295 128.15961 363
87.64728 -2.29522 128.38737 294
91.45181 -1.38113 127.92122 464
91.45172 -1.38066 128.15720 465
91.42717 -1.38534 128.38699 306
90.37317 -1.61300 128.38553 302
87.78102 -2.16873 128.11006 361
87.69475 -2.18879 128.38776 294
91.47121 -1.30162 127.91333 465
91.47237 -1.30093 128.15187 466
91.47208 -1.30118 128.38484 467
90.41938 -1.51963 128.38564 302
87.57026 -2.11389 128.05670 360
87.57295 -2.11205 128.35356 360
86.00755 -2.43902 128.38568 290
91.49380 -1.21977 127.90659 466
91.49345 -1.22078 128.14304 467
91.49317 -1.22200 128.37978 468
90.46870 -1.42716 128.38702 302
87.35528 -2.05453 128.00508 359
87.35750 -2.05345 128.30719 359
86.05280 -2.31720 128.38458 290
91.51466 -1.14139 127.90007 466
91.51458 -1.13951 128.13631 467
91.51548 -1.14125 128.37378 468
90.51712 -1.33610 128.38725 302
87.14365 -1.99325 127.95255 453
87.14624 -1.99445 128.25821 454
86.09969 -2.19847 128.38617 290
91.53661 -1.06084 127.89213 467
91.53686 -1.06005 128.12927 468
91.53758 -1.06048 128.36720 469
90.56649 -1.24317 128.38763 302
87.05706 -1.90614 127.92313 452
87.05630 -1.90488 128.23291 453
86.14653 -2.07837 128.38712 290
91.55886 -0.98024 127.88490 468
91.55845 -0.97935 128.12431 469
91.55750 -0.98001 128.35889 470
90.61482 -1.15247 128.38533 302
86.96848 -1.81908 127.89701 451
86.96688 -1.81648 128.20825 452
86.19636 -1.95752 128.38527 290
91.58093 -0.89838 127.87839 468
91.58054 -0.89678 128.11668 469
91.58047 -0.89869 128.35149 470
90.66505 -1.06027 128.38571 302
86.87912 -1.72582 127.86806 450
86.87692 -1.72567 128.18375 451
86.24652 -1.84011 128.38469 290
91.60165 -0.81759 127.86903 469
91.60080 -0.81613 128.10970 470
91.60170 -0.81749 128.34650 471
90.71567 -0.96681 128.38547 302
86.78553 -1.63608 127.84251 449
86.78744 -1.63433 128.15573 450
86.29657 -1.71896 128.38777 290
91.62493 -0.73647 127.86330 470
91.62411 -0.73487 128.10075 471
91.62425 -0.73676 128.33963 471
90.76836 -0.87589 128.38522 302
86.69437 -1.54208 127.81168 449
86.69198 -1.54259 128.13145 449
86.34775 -1.59832 128.38730 290
91.64569 -0.65269 127.85542 470
91.64706 -0.65415 128.09456 471
91.64575 -0.65284 128.33151 472
90.82144 -0.78487 128.38586 302
86.61636 -1.44552 127.78690 298
86.59961 -1.44866 128.10103 448
86.39814 -1.48056 128.38521 290
91.66632 -0.57121 127.84734 471
91.66785 -0.57098 128.08766 472
91.66663 -0.57169 128.32408 473
90.87289 -0.69142 128.38641 302
86.66664 -1.32841 127.78896 298
86.50246 -1.35140 128.07784 447
86.44843 -1.35919 128.38809 290
91.69009 -0.49045 127.83862 471
91.69083 -0.49035 128.07974 472
91.68978 -0.49046 128.31825 473
90.92660 -0.60095 128.38625 302
86.71468 -1.20850 127.78602 298
86.40510 -1.25427 128.05017 447
86.40334 -1.25302 128.37115 447
91.71190 -0.40659 127.83164 472
91.71179 -0.40713 128.07159 473
91.71230 -0.40846 128.31097 474
90.98045 -0.50928 128.38625 302
86.76523 -1.09185 127.78743 298
86.30781 -1.15609 128.01891 446
86.30752 -1.15530 128.34312 446
91.73383 -0.32447 127.82321 473
91.73353 -0.32421 128.06279 473
91.73498 -0.32430 128.30296 474
91.03358 -0.41823 128.38751 302
86.81952 -0.97400 127.78873 298
86.27811 -1.04680 128.00734 493
86.27532 -1.04761 128.33128 494
91.75628 -0.24073 127.81410 473
91.75572 -0.24063 128.05571 474
91.75504 -0.24079 128.29411 475
91.08831 -0.32483 128.38657 302
86.87260 -0.85733 127.78601 298
86.24794 -0.93690 127.99083 493
86.24411 -0.93512 128.31487 494
91.77855 -0.15780 127.80617 474
91.77728 -0.15842 128.04614 475
91.77908 -0.15837 128.28712 476
91.14536 -0.23426 128.38612 302
86.92686 -0.73892 127.78893 298
86.21651 -0.82234 127.97606 493
86.21593 -0.82251 128.30418 494
91.80030 -0.07519 127.79808 474
91.79980 -0.07449 128.03815 475
91.79957 -0.07454 128.27919 476
91.19998 -0.14443 128.38562 302
86.98050 -0.62081 127.78892 298
86.18727 -0.71091 127.96100 493
86.18731 -0.70961 128.28775 493
91.81943 0.00899 127.78875 488
91.81750 0.00760 128.02884 489
91.81997 0.00766 128.26965 490
91.25639 -0.05199 128.38539 302
87.03481 -0.50274 127.78836 298
86.15586 -0.60027 127.94208 493
86.15840 -0.59967 128.27545 493
91.79617 0.08845 127.76646 488
91.79655 0.08697 128.01007 489
91.79674 0.08718 128.25269 490
91.31396 0.03912 128.38536 302
87.08974 -0.38762 127.78672 298
86.12608 -0.48493 127.92926 492
86.12605 -0.48405 128.25710 493
91.77675 0.16792 127.74763 488
91.77444 0.16893 127.99153 489
91.77554 0.16932 128.23248 490
91.37269 0.13038 128.38768 302
87.14561 -0.26885 127.78649 298
86.09361 -0.36858 127.91324 492
86.09515 -0.37217 128.24390 493
91.75446 0.24873 127.72476 487
91.75385 0.24896 127.97118 488
91.75388 0.24976 128.21410 489
91.43072 0.21954 128.38712 302
87.20090 -0.15317 127.78741 298
86.06278 -0.25493 127.89536 492
86.06197 -0.25397 128.22716 492
84.89678 -0.35843 128.38541 286
91.73193 0.33286 127.70425 487
91.73164 0.33231 127.95163 488
91.73260 0.33198 128.19554 489
91.48936 0.31187 128.38739 302
87.26096 -0.03655 127.78762 298
86.03171 -0.13634 127.87931 492
86.03438 -0.13838 128.21367 492
84.95525 -0.22499 128.38824 286
91.71072 0.41364 127.68246 487
91.71039 0.41453 127.93034 488
91.71096 0.41489 128.17847 489
91.54839 0.40102 128.38596 302
87.31922 0.07993 127.78635 298
86.00124 -0.02022 127.86226 491
86.00065 -0.02120 128.20065 492
85.01903 -0.09478 128.38678 286
91.68678 0.49676 127.66110 487
91.68767 0.49902 127.91138 488
91.68602 0.49911 128.15936 488
91.60761 0.49255 128.38611 302
87.37896 0.19702 127.78738 298
86.02279 0.10003 127.85760 482
86.02119 0.10058 128.19142 483
85.07995 0.03371 128.38806 286
91.66543 0.58284 127.63986 486
91.66384 0.58232 127.88982 487
91.66400 0.58324 128.13983 488
91.66511 0.58433 128.38495 489
87.43784 0.31384 127.78564 298
86.05782 0.22349 127.84896 483
86.05756 0.22696 128.18932 483
85.14243 0.16618 128.38637 286
91.64220 0.66742 127.61717 486
91.64168 0.66912 127.87002 487
91.64161 0.66822 128.12062 488
91.64301 0.66891 128.36778 489
90.50310 0.60396 128.38541 298
86.08935 0.34971 127.84468 483
86.08838 0.34931 128.18462 484
85.20831 0.29961 128.38547 286
91.61925 0.75568 127.59658 486
91.61793 0.75524 127.84824 487
91.61919 0.75355 128.10023 488
91.61935 0.75344 128.34929 488
90.56607 0.70078 128.38528 298
86.12424 0.47081 127.84061 483
86.12309 0.47405 128.17929 484
85.27393 0.42766 128.38663 286
91.59552 0.84222 127.57309 485
91.59473 0.84002 127.82677 486
91.59575 0.84110 128.08122 487
91.59479 0.84239 128.32956 488
90.62899 0.79810 128.38589 298
86.15773 0.59438 127.83650 484
86.15326 0.59545 128.17247 485
85.34072 0.55774 128.38730 286
91.57089 0.92951 127.55152 485
91.57335 0.92929 127.80731 486
91.57184 0.93110 128.05969 487
91.57130 0.93018 128.31276 488
90.69129 0.89641 128.38776 298
86.18680 0.72027 127.82926 484
86.18632 0.71947 128.16563 485
85.40410 0.68778 128.38553 286
91.54675 1.01767 127.52787 485
91.54761 1.01962 127.78654 486
91.54669 1.01967 128.03993 487
91.54706 1.01861 128.29399 487
90.75522 0.99367 128.38745 298
86.21973 0.84255 127.82412 485
86.22203 0.84157 128.16319 486
85.47434 0.82021 128.38744 286
91.52428 1.10766 127.50452 484
91.52315 1.10688 127.76260 485
91.52332 1.10807 128.01920 486
91.52356 1.10713 128.27457 487
90.81983 1.09044 128.38535 298
86.25617 0.96660 127.82009 485
86.25397 0.96586 128.15631 486
85.54074 0.94743 128.38519 286
91.49915 1.19962 127.48278 484
91.49987 1.19977 127.74168 485
91.49801 1.19958 127.99993 486
91.49922 1.19899 128.25562 487
90.88671 1.18692 128.38713 298
86.28857 1.09066 127.81084 486
86.28687 1.08966 128.14973 486
85.61197 1.07996 128.38568 286
91.47499 1.29138 127.45885 484
91.47423 1.29242 127.72038 485
91.47421 1.29087 127.97877 486
91.47540 1.29102 128.23608 486
90.95225 1.28536 128.38792 298
86.36907 1.21787 127.81355 421
86.36780 1.21708 128.15421 421
85.68011 1.20717 128.38486 286
91.45138 1.38285 127.43710 483
91.44949 1.38449 127.69697 484
91.44982 1.38296 127.95766 485
91.44991 1.38385 128.21748 486
91.01767 1.37940 128.38789 298
86.49191 1.34027 127.82508 422
86.49409 1.34517 128.16051 422
85.75273 1.33852 128.38632 286
91.42454 1.47700 127.41233 483
91.42434 1.47672 127.67715 484
91.42519 1.47654 127.93762 485
91.42581 1.47766 128.19615 486
91.08395 1.47785 128.38565 298
86.61854 1.46804 127.83659 423
86.61939 1.46767 128.17236 424
85.82195 1.46569 128.38783 286
