# .PCD v.7 - Point Cloud Data file format
VERSION .7
FIELDS x y z rgb
SIZE 4 4 4 4
TYPE F F F U
COUNT 1 1 1 1
WIDTH 1107
HEIGHT 1
VIEWPOINT 6827.779785 -2906.411865 142.898087 -0.588063 -0.121152 -0.085538 0.795102
POINTS 1107
DATA ascii
-196.09583 0.90751 53.34307 324
-196.16862 2.71919 53.31832 324
-196.13118 4.49457 53.33285 324
-196.18051 6.32683 53.34452 324
-196.13847 8.11330 53.31816 324
-196.18201 9.91042 53.28114 324
-196.18214 11.68699 53.32790 324
-269.66904 57.72681 32.70679 319
-283.90738 59.97018 35.50140 317
-263.39960 58.99722 34.28408 320
-277.84460 61.44748 36.92255 323
-293.99158 64.05875 39.78482 313
-259.46295 60.67829 35.26111 350
-274.10043 63.15876 37.81651 347
-290.19699 65.82669 40.54700 341
-257.57034 62.56437 35.70977 351
-272.09677 65.06857 38.23273 347
-288.19778 67.97758 40.95296 341
-255.73929 64.51147 36.12333 351
-270.21005 67.13518 38.70133 345
-289.30194 70.55815 40.57344 318
-253.87067 66.34846 36.53388 351
-269.62479 69.30417 38.75400 322
-251.98843 68.14789 36.85727 349
-271.60431 71.96864 38.12545 319
-253.55553 70.72417 36.40585 322
-273.87878 74.84104 37.42659 318
-255.52094 73.37383 35.74126 321
-257.58401 76.12557 35.06018 321
-16126.58008 3467.76147 943.57776 453
-16179.09863 3585.27368 673.73431 453
-16055.54688 3555.95581 943.95398 458
-16101.12207 3670.95679 672.49164 457
-15981.57324 3646.42212 938.96478 464
-16033.64551 3759.39111 671.16656 463
-15916.67285 3735.53003 938.14697 465
-15965.28223 3848.01587 672.76105 464
-15850.54102 3820.51733 935.42352 465
-15897.86426 3939.36401 670.95490 464
-15783.69043 3907.93433 935.11456 473
-15833.54785 4026.01904 666.67322 465
-15720.93066 3994.99658 932.05762 474
-15768.86133 4114.72217 667.14044 465
-15653.78320 4081.61377 928.41449 474
-15704.08105 4198.94580 664.42743 466
-15592.35352 4168.16064 928.27423 475
-15639.62402 4286.65137 662.66046 466
-15525.51074 4256.44971 928.21838 478
-15572.07617 4370.85303 662.70026 467
-15464.87402 4340.91797 924.72656 479
-15508.12305 4457.78857 663.27106 468
-15399.37695 4424.94727 923.35193 479
-15444.33008 4541.80176 663.38397 468
-15336.55859 4509.50928 920.22498 480
-15379.93359 4625.40381 661.90540 469
-15276.35645 4592.94775 918.02435 481
-15315.98340 4711.81836 660.52930 469
-15209.73047 4679.19629 919.10687 481
-15252.16699 4793.07275 660.05310 470
-15150.98438 4764.90527 914.68323 482
-15189.50586 4876.19678 655.38501 470
-15087.03418 4843.12598 913.92920 482
-15126.20312 4959.22559 657.04962 470
-15028.10156 4927.62451 912.97772 483
-15065.60938 5045.05518 652.88495 471
-14962.68652 5011.93018 910.67682 483
-15003.92578 5125.68164 652.66205 471
-14901.39746 5092.67188 912.28192 483
-14940.55957 5209.05957 652.19287 472
-14843.61523 5173.90234 910.30981 484
-14880.29004 5290.93994 651.34814 472
-14783.97461 5256.59668 909.63300 484
-14817.40332 5374.22754 651.27313 473
-14719.97461 5337.39062 907.53186 485
-14755.72070 5455.47266 649.01105 473
-14659.14258 5419.62842 907.07941 485
-14695.11816 5535.94482 650.37634 474
-14598.87109 5499.93359 902.34186 486
-14632.16699 5616.92334 651.11444 474
-14542.85352 5579.28955 902.53278 486
-14571.19727 5692.59277 646.96295 474
-14482.62109 5660.92676 901.68848 486
-14513.20996 5775.35840 649.30994 475
-14421.69824 5738.44287 900.36310 487
-14452.21875 5853.64307 648.60468 475
-14362.99902 5818.84473 900.37610 487
-23195.75000 9369.93262 3858.02295 1000
-14392.89355 5932.84912 646.35986 476
-14302.24219 5899.32178 898.06189 488
-14332.82910 6014.83594 644.85504 476
-14242.72852 5977.74854 895.69196 488
-14269.87012 6092.00244 643.47357 476
-14185.68066 6056.44141 895.16089 488
-14211.29980 6169.57520 644.30835 477
-14127.87598 6133.87207 893.37317 489
-14153.55566 6248.33008 641.61768 477
-14072.05859 6211.75293 893.36584 489
-14094.86523 6328.55029 643.62714 477
-14013.53223 6289.68652 891.76599 489
-14696.12109 6595.50195 1196.65161 480
-14032.32520 6406.79248 643.17944 478
-13954.52148 6371.17139 892.54913 490
-14616.69043 6670.94189 1192.70288 481
-14695.89648 6703.76416 1464.15247 404
-13975.55566 6483.51709 640.37714 478
-13893.63574 6445.05127 892.14813 490
-14537.79492 6742.48486 1189.05981 481
-14619.13184 6779.05273 1464.54541 404
-13915.81641 6560.10791 641.29547 478
-13837.52246 6524.25049 890.85028 490
-14461.13281 6815.92676 1186.85315 482
-14541.08301 6851.46826 1460.62634 405
-13856.82324 6636.80420 639.74359 478
-13779.55762 6601.68652 890.15503 491
-14384.67285 6889.50293 1183.83887 483
-14463.01855 6923.08936 1456.20142 405
-13798.66309 6713.05811 638.51373 479
-13725.14648 6676.39551 886.60114 491
-14308.62891 6958.58545 1183.55249 483
-14388.01758 6996.66064 1451.90857 405
-13741.59766 6790.58398 639.27094 479
-13666.73730 6755.93115 886.22351 491
-14231.06836 7030.27881 1182.08032 484
-14308.92969 7070.43604 1450.85303 406
-13683.15625 6870.52344 636.94720 479
-13607.66797 6829.52295 887.48840 492
-14157.80273 7103.36865 1179.28552 484
-14233.53613 7143.63965 1448.13708 406
-13625.10742 6946.50537 636.79803 480
-13548.96387 6907.83643 887.19153 492
-14081.86621 7178.01416 1178.20532 485
-14157.96484 7216.63672 1442.87146 407
-13565.53320 7022.90234 638.84265 480
-13494.00879 6982.33398 883.96790 492
-14014.83203 7253.50342 1175.47424 495
-14089.90625 7287.50684 1442.26318 414
-13509.65234 7096.62939 636.15338 480
-13437.13672 7061.50537 883.05206 492
-13957.56152 7329.73340 1175.27954 496
-13451.98047 7176.43262 636.21045 480
-13379.73926 7135.03027 884.00232 493
-13896.18262 7409.05176 1175.08325 496
-13392.21387 7248.73096 635.90009 481
-13323.87793 7211.09326 884.47748 493
-13835.04004 7487.69531 1170.37109 496
-18449.20703 9962.34473 4683.11914 1000
-13334.65234 7327.38721 636.69928 481
-13267.56738 7289.88086 883.62439 493
-13778.80566 7565.36670 1171.12170 496
-13278.02246 7402.10059 633.71008 481
-13211.73730 7363.88574 882.62109 493
-13716.71973 7645.49268 1171.01917 497
-13221.17578 7478.98096 637.23132 481
-13152.90820 7440.79590 881.70898 493
-13658.66797 7721.73779 1170.61243 497
-13162.53125 7551.84766 633.95605 481
-13095.65430 7515.48877 883.53809 494
-13600.27441 7800.95312 1168.61877 497
-13104.87598 7625.66162 635.01666 482
-13041.20410 7590.91992 881.87762 494
-13449.92578 7826.62402 1159.86499 496
-13049.49707 7701.52295 634.93561 482
-12986.32031 7664.11768 882.59949 494
-13392.44727 7901.53223 1162.12817 496
-13513.15332 7974.52881 1431.12085 497
-12991.62988 7778.60059 632.28290 482
-12930.80957 7741.13965 878.55347 497
-13333.79395 7980.71924 1159.90393 490
-13452.47168 8048.80225 1427.49304 497
-12935.76074 7850.60840 633.07117 482
-12872.44238 7812.35742 880.05823 497
-13275.31543 8054.90869 1159.87109 490
-13392.49414 8129.54199 1428.60547 498
-13523.97461 8205.32520 1701.52734 445
-12878.34375 7927.29053 631.90143 482
-12817.61914 7890.01709 877.38013 497
-13216.75977 8132.26562 1160.77856 486
-13336.48145 8203.29297 1425.98706 498
-13455.13770 8280.04199 1699.00220 491
-12822.00879 8002.30713 633.23102 482
-12762.28516 7965.57568 880.26678 497
-13246.15918 8263.48242 1163.78381 498
-13249.15430 8267.36621 1425.36316 443
-13247.82324 8265.16895 1684.27722 443
-12763.24609 8074.70703 634.25342 482
-12708.44824 8039.26465 879.86517 497
-13137.33691 8308.99316 1158.29932 445
-13134.87598 8306.58496 1418.32617 444
-13131.54590 8303.90430 1673.47754 444
-12708.21387 8151.41748 632.52771 483
-12649.69531 8115.34424 878.00269 497
-13021.73438 8348.58105 1155.89331 446
-13019.98633 8348.52734 1411.64209 445
-13015.14355 8344.96875 1666.24927 445
-12651.81543 8226.71484 634.56299 483
-12597.65625 8187.13770 877.67261 497
-12905.71094 8386.81543 1151.68945 446
-12905.97168 8388.93750 1406.60852 446
-12904.10645 8387.30469 1658.17310 446
-12593.19531 8298.96582 633.70782 483
-12540.55762 8262.61621 876.48792 497
-12831.43262 8451.57031 1150.28918 499
-12825.72266 8449.15625 1402.42480 498
-12823.60645 8444.78613 1658.76599 498
-12538.05273 8374.80078 632.92450 483
-12485.88184 8339.81934 878.03473 498
-12749.29004 8510.93164 1146.84924 499
-12744.16113 8507.67383 1398.26489 499
-12765.98828 8523.04395 1656.34631 498
-13021.01660 8690.02734 1944.59644 479
-13421.90625 8954.78613 2540.02783 408
-13408.56543 8945.46289 2811.87378 484
-13408.15234 8946.41992 3086.14575 483
-12483.79785 8447.49121 634.77905 483
-12430.50977 8413.81738 877.25714 498
-12693.73633 8590.59961 1145.87195 499
-12686.79590 8584.11523 1397.92383 499
-12707.65820 8597.97070 1656.63379 498
-12961.52441 8768.71094 1944.06653 480
-12855.76562 8697.47754 2451.08423 385
-12849.09473 8690.44531 2710.99756 485
-12511.58008 8579.56934 385.68884 480
-12426.35352 8521.98438 633.81982 491
-12373.10254 8486.39746 878.19922 498
-12634.92383 8666.20020 1145.40210 499
-12629.48926 8657.90527 1398.69141 499
-12650.82910 8672.95703 1654.35999 498
-12901.98926 8842.70703 1944.45764 480
-12456.47168 8655.76660 385.03836 480
-12370.51660 8597.22559 634.35913 491
-12318.72852 8561.19336 876.15082 498
-12578.17773 8741.54297 1147.60205 499
-12573.42676 8737.61914 1399.69971 499
-12589.88574 8747.95215 1653.41821 499
-12842.93066 8921.52246 1944.81238 480
-12398.87207 8729.18457 385.53711 480
-12312.18652 8670.41211 632.69531 491
-12263.59375 8633.41699 879.07605 498
-12521.77344 8814.30566 1145.84448 499
-12516.12598 8811.79004 1400.04309 499
-12535.41016 8822.65137 1653.81677 499
-12785.14355 8997.51270 1945.00208 480
-12338.93750 8805.33789 385.95578 480
-12259.06738 8745.17188 632.36688 491
-12209.02637 8708.50977 877.54218 498
-12462.23828 8891.39258 1147.29761 499
-12456.65820 8885.41797 1396.40869 499
-12475.22656 8900.59277 1653.79810 499
-12723.51074 9072.93066 1945.17712 480
-12284.54980 8880.60352 388.52811 480
-12200.47461 8820.07324 633.74219 491
-12153.11621 8782.21777 878.68073 498
-12405.84277 8967.04688 1147.30042 499
-12403.10547 8961.03809 1397.44849 499
-12418.71680 8972.66211 1654.61914 499
-12664.95215 9149.28223 1942.43127 480
-12228.20020 8951.97461 387.18710 480
-12144.94629 8893.41016 632.69110 491
-12097.80664 8857.09082 877.24042 498
-12349.72363 9039.91699 1147.35376 499
-12345.77051 9036.68750 1397.12964 499
-12361.95215 9050.58887 1651.72620 499
-12610.05273 9227.65039 1945.17651 471
-12169.23633 9027.18262 387.83032 480
-12092.60840 8966.77441 631.60687 491
-12042.81152 8931.12500 877.95416 498
-12316.94629 9133.26758 1146.78137 499
-12309.66895 9130.44629 1399.61719 499
-12092.14355 8970.42383 1627.51917 349
-12549.91504 9304.23926 1944.45569 471
-12112.05469 9102.14062 387.32495 480
-12035.82031 9043.12988 632.73969 491
-11986.07031 9004.46289 876.06537 498
-12257.04980 9206.29199 1147.39185 499
-12254.64453 9203.53516 1400.25806 499
-11981.18359 9000.41895 1621.55017 499
-12493.95312 9382.50684 1944.53186 472
-12056.15137 9176.33691 386.43854 480
-11977.03711 9115.94336 632.95520 491
-11930.15918 9081.85840 876.52930 498
-12114.56445 9219.13867 1140.61243 293
-12059.18945 9176.23047 1387.36584 280
-11923.12988 9072.17285 1621.35938 499
-12435.20605 9459.67676 1943.20911 471
-12000.33203 9252.28516 386.67569 480
-11924.25391 9190.01367 631.70819 491
-11876.32715 9153.71777 876.06879 498
-12041.08691 9278.35938 1138.07361 292
-11950.52148 9210.28906 1382.20764 462
-11867.23633 9149.00781 1620.14038 499
-12378.13672 9535.17871 1941.79749 475
-11943.68262 9324.70312 385.04202 480
-11865.53809 9266.06250 633.93085 491
-11819.60547 9230.54688 878.80481 498
-12086.96875 9435.66797 1145.42285 499
-12080.99414 9429.03711 1402.18127 499
-11811.55859 9219.43359 1622.37146 499
-12320.59961 9614.51953 1943.73853 475
-11886.03516 9401.15820 386.57578 480
-11810.69141 9340.47754 635.01636 491
-11764.53125 9302.58887 876.15790 377
-12027.19141 9509.93262 1149.04016 499
-12025.67578 9505.80762 1401.14709 499
-11759.14941 9299.31641 1623.08032 342
-12264.49414 9692.21973 1943.82434 475
-11829.36035 9471.19336 385.46960 480
-11755.06543 9413.65039 632.75592 491
-11715.96973 9379.49316 879.19287 377
-11976.71387 9587.18164 1147.24683 458
-11969.88184 9581.22070 1401.27075 458
-11988.74512 9597.40137 1657.93494 281
-12208.13574 9770.65430 1944.92737 475
-11773.95898 9548.27441 387.03674 480
-11697.04395 9489.21484 634.45612 491
-11664.73145 9460.47852 877.53992 446
-11964.67871 9699.59863 1152.20886 458
-11956.23438 9692.34473 1406.84644 457
-11967.32129 9702.43262 1663.22351 356
-12171.60449 9864.49316 1947.21289 462
-11718.62207 9622.15723 385.80783 480
-11642.24707 9563.43555 631.26593 491
-11609.10938 9530.93262 878.90045 446
-11942.03906 9802.57812 1156.94421 476
-11945.39160 9809.70898 1412.90234 457
-11944.62500 9805.84961 1666.80042 364
-11662.29883 9695.51074 387.04102 480
-11585.82910 9636.34570 634.43408 491
-11549.26855 9604.77832 878.41022 446
-11911.63281 9900.85156 1157.10779 476
-11934.29980 9924.80371 1418.04102 456
-11936.43652 9926.67285 1675.15369 362
-11603.55957 9770.48047 388.56342 480
-11531.91797 9712.00879 633.42987 491
-11492.24219 9678.85449 877.77667 446
-11875.41992 9999.85547 1159.89111 475
-11911.77148 10027.63379 1421.24695 474
-11544.63086 9844.68848 388.83615 480
-11474.06738 9783.18262 632.92120 491
-11436.95996 9752.63965 880.21045 446
-11847.48145 10099.16895 1162.53467 475
-11882.40820 10128.12891 1424.16028 474
-11490.57520 9920.35938 389.71283 480
-11418.54785 9857.97266 634.11920 491
-11383.11328 9826.33105 880.92596 464
-11814.25879 10195.45996 1165.92175 474
-11431.68652 9995.81348 385.70309 480
-11364.19336 9932.47070 633.29272 491
-11328.38184 9902.55371 880.22736 424
-11374.89551 10067.77832 387.76828 480
-11303.79980 10009.43750 636.24103 491
-11272.20508 9979.17676 882.09955 424
-1584.48877 1492.09473 59.54747 481
-1588.36914 1495.59448 96.18499 481
-1592.30981 1498.98254 133.33775 479
-11320.19727 10143.45898 389.55786 480
-11250.68555 10082.16699 637.31860 491
-11224.62891 10057.48047 884.07178 302
-1577.33569 1504.39880 59.14703 458
-1582.85913 1509.41882 96.31130 406
-11259.18457 10218.47656 387.60843 480
-11195.01270 10158.51855 636.09680 490
-11180.82422 10142.80859 881.87061 296
-11204.72363 10295.32129 387.69827 480
-11135.92383 10234.11133 636.73059 490
-11135.48926 10227.46582 886.41797 296
-11144.98926 10367.67676 389.63031 479
-11079.18945 10307.00098 635.49396 490
-12240.82520 11375.36719 961.67206 423
-11087.78613 10445.15918 390.51447 479
-11022.32324 10383.39453 637.73364 490
-12175.12402 11457.68945 965.52167 424
-11030.83105 10516.55176 390.87384 479
-10967.82617 10456.85840 638.93628 490
-12112.43848 11535.72949 966.63922 424
-10974.92969 10594.65137 389.68033 479
-10912.78809 10532.68555 637.44897 490
-12043.91797 11618.55469 963.89587 420
-10919.17188 10667.51953 388.41455 479
-10854.03516 10607.47852 635.78760 490
-11982.25586 11699.60840 964.87067 420
-10857.72168 10746.05859 389.67087 479
-10795.98633 10682.63867 637.75433 489
-11921.64746 11784.00195 964.48083 420
-10802.69531 10818.99805 392.01160 479
-10739.69629 10758.34766 638.61121 489
-10745.18555 10894.87402 388.74045 478
-10683.59766 10836.37988 639.97614 489
-10685.32910 10971.83789 390.26620 478
-10626.30664 10908.83887 641.88202 489
-10629.20508 11049.61328 391.29095 478
-10569.22070 10987.66016 641.27448 488
-10570.51660 11122.53613 393.33371 478
-10512.31445 11064.13770 640.03857 488
-10511.54395 11200.63867 389.50925 478
-10453.01270 11137.05957 639.82904 488
-10454.67871 11276.30273 389.85559 477
-10397.10840 11216.06836 643.49310 488
-10394.60742 11352.14160 393.03665 477
-10340.58984 11290.63770 640.90778 488
-10351.07129 11303.16211 893.59277 428
-10337.18164 11430.20215 390.51715 477
-10281.37598 11365.77051 644.43591 487
-10289.69238 11378.42383 894.78113 428
-10276.20508 11502.68164 393.84116 477
-10223.20020 11444.56641 643.56128 487
-10231.96387 11453.36035 895.34424 428
-10216.88965 11582.34180 393.32690 476
-10161.98730 11522.64453 644.25732 487
-10170.92871 11528.63477 898.71008 434
-10160.04199 11657.12207 393.62433 476
-10106.93750 11596.63672 645.83856 486
-10117.58594 11610.38574 900.78705 434
-10102.36914 11736.00000 393.83694 476
-10049.49512 11676.21289 645.97021 486
-10065.33105 11691.61328 902.29614 396
-10039.17480 11813.93164 394.00690 475
-9988.98926 11752.92285 648.15753 489
-9982.45410 11891.86426 393.05121 475
-9930.64453 11830.27930 646.35876 489
-9921.92383 11971.51855 395.68402 475
-9870.08496 11911.09277 648.53772 488
-9861.34180 12046.06738 394.76147 476
-9814.29102 11987.88672 648.36731 490
-9800.75488 12125.96484 394.41602 476
-9753.62695 12064.96191 651.10699 490
-9740.45996 12204.43945 394.67661 483
-9695.58008 12148.41797 652.57434 490
-9681.17578 12285.18164 394.84702 483
-9634.91113 12223.50293 649.91394 489
-9623.79785 12366.10645 395.23544 463
-9576.70605 12304.93848 650.59521 489
-9574.51855 12457.02637 396.82593 463
-9517.29590 12386.43750 654.58417 488
-9522.45215 12551.65137 400.94156 463
-9459.53906 12466.32031 653.67670 486
-9468.79688 12642.42480 399.35965 462
-9401.07715 12549.93164 655.46515 485
-9418.68359 12732.57324 398.23514 462
-9348.66699 12641.21875 658.52472 468
-9364.61133 12826.27344 398.93051 461
-9297.21680 12733.00000 656.17584 467
-9311.36523 12922.87793 403.28043 460
-9241.68066 12824.66406 659.22314 467
-9260.21973 13015.39551 400.64972 460
-9189.73730 12921.13086 659.51837 466
-13483.01562 18893.70898 1286.97729 1000
-9209.31641 13115.11621 405.40756 418
-9139.96875 13013.53711 662.70203 465
-9172.44434 13236.94336 405.24625 417
-9085.85449 13109.60840 665.69556 465
-9133.96289 13355.48145 407.61050 416
-9036.17578 13212.06152 664.06415 465
-9102.05664 13481.28711 406.37186 394
-8984.77148 13312.53711 666.62805 464
-9069.36426 13618.38379 409.13962 393
-8937.43750 13415.57031 670.47729 464
-9041.49707 13752.72070 409.09631 367
-8894.95898 13537.90625 674.43323 407
-9023.39648 13914.44238 412.57471 366
-8857.39648 13657.23047 675.56262 406
-9053.81055 14150.38086 418.46146 272
-8818.37793 13785.75977 679.50275 405
-8779.76172 13908.77539 681.84332 404
-26007.42383 41491.89453 -8760.58008 1000
-8758.41309 14064.65527 687.08661 367
-25162.50391 40694.41406 -2981.83984 1000
-8738.48926 14230.72461 688.08716 366
-8721.65820 14397.61328 692.71875 365
-8627.35254 20519.37891 -4290.34229 1000
-5844.91113 20242.80273 3625.97705 1000
-10194.94434 40553.39062 6359.36133 1000
-2389.08301 21814.64258 -3114.57178 1000
41.59281 2318.20239 57.13725 353
56.52557 2294.16846 20.68817 344
56.21086 2299.07446 58.07439 400
70.42373 2269.25415 21.60360 393
70.59097 2288.85522 57.94470 372
84.48539 2319.23999 -18.75579 362
84.71069 2250.63892 22.32828 425
84.41628 2279.20630 58.66351 367
98.40477 2288.36914 -16.81580 322
98.45634 2237.29248 23.46554 426
98.48535 2275.66699 58.53619 400
112.66685 2265.99561 -15.73047 419
111.87596 2224.19409 23.99347 435
113.40149 2358.10547 55.62008 471
125.85772 2251.58008 -14.38215 420
125.44030 2212.39355 24.38443 437
127.77428 2364.37671 55.83665 358
139.89809 2237.04150 -13.55913 419
139.08121 2202.40918 24.64313 454
142.90887 2374.15308 55.39137 318
152.88647 2225.28979 -12.60891 446
152.05492 2193.13354 25.20114 455
157.15451 2378.06323 55.46961 435
166.01855 2209.59277 -11.71405 302
165.23805 2184.43555 25.56968 437
178.60854 2189.34131 -10.86232 305
178.52527 2176.35742 26.19226 437
191.61606 2171.00342 -9.69578 404
191.56076 2168.30908 26.12665 438
204.02890 2160.67529 -9.03859 405
204.58430 2161.64062 26.38952 445
216.82384 2150.95190 -8.23507 406
217.08659 2154.81763 26.72242 446
229.60364 2140.38696 -7.56697 406
229.87663 2148.22241 27.02692 384
242.00249 2130.70435 -7.11537 407
242.76291 2143.41772 27.21293 385
254.52075 2122.41553 -6.39366 467
255.82011 2138.07544 27.63614 385
267.20844 2114.97241 -5.84745 476
268.21143 2133.00806 27.65518 386
273.71002 2199.45117 60.64508 487
279.34692 2107.98120 -5.65433 477
280.82803 2124.23511 28.05120 428
286.90475 2194.11035 60.66970 488
291.52319 2101.16675 -5.13206 477
293.92148 2120.53345 28.47612 428
299.77573 2188.22803 60.97269 488
303.96439 2094.92285 -5.33910 482
307.06152 2125.34497 28.17373 300
312.64969 2179.17163 61.17292 396
316.67517 2088.89697 -4.94705 483
326.24326 2177.27051 25.55529 489
327.32767 2190.22046 61.03383 484
328.79858 2082.96899 -4.62772 483
342.75735 2203.24219 24.12831 319
351.05414 2278.73096 58.18736 307
341.28888 2077.02759 -4.09919 484
361.74826 2249.32568 21.96048 318
362.93390 2257.92480 58.51396 314
353.25195 2071.50732 -4.24720 489
384.91467 2323.62573 18.08215 382
365.25085 2066.66113 -3.58664 489
377.67975 2160.04150 25.63927 491
377.77795 2061.49927 -3.30868 489
390.51218 2154.45483 26.29937 491
389.84006 2056.63135 -3.46871 490
402.15820 2142.09888 26.39027 432
406.53024 2082.94287 -39.94426 473
402.27695 2051.75269 -3.01176 490
415.05463 2138.62207 26.74161 492
415.04980 2138.78271 62.23626 492
418.86554 2077.86084 -39.47337 474
413.74234 2046.69482 -3.05267 490
430.32025 2148.54858 25.99182 308
429.09512 2141.64478 62.08998 308
431.20663 2072.80249 -39.51239 474
426.41077 2041.90137 -2.63746 491
454.13367 2212.53687 22.73253 323
448.19052 2176.75879 60.41477 328
449.95004 2187.75879 96.76169 493
450.44498 2188.27368 132.63199 493
443.58331 2067.50903 -39.21479 474
437.97900 2036.84790 -2.74059 491
483.52911 2302.73340 18.19379 324
455.55350 2062.17578 -39.11565 452
450.03983 2032.00562 -2.25310 491
497.50577 2298.70361 18.36870 324
467.43472 2056.68042 -38.37788 452
461.89127 2027.50305 -2.56211 492
511.19138 2295.34863 18.32083 324
491.76126 2189.54761 132.78055 494
485.16373 2151.84644 204.64049 402
479.50137 2051.44702 -38.31070 452
474.35947 2022.50964 -2.21055 492
526.50037 2299.47583 18.05464 436
491.01050 2044.02466 -38.12367 326
486.19226 2017.59680 -1.68065 492
496.29599 2068.61523 29.14696 494
2814.36328 13877.23145 1295.41565 1000
502.64389 2037.25769 -37.51578 326
497.78302 2012.80054 -1.80882 493
508.13226 2063.53198 29.17454 495
508.37027 2063.66064 64.01252 495
514.49884 2030.85461 -37.19421 326
509.55829 2008.03442 -1.92694 493
522.20740 2068.67578 28.81131 495
521.49725 2064.50415 63.90991 289
525.79602 2024.14819 -36.85283 327
521.35291 2003.28833 -1.47255 493
536.12720 2070.69263 28.46336 407
550.40741 2136.98120 61.45688 295
537.65765 2017.69336 -36.64091 327
533.24365 1998.15015 -1.64787 493
577.62677 2196.40869 22.50783 282
579.42688 2205.59790 58.60886 300
549.02271 2011.12280 -36.11055 327
545.39337 1993.57324 -1.34808 494
594.80328 2210.81104 21.26263 496
560.46027 2004.73376 -35.84391 327
556.79376 1988.67480 -1.34830 466
572.14557 1998.49939 -35.74344 327
568.71692 1983.84619 -1.32052 466
583.66040 1991.70605 -35.28114 327
580.43640 1979.21313 -1.03172 466
596.69055 2044.97266 29.50248 496
598.02478 2050.48535 63.83463 420
594.63824 1985.49170 -35.44240 327
591.87811 1974.80945 -0.92666 466
620.08820 2085.65527 132.55441 268
616.20453 2070.62207 167.92239 405
606.17206 1979.60510 -34.95669 328
603.85370 1970.23511 -0.58420 466
654.39545 2164.75732 132.97618 285
653.49744 2160.05688 169.33249 497
617.70386 1973.20447 -34.50461 328
615.81305 1965.84485 -0.75047 467
628.90802 1966.99768 -34.36022 328
627.20874 1961.41431 -0.80504 467
640.06409 1960.35730 -34.22022 328
639.06696 1956.83386 -0.38171 467
651.14380 1955.11938 -34.40000 432
650.23608 1952.14307 -0.40297 467
662.79932 1950.34937 -34.03995 432
662.29614 1947.19910 -0.28771 467
674.28394 1945.06836 -33.92812 432
673.69592 1942.93481 -0.35729 467
685.66339 1939.94910 -33.89260 432
685.25861 1938.18323 -0.01878 467
697.24451 1934.41650 -33.33964 433
697.05164 1933.84827 -0.13220 468
17145.80859 54286.49219 2004.84583 1000
708.36566 1929.61731 -33.48019 433
708.32971 1929.49854 -0.04354 468
720.05939 1924.07336 -33.14655 433
720.22485 1924.42712 0.08910 468
731.08167 1919.23181 -33.36936 433
731.63196 1920.17249 0.00501 468
742.83350 1913.91162 -33.00048 433
742.86542 1915.41443 -0.03463 468
754.11005 1909.11169 -32.90630 433
754.69043 1911.09253 -0.25729 468
799.49207 2039.77344 26.52009 499
765.64874 1903.73547 -32.80855 433
765.94385 1906.27209 -0.25880 468
799.69421 2000.89551 28.30550 499
776.58142 1898.70935 -32.95749 433
777.72766 1901.88550 -0.28313 468
840.40051 2074.19580 60.31004 362
788.86511 1896.35669 -33.43597 428
789.84528 1899.30054 -0.24075 462
802.01788 1896.15930 -33.52019 428
803.59552 1899.79517 -0.46285 391
23915.99023 62195.91797 -11977.99121 1000
815.97101 1898.24902 -33.84551 328
817.41357 1901.44482 -0.72689 390
831.42609 1902.55444 -34.80803 328
912.47559 2110.85962 -16.23424 486
927.10620 2109.69702 -16.08413 462
941.94855 2109.52979 -16.44131 379
12171.18652 22066.03125 -2761.22632 1000
27193.92969 34597.46875 186.89133 1000
1104.89294 774.60803 -34.88054 445
1108.66614 777.31891 -14.12522 445
1112.96887 780.40277 6.63352 387
1107.46667 766.41302 -34.84647 499
1110.79260 768.67102 -13.76657 499
1113.88306 771.36041 7.00459 498
1117.06848 773.42188 27.97331 498
1113.06506 760.87726 -34.84800 489
1117.09485 763.67291 -14.14695 456
1121.10339 766.81683 6.71335 411
1124.66699 759.46259 -35.95670 333
53404.69922 34056.86719 -15654.44727 1000
46765.20312 14026.50684 -1433.27393 1000
64652.80469 17684.80664 -3116.93823 1000
64172.74609 17545.74219 8919.78027 1000
4059.98364 804.96912 -131.03491 304
4072.68262 782.43616 -131.39285 443
4329.95020 832.78394 -77.61964 315
4094.03516 760.63348 -133.43430 422
4313.70264 802.74231 -76.88318 452
4116.17188 738.91248 -133.93546 411
4305.37402 774.00201 -75.59435 453
4139.71680 718.01581 -135.91068 413
4295.22656 745.31189 -75.22111 453
4162.64600 696.07092 -136.44363 407
4286.75244 716.91223 -74.57381 454
4189.29004 674.19165 -138.06995 396
4278.57520 689.80835 -74.50214 454
4219.23633 653.59241 -139.74539 389
4269.59814 662.02014 -73.67066 455
4251.12061 632.34979 -142.12601 382
4265.70605 634.66968 -73.34856 474
4289.08740 611.97205 -144.45613 370
4282.92920 611.53784 -74.07879 399
4341.10840 593.18164 -146.65311 338
4327.22363 590.58331 -75.43776 359
4400.23193 574.54626 -150.41992 337
4384.46729 571.79285 -78.72933 358
4462.08203 554.28864 -155.00534 342
4652.39404 578.46661 -92.01554 450
4523.41162 534.92590 -158.32274 350
4650.08398 549.61792 -91.22161 475
4585.43799 514.25409 -163.03275 349
4585.78467 514.48779 -87.61234 258
4653.16016 493.61319 -166.30426 341
4634.21973 492.29788 -90.03241 306
4722.82031 472.21695 -171.25388 340
45912.28906 2120.46704 -2857.46436 1000
64163.93750 1378.61157 12903.66016 1000
2871.85303 -7.94006 -94.66191 494
2879.78784 -7.88167 -49.58149 494
2875.21875 -24.97804 -95.54098 431
39138.27734 -1554.82776 783.12933 1000
41509.82422 -4722.32129 2189.85718 1000
3824.20996 -659.65588 -116.10606 498
3834.41528 -661.04144 -54.28145 483
11039.72363 -2144.50903 1976.33740 1000
4732.69775 -1087.03455 -101.12990 358
4709.09521 -1112.43115 -99.83274 466
4691.41455 -1137.08264 -100.54839 480
4673.04590 -1163.46301 -98.93945 480
4655.04150 -1188.76270 -99.13351 467
4639.88916 -1214.29651 -97.90416 468
35104.37500 -9351.56641 6731.09277 1000
4624.95801 -1239.65906 -97.74252 470
4612.13037 -1266.21399 -98.45395 436
4597.94189 -1292.14172 -97.43604 440
4585.52051 -1318.07898 -97.49037 414
4683.78564 -1347.96875 54.13159 286
4573.78906 -1345.10046 -97.82380 416
4618.47803 -1359.16602 -21.37740 494
4611.28613 -1355.90393 55.85349 426
4562.54834 -1371.34961 -97.75547 416
4589.42529 -1380.29883 -20.76236 499
4601.45898 -1383.62305 56.06588 425
4551.29297 -1398.22241 -97.09779 417
4580.21924 -1406.94067 -21.15580 499
4591.61377 -1410.43079 55.08211 426
4538.76025 -1425.19153 -97.07979 417
4571.07178 -1434.52808 -20.89808 499
4582.29834 -1439.21924 55.12759 426
4528.16260 -1451.27625 -97.12348 418
4556.36084 -1460.25659 -21.79460 484
4571.12158 -1465.85938 55.23383 426
4572.21436 -1465.57715 133.24554 481
4803.04541 -1541.13818 213.56754 346
4517.58496 -1478.15894 -96.92834 419
4547.71826 -1488.18250 -21.85553 499
4561.15479 -1492.96582 55.86339 426
4507.60449 -1505.24304 -97.08952 419
4538.52002 -1515.04089 -21.12647 499
4552.02441 -1520.58691 55.63425 426
4497.49707 -1531.38965 -96.98121 419
4534.50098 -1543.83716 -21.60770 499
4541.54590 -1547.12817 55.77989 427
4488.66602 -1558.50525 -96.00244 419
4525.95215 -1571.88672 -20.84522 499
4514.81494 -1568.58545 55.16333 342
4478.45557 -1585.36572 -96.05761 419
4515.97119 -1598.85022 -21.21798 499
4504.15723 -1595.52405 55.33321 479
4468.61914 -1612.82239 -96.20419 445
4507.12207 -1627.31140 -21.47333 499
4494.53174 -1622.37256 55.84391 479
4604.55615 -1662.87488 132.39436 465
4459.34717 -1639.36963 -96.77171 445
4498.09229 -1654.78796 -21.87486 499
4485.50488 -1649.24207 55.21950 478
4596.20947 -1691.67920 133.06334 444
4448.59473 -1666.21387 -97.26344 445
4439.23682 -1692.97815 -96.86615 445
4611.83643 -1761.14673 132.86604 461
4601.15381 -1756.19885 211.51628 458
4429.18213 -1720.05005 -97.31758 445
4580.18701 -1779.71973 131.91629 328
4711.84521 -1898.03870 -112.30727 255
4670.86670 -1913.56702 -110.84037 499
4424.14648 -1842.19397 -98.44878 268
4381.40820 -1854.95105 -96.96589 478
4371.90967 -1882.65186 -96.86069 478
4361.98877 -1910.13513 -97.36445 478
4353.45264 -1937.09656 -97.86148 477
4342.91016 -1963.64307 -97.54434 477
4452.23340 -2015.16418 -25.11840 314
4512.73340 -2076.08472 -107.54756 332
4428.73438 -2036.47668 -25.04354 458
4407.49854 -2059.02100 -103.04752 459
4411.50244 -2060.46948 -23.79006 467
4402.64111 -2088.21997 -102.53069 424
4400.99414 -2088.45679 -24.15625 488
3059.92676 -2077.81470 -45.44422 349
3048.84644 -2096.62256 -45.76017 278
2207.87988 -1952.39563 -56.79686 379
2178.89746 -1950.37634 -55.21207 379
2167.54810 -1939.87878 -7.69701 296
2147.45728 -1944.37097 -53.52601 376
2133.80957 -1931.37158 -5.80373 387
2116.51880 -1938.98047 -51.32325 376
2103.39795 -1925.63049 -4.38757 388
2085.77148 -1932.63245 -49.69974 378
2072.68994 -1920.46594 -3.43079 389
2055.67920 -1926.87939 -47.89889 377
2043.84985 -1915.06494 -2.42812 390
2025.85522 -1920.68030 -46.29161 373
2014.86255 -1910.30420 -1.16654 392
1997.33923 -1916.36267 -44.74051 374
1986.18555 -1904.60681 0.01321 393
1969.80762 -1912.13269 -43.35760 375
1958.36694 -1899.82190 0.99296 394
1942.62402 -1907.07275 -41.99190 376
1930.63391 -1894.73254 2.17199 396
1916.33655 -1902.94495 -40.86436 377
1903.95508 -1890.22278 3.52315 397
1889.93115 -1898.74011 -39.61261 378
1877.17908 -1885.33899 4.21865 398
1863.08630 -1893.75330 -37.60451 371
1850.66577 -1880.87769 5.28627 399
1837.26428 -1888.39331 -36.16412 372
1825.45374 -1876.32092 6.25865 400
1811.45508 -1884.46777 -35.37330 373
1800.05737 -1871.49927 7.95256 402
1807.05396 -1879.10522 48.97191 404
1786.86829 -1880.23914 -33.73213 376
1776.11255 -1867.92651 8.79754 413
1783.06543 -1875.24866 49.11886 405
1763.78076 -1877.20007 -32.65217 383
1755.20801 -1867.77478 9.47869 432
1761.01892 -1874.49573 50.03643 434
1741.85205 -1876.04443 -31.86910 401
1735.22937 -1867.90112 9.77171 443
1741.24878 -1874.81067 50.57812 491
1722.06738 -1876.71704 -30.68030 406
1716.46790 -1869.76904 10.15540 454
1729.77014 -1884.52356 50.47813 491
1703.51477 -1877.58618 -29.96061 409
1698.16931 -1871.97595 10.86500 454
1718.30139 -1895.51367 50.58947 428
1684.90955 -1879.96814 -29.40237 410
1679.83325 -1873.30054 11.76493 455
1714.15552 -1914.50830 50.25366 427
1667.32385 -1882.07349 -28.47121 416
1662.57068 -1876.62646 11.68599 465
1710.29382 -1933.53113 49.33260 426
1650.20776 -1884.25403 -28.45609 417
1645.66516 -1879.27356 12.26983 470
1706.09863 -1952.67920 48.98165 422
1633.18579 -1887.22986 -27.24837 422
1629.16125 -1882.78308 12.86999 469
1702.53552 -1972.59375 48.66881 424
1616.47144 -1890.76746 -27.37309 422
1613.74023 -1887.45850 12.77279 479
1698.46765 -1992.44629 48.13535 423
1601.03748 -1894.73474 -26.52099 431
1598.29626 -1892.02576 13.37868 481
1695.04810 -2012.70190 48.06754 422
1585.38135 -1899.44116 -26.03930 435
1583.53955 -1896.65869 13.36129 481
1690.48877 -2033.11609 47.08329 422
1570.73914 -1903.93542 -25.64526 435
1568.89124 -1902.11707 13.51477 474
1686.59753 -2053.57764 46.99931 421
1555.67761 -1908.95215 -25.53356 432
1553.54419 -1906.19385 14.22246 475
1682.20496 -2074.28638 46.38524 420
1540.46423 -1913.63599 -25.26462 432
1539.23096 -1911.74084 14.18064 474
1525.60425 -1918.09741 -24.75720 439
1524.72888 -1916.76978 14.55255 467
1510.87610 -1922.26379 -24.75048 445
1511.25232 -1922.35962 14.77761 465
1495.95483 -1926.71619 -24.14199 448
1496.71887 -1928.10229 14.67057 452
1481.43457 -1931.61072 -24.12776 453
1483.21594 -1933.94104 14.94168 436
1476.58813 -1949.99463 -24.77472 285
1469.52905 -1939.46716 15.52454 436
11748.79492 -21298.32031 5774.36963 1000
9.29695 -3112.16772 27.70327 497
9.40701 -3112.04590 78.51724 496
9.21261 -3113.30005 129.62602 470
8.74057 -3114.53931 179.86375 422
-311.49167 -2480.69678 129.78694 395
-311.80255 -2479.31494 170.86182 395
-311.07007 -2477.51367 211.68683 451
-310.90717 -2476.60132 252.96049 487
-628.55664 -1829.38269 98.19841 376
-627.97144 -1826.96216 130.72716 437
-626.82397 -1825.04382 162.60870 479
-626.20038 -1822.94910 194.91183 479
-625.72418 -1821.24255 226.71161 498
-624.94336 -1819.80151 259.05585 498
-640.72211 -1827.05017 33.96721 413
-640.52179 -1827.31140 66.02327 348
-384.10730 -697.77148 159.28313 1000
-27811.39648 -20030.67578 -3265.95679 1000
-17176.52539 -11459.94043 3546.95361 1000
-23188.83594 -14043.79004 -2556.11377 1000
-3801.22974 -1947.26733 201.86172 382
-3161.81177 -1604.07324 130.90356 332
-2548.96411 -1281.97205 131.39401 368
-3173.00317 -1584.09253 190.87692 433
-2550.76001 -1262.65112 131.26575 468
-2559.31055 -1267.18237 179.36491 352
89.53529 -3.18731 127.89507 257
89.53470 -3.18722 128.15521 257
89.40759 -3.21719 128.38719 306
88.23352 -3.49221 128.38618 302
90.14284 -2.96670 128.05263 378
90.14305 -2.96491 128.30351 379
89.44485 -3.12507 128.38503 306
88.26994 -3.39008 128.38660 302
90.24294 -2.86443 128.06911 379
90.24333 -2.86436 128.31956 380
89.48162 -3.03296 128.38538 306
88.30508 -3.29198 128.38652 302
90.34383 -2.76485 128.08478 381
90.34393 -2.76504 128.33411 381
89.51882 -2.93980 128.38559 306
88.34155 -3.19281 128.38791 302
90.44337 -2.66483 128.10092 382
90.44391 -2.66503 128.35133 383
89.55758 -2.84787 128.38782 306
88.38048 -3.09486 128.38564 302
90.54033 -2.56635 128.11783 383
90.54104 -2.56706 128.36429 384
89.59863 -2.75518 128.38583 306
88.41682 -2.99345 128.38730 302
90.63944 -2.47025 128.13431 384
90.63786 -2.46928 128.37939 385
89.63643 -2.66519 128.38731 306
88.45747 -2.89459 128.38669 302
87.08331 -3.16394 128.38554 298
90.73374 -2.37388 128.14935 386
90.70633 -2.37892 128.38651 310
89.67991 -2.57191 128.38637 306
88.49786 -2.79611 128.38588 302
87.12130 -3.05491 128.38615 298
90.83019 -2.27897 128.16350 387
90.74858 -2.29187 128.38777 310
89.71965 -2.48062 128.38518 306
88.53650 -2.69477 128.38541 302
87.16029 -2.94581 128.38562 298
90.92398 -2.18247 128.17801 388
90.78928 -2.20692 128.38649 310
89.76037 -2.38812 128.38751 306
88.57697 -2.59651 128.38496 302
87.20117 -2.83789 128.38824 298
91.01711 -2.08906 128.19156 389
90.83292 -2.12058 128.38774 310
89.80248 -2.29595 128.38556 306
88.62041 -2.49633 128.38577 302
87.24110 -2.73120 128.38797 298
91.11200 -1.99698 128.20557 391
90.87695 -2.03441 128.38545 310
89.84547 -2.20219 128.38562 306
88.66186 -2.39608 128.38780 302
87.28391 -2.62314 128.38588 298
91.20164 -1.90641 128.21669 392
90.92026 -1.94876 128.38680 310
89.89034 -2.11004 128.38541 306
88.70303 -2.29641 128.38644 302
87.32272 -2.51375 128.38721 298
91.29433 -1.81347 128.22960 393
90.96393 -1.86268 128.38551 310
89.93299 -2.02019 128.38574 306
88.74614 -2.19855 128.38780 302
87.36502 -2.40654 128.38799 298
91.35752 -1.72876 128.23543 471
91.01112 -1.77686 128.38675 310
89.97914 -1.92821 128.38538 306
87.96224 -2.21604 128.20502 346
87.40974 -2.29775 128.38545 298
91.38047 -1.64734 128.22946 472
91.05439 -1.69173 128.38708 310
90.02428 -1.83356 128.38756 306
87.71948 -2.15143 128.14304 344
87.45343 -2.18760 128.38513 298
91.40147 -1.56566 128.22227 473
91.10222 -1.60636 128.38631 310
90.06905 -1.74210 128.38583 306
87.46967 -2.08560 128.07849 343
87.46704 -2.08664 128.38005 343
85.87027 -2.29517 128.38768 294
91.42377 -1.48722 128.21713 473
91.14818 -1.51911 128.38612 310
90.11689 -1.65164 128.38791 306
87.20931 -2.01450 128.01253 342
87.20869 -2.01488 128.32031 342
85.91521 -2.17797 128.38770 294
91.44543 -1.40394 128.20979 474
91.19501 -1.43438 128.38773 310
90.16354 -1.55693 128.38722 306
87.07563 -1.92620 127.97546 442
87.07667 -1.92694 128.28178 442
85.95574 -2.06115 128.38504 294
91.46619 -1.32361 128.20326 474
91.24402 -1.35000 128.38765 310
90.21004 -1.46585 128.38657 306
86.97993 -1.83221 127.94508 441
86.98168 -1.83269 128.25720 441
86.00392 -1.94162 128.38469 294
91.48919 -1.24267 128.19601 475
91.29251 -1.26402 128.38556 310
90.25932 -1.37429 128.38579 306
86.88329 -1.73453 127.91324 440
86.88329 -1.73178 128.22745 440
86.04974 -1.82476 128.38678 294
91.51105 -1.15962 128.18770 475
91.34131 -1.17577 128.38719 310
90.30759 -1.28154 128.38620 306
86.78462 -1.63596 127.87886 439
86.78764 -1.63636 128.19571 439
86.10044 -1.70598 128.38503 294
91.53243 -1.07807 128.18069 476
91.39076 -1.09107 128.38553 310
90.35576 -1.18975 128.38544 306
86.68824 -1.53508 127.84872 438
86.68658 -1.53657 128.16962 438
86.14651 -1.58796 128.38535 294
91.55538 -0.99417 128.17276 476
91.44065 -1.00636 128.38698 310
90.40674 -1.09658 128.38762 306
86.58390 -1.43590 127.81472 437
86.58532 -1.43633 128.13821 437
86.19687 -1.46708 128.38596 294
-11988.14160 -1068.52295 2135.81592 1000
91.57773 -0.91159 128.16620 477
91.49034 -0.91937 128.38638 310
90.45605 -1.00544 128.38603 306
86.50362 -1.33082 127.78583 302
86.48080 -1.32946 128.10858 436
86.24717 -1.34980 128.38837 294
91.59773 -0.82976 128.15828 477
91.54144 -0.83286 128.38783 310
90.50683 -0.91332 128.38519 306
86.55296 -1.21183 127.78928 302
86.37567 -1.22661 128.07509 436
86.29635 -1.23346 128.38612 294
91.62001 -0.74653 128.15063 478
91.59328 -0.74827 128.38753 310
90.55986 -0.81940 128.38567 306
86.60281 -1.09515 127.78771 302
86.29617 -1.11779 128.05061 490
86.29670 -1.12037 128.37872 491
91.64450 -0.66321 128.14308 478
91.64423 -0.66242 128.38724 479
90.61028 -0.72790 128.38744 306
86.65131 -0.97986 127.78727 302
86.26491 -1.00634 128.03302 490
86.26511 -1.00489 128.36172 491
91.66465 -0.57818 128.13521 479
91.66617 -0.57706 128.37888 480
90.66341 -0.63579 128.38661 306
86.70578 -0.86517 127.78724 302
86.23569 -0.89227 128.01865 490
86.23524 -0.88923 128.34715 490
91.68790 -0.49511 128.12717 479
91.68741 -0.49386 128.37041 480
90.71692 -0.54547 128.38544 306
86.75696 -0.74555 127.78667 302
86.20352 -0.77704 128.00238 489
86.20138 -0.77704 128.33134 490
91.71152 -0.40869 128.11923 480
91.71125 -0.41024 128.36201 481
90.76998 -0.45146 128.38521 306
86.80853 -0.62872 127.78793 302
86.17197 -0.66073 127.98563 489
86.17221 -0.65762 128.31564 490
91.73356 -0.32504 128.11087 480
91.73422 -0.32348 128.35522 481
90.82532 -0.35897 128.38789 306
86.86472 -0.51488 127.78699 302
86.13985 -0.54349 127.96703 489
86.14062 -0.54279 128.29927 489
91.75688 -0.23848 128.10204 481
91.75758 -0.23996 128.34709 482
90.88032 -0.26892 128.38713 306
86.91853 -0.39935 127.78822 302
86.10811 -0.42602 127.94818 488
86.10928 -0.42495 128.28476 489
91.77944 -0.15378 128.09171 481
91.78029 -0.15475 128.33888 482
90.93552 -0.17700 128.38618 306
86.97276 -0.28075 127.78924 302
86.07790 -0.30567 127.93264 488
86.08024 -0.30575 128.27029 489
91.80222 -0.06911 128.08282 481
91.80350 -0.06921 128.33176 482
90.99122 -0.08526 128.38747 306
87.03018 -0.16798 127.78873 302
86.04506 -0.18533 127.91360 488
86.04720 -0.18818 128.25081 488
91.81587 0.01711 128.07361 484
91.81599 0.01726 128.32117 485
91.04751 0.00775 128.38673 306
87.08360 -0.05018 127.78608 302
86.01364 -0.06648 127.89664 487
86.01324 -0.06387 128.23581 488
84.88703 -0.08078 128.38644 290
91.79425 0.10378 128.05179 483
91.79317 0.10397 128.29987 484
91.10395 0.09731 128.38805 306
87.14181 0.06770 127.78748 302
86.00964 0.05732 127.88293 486
86.01262 0.05587 128.22554 487
84.94568 0.04620 128.38445 290
91.77052 0.19075 128.02965 483
91.77023 0.19101 128.27998 484
91.16308 0.18926 128.38597 306
87.20251 0.18167 127.78834 302
86.04445 0.18008 127.87914 486
86.04455 0.17986 128.21829 487
85.00723 0.17645 128.38678 290
