# .PCD v.7 - Point Cloud Data file format
VERSION .7
FIELDS x y z rgb
SIZE 4 4 4 4
TYPE F F F U
COUNT 1 1 1 1
WIDTH 1115
HEIGHT 1
VIEWPOINT 6844.363770 -2855.414551 142.298019 -0.592397 -0.116102 -0.089205 0.792230
POINTS 1115
DATA ascii
-196.21754 0.89007 53.28277 324
-196.26367 2.71654 53.35723 324
-196.29480 4.47148 53.29725 324
-196.23415 6.30571 53.32590 324
-196.26648 8.06724 53.35247 324
-196.23328 9.89557 53.35138 324
-196.18906 11.68370 53.33809 324
-269.55350 57.76962 32.66552 319
-283.85681 60.00787 35.52695 317
-263.37042 59.11695 34.32109 320
-277.79803 61.42469 36.97102 323
-293.97327 64.06815 39.74094 313
-259.51535 60.66727 35.29641 350
-274.13086 63.13031 37.81731 347
-290.18777 65.84081 40.57538 341
-257.65979 62.62796 35.64220 351
-272.07663 65.14426 38.30344 347
-288.28717 67.92003 40.89476 341
-255.79298 64.47951 36.12951 351
-270.24985 67.07919 38.70197 345
-289.37982 70.64266 40.51761 318
-253.84540 66.37548 36.47795 351
-269.71442 69.38504 38.68068 322
-252.09853 68.20625 36.91903 349
-271.64883 72.07928 38.14161 319
-253.60555 70.78635 36.37571 322
-273.89511 74.87505 37.44267 318
-16196.12598 3277.29858 942.97156 468
-255.61478 73.39949 35.76465 321
-16244.10645 3394.52808 672.03857 453
-16126.39648 3368.07983 943.28748 472
-257.69150 76.15591 35.03786 321
-16172.10449 3480.24292 671.79962 463
-16057.01074 3454.84595 938.71979 473
-16104.38477 3572.73071 671.98132 463
-15996.09570 3547.85229 935.53009 475
-16040.87305 3661.70703 667.87860 464
-15932.16309 3635.15601 936.16913 476
-15973.70508 3751.91748 666.41229 465
-15867.40625 3726.30469 934.61896 476
-15910.40137 3840.47437 667.40930 465
-15802.71875 3810.88208 930.62592 477
-15845.09277 3929.59131 664.93225 466
-15738.57422 3902.00000 930.11371 477
-15783.30566 4017.98828 664.49438 466
-15675.87695 3988.64038 926.49036 478
-15719.11035 4105.36328 662.86694 467
-15614.13477 4077.07910 925.11530 478
-15656.55273 4188.61133 661.00867 467
-15550.87598 4162.77979 925.19281 479
-15592.40625 4278.35400 662.64996 468
-15486.81836 4246.49512 923.05597 479
-15530.45020 4363.34766 661.55719 468
-15426.48828 4335.51025 921.21985 480
-15467.22266 4450.13574 657.82092 469
-15366.97949 4417.69287 921.87213 481
-15403.90820 4532.97070 658.71381 469
-15305.40527 4506.00928 918.08099 481
-15341.22949 4616.29541 658.35089 470
-15241.17383 4586.99414 916.09912 482
-15279.83203 4703.24609 657.87280 470
-15182.39258 4673.26758 916.21820 482
-15218.91895 4787.32373 656.78705 471
-15121.19336 4758.52832 911.43402 483
-15154.41211 4872.00781 653.20142 471
-15062.12793 4839.77539 910.28766 483
-15095.47363 4955.56348 653.99506 472
-15002.73535 4921.82861 911.51703 484
-15034.97559 5035.54199 653.89166 472
-14939.84082 5006.56104 908.92859 484
-14972.79688 5122.05322 652.46545 472
-14879.56934 5087.65430 906.04486 484
-14916.12402 5202.10889 652.85779 473
-14823.54004 5171.73438 905.96136 485
-14853.71973 5286.54639 649.94080 473
-14762.45996 5250.52393 904.16406 485
-14794.86621 5365.31592 651.65900 474
-14706.19434 5333.76953 904.68555 486
-14733.57520 5450.54834 646.97144 474
-14643.26562 5416.57617 901.91089 486
-14673.09766 5528.89502 649.01331 474
-14586.66211 5497.95166 901.32794 487
-14617.02930 5610.81787 645.53113 475
-14527.97461 5578.76514 902.33038 487
-14554.85254 5690.65186 645.18677 475
-14468.60840 5658.78271 897.79840 487
-14499.60352 5770.96045 644.48639 476
-14411.87695 5737.58154 900.41687 488
-14437.32227 5852.84521 643.24518 476
-14352.84277 5818.21777 898.73486 488
-14381.61328 5931.01318 644.47321 476
-14296.75098 5900.40430 894.47601 488
-14323.15625 6010.73975 644.36066 477
-14236.53418 5978.94678 895.10345 489
-14263.94531 6092.61084 644.64288 477
-14181.78418 6058.31299 896.37073 489
-14207.24121 6171.81104 642.74481 477
-14122.95996 6134.52734 891.53943 489
-14808.53809 6430.32031 1195.01135 480
-14148.95996 6252.23096 640.13647 478
-14067.20996 6215.51367 893.13623 490
-14730.66992 6506.58838 1194.19714 481
-14090.38574 6327.69141 639.84448 478
-14010.03320 6294.71680 890.55530 490
-14651.44531 6578.99707 1191.24878 481
-14032.14844 6409.21289 642.40216 478
-13955.47461 6372.64014 893.29169 490
-14577.07617 6652.66748 1189.14514 482
-13972.72559 6485.74658 642.58545 479
-13898.45898 6449.68115 891.85907 491
-14501.00879 6728.20898 1184.84729 483
-13919.81445 6563.32031 639.03656 479
-13840.39648 6528.79688 887.31525 491
-14425.67676 6801.21387 1183.23877 483
-13857.72363 6643.16650 639.62946 479
-13784.68848 6605.60742 886.86163 491
-14347.76367 6875.84082 1183.34412 484
-13802.96680 6718.20996 640.75879 479
-13727.09766 6681.47559 887.45062 492
-14275.83105 6949.03369 1180.76379 484
-13748.21191 6797.70605 637.57501 480
-13670.86230 6759.97461 888.95050 492
-14198.76367 7017.67725 1176.12537 485
-13690.42969 6874.14648 639.33588 480
-13614.09863 6839.58203 887.85901 492
-14139.91113 7100.41211 1177.89697 495
-13633.97852 6951.67334 635.99640 480
-13557.55859 6916.25391 887.61060 492
-14079.59570 7178.55322 1174.90845 496
-13577.82910 7029.17383 638.17993 480
-13505.67676 6994.05420 884.03033 493
-14021.26660 7256.42139 1175.99658 496
-13518.11523 7106.42383 636.15399 481
-13447.10938 7066.83984 886.91132 493
-13961.11621 7337.97363 1171.65454 496
-13464.13184 7186.03467 638.74390 481
-13391.27734 7146.48291 886.33252 493
-13903.06934 7416.12988 1175.10425 496
-13407.90820 7258.83008 634.70428 481
-13336.83887 7221.36035 884.08075 493
-13847.44238 7495.16943 1170.02795 497
-13350.45996 7338.77344 635.98767 481
-13281.20703 7297.18604 881.62610 493
-13789.57227 7575.39795 1173.67200 497
-13294.51074 7413.83252 636.92273 481
-13225.13965 7372.87842 881.27698 494
-13653.39258 7609.09326 1165.94214 446
-13236.80371 7490.22168 637.59375 482
-13171.42480 7450.88281 884.04395 494
-13580.38672 7680.55469 1160.79382 496
-13701.01855 7750.08008 1432.25549 497
-13182.02832 7567.31348 633.72650 482
-13116.00684 7525.66064 881.78009 494
-13523.09375 7758.67090 1164.30273 496
-13644.98633 7827.29346 1430.68201 497
-13124.34082 7641.60645 633.68353 482
-13061.25684 7604.40674 883.42133 494
-13463.49512 7838.03369 1162.53662 490
-13587.54688 7908.31787 1430.44763 498
-13783.11035 8021.53564 1716.24426 264
-13070.91211 7718.79932 634.17041 482
-13006.65918 7681.18115 880.93164 494
-13406.82324 7915.73877 1161.23242 490
-13527.57422 7985.52002 1429.88940 498
-13631.75488 8045.32617 1700.78589 464
-13016.27539 7794.60107 635.79987 482
-12949.98438 7754.14795 882.24951 497
-13350.43457 7990.36084 1160.03369 438
-13470.13672 8061.12109 1428.89978 498
-13623.44727 8155.91113 1705.40735 339
-12958.62207 7867.50586 635.64612 482
-12894.13770 7831.61328 879.21405 497
-13362.49414 8111.06641 1163.65686 444
-13360.73340 8110.30713 1424.96851 444
-13358.19336 8110.21289 1680.93970 443
-12903.06836 7945.83740 635.96008 482
-12843.63379 7905.56885 881.62787 497
-13247.98242 8157.35449 1162.82861 445
-13245.09180 8154.69141 1416.67676 444
-13241.68359 8149.52344 1673.63696 444
-12847.82812 8022.16650 634.27008 483
-12788.33984 7981.83789 881.47717 497
-13134.29004 8198.25879 1157.67236 446
-13128.11816 8191.54248 1412.65088 445
-13127.30566 8190.33984 1665.95325 445
-12790.09180 8094.77832 634.68188 483
-12731.41797 8055.68555 881.68121 497
-13024.74219 8240.81055 1152.69397 499
-13019.46191 8236.73730 1404.97876 498
-13012.42285 8235.48242 1660.84375 498
-12737.50977 8172.18359 634.99695 483
-12678.03809 8131.87256 881.16394 497
-12972.02148 8318.39062 1152.28748 499
-12963.59473 8315.36328 1404.92456 498
-12958.94434 8309.30371 1662.05029 498
-13125.39258 8419.85840 1937.88892 440
-13117.03613 8412.11133 2197.32739 440
-13107.84375 8407.34766 2455.94238 439
-13098.26270 8398.24121 2717.42407 439
-13094.42383 8398.08203 2982.07983 469
-13091.39453 8394.68066 3247.55298 469
-12681.33594 8245.18066 632.92651 483
-12620.52832 8209.08691 879.96521 498
-12913.23926 8397.25781 1148.83911 499
-12882.33984 8374.23828 1402.09265 499
-12902.17383 8388.56250 1660.15210 498
-13155.10742 8551.39258 1949.94263 480
-12627.40723 8322.80762 635.05402 483
-12566.24023 8286.04297 879.05292 498
-12857.08887 8471.97168 1152.59082 499
-12822.80957 8451.00391 1401.88892 499
-12844.27246 8461.69727 1657.07300 498
-13096.08887 8627.10254 1950.73230 480
-12571.50781 8396.71484 634.21521 483
-12513.07031 8358.80957 879.11401 498
-12796.99707 8550.25000 1150.81824 499
-12766.96289 8529.60352 1403.35693 499
-12787.12598 8538.45215 1658.21277 499
-13035.27539 8706.16992 1950.79211 480
-12514.76270 8472.54199 632.83411 483
-12459.58301 8437.08594 877.75940 498
-12728.94629 8616.33691 1147.70886 274
-12714.15234 8603.91992 1400.08838 499
-12731.63184 8615.11914 1658.25183 499
-12976.91895 8781.22266 1946.88831 480
-12461.77051 8546.45605 634.18439 483
-12403.39844 8509.68848 877.69489 498
-12663.42871 8687.19434 1145.96655 499
-12656.84668 8682.49707 1400.22498 499
-12673.56738 8693.18652 1657.56982 499
-12921.66211 8859.05469 1945.99670 480
-12403.22754 8624.34961 633.50006 483
-12351.12012 8584.15332 879.64270 498
-12606.75098 8760.03125 1149.86719 499
-12599.78809 8757.86621 1400.61194 499
-12620.38965 8769.47949 1656.39441 499
-12862.75586 8938.71289 1946.62305 480
-12347.26465 8698.25293 633.19348 483
-12295.17480 8660.40332 879.98102 498
-12551.52344 8836.80566 1147.50879 499
-12542.50488 8833.90625 1401.90527 499
-12561.35156 8843.24414 1656.04163 499
-12804.71875 9012.90234 1945.86926 480
-12294.33203 8771.71484 634.93274 491
-12241.76172 8734.09473 877.45624 498
-12492.45215 8912.75293 1149.23169 499
-12489.02246 8907.57715 1400.73376 499
-12380.10938 8834.24512 1640.08069 348
-12743.88574 9090.22656 1948.08228 480
-12239.00000 8848.97656 633.52765 491
-12187.86719 8813.62012 880.60602 498
-12459.73828 9005.67676 1148.94238 499
-12453.11914 9000.83984 1402.48914 499
-12175.27637 8804.85449 1623.30945 499
-12686.03516 9170.54883 1947.82214 475
-12183.59668 8925.12305 633.26624 491
-12134.33008 8885.94141 879.86707 498
-12404.20801 9083.37012 1149.83887 499
-12397.90332 9078.26953 1403.55383 499
-12124.09668 8878.26270 1623.87329 499
-12630.30566 9249.52930 1944.86694 475
-12129.92188 8999.89844 632.57520 491
-12079.37598 8963.78711 879.43036 498
-12253.81055 9088.55566 1139.99951 426
-12157.92383 9020.37500 1384.74316 490
-12065.37891 8950.70801 1623.21057 499
-12573.69336 9327.88379 1947.25867 475
-12075.06934 9075.38574 634.05505 491
-12024.02637 9036.74707 878.36011 498
-12288.68555 9236.18066 1150.34534 499
-12287.04102 9231.13574 1403.25757 499
-12013.35547 9028.51367 1624.97095 499
-12519.87500 9404.00977 1948.38501 475
-12018.27148 9150.20312 633.45715 491
-11971.99023 9110.67676 881.88281 498
-12233.34180 9310.82617 1149.60559 499
-12228.85742 9309.31738 1403.57056 499
-11956.42383 9102.15430 1625.87085 499
-12463.49902 9483.99902 1945.54053 475
-12045.60059 9289.38477 388.19711 480
-11962.69141 9226.85645 634.79712 491
-11915.97949 9185.77930 880.73297 498
-12175.05957 9388.66504 1149.01257 499
-12171.19336 9380.84570 1404.42004 499
-11999.57617 9249.87793 1638.45874 341
-12407.67773 9561.09961 1945.83789 475
-11987.37988 9363.87305 388.31610 480
-11909.28223 9299.66602 634.33289 491
-11860.83496 9260.71484 880.61261 498
-12147.88379 9483.84180 1151.52991 458
-12140.93750 9478.73926 1408.54993 458
-12164.02051 9496.48242 1664.95618 454
-12358.47070 9648.83887 1950.92383 462
-11933.85938 9439.74707 389.45828 480
-11853.39551 9376.47070 635.82532 491
-11806.64648 9337.23828 881.49664 498
-12130.68750 9589.54102 1155.62939 477
-12129.87109 9589.87695 1410.30603 457
-12157.16504 9610.81348 1673.04431 453
-12330.74023 9750.72852 1952.67334 462
-11878.43457 9512.36133 388.68314 480
-11797.87402 9449.16602 634.73364 491
-11753.80469 9411.89160 879.80780 498
-12099.12500 9687.36328 1159.62927 476
-12122.57812 9708.20020 1417.31689 456
-12149.07910 9729.13965 1678.15771 453
-11820.69727 9587.17969 388.22403 480
-11744.95801 9526.27832 632.98657 491
-11696.47559 9489.61719 882.56000 498
-12067.61914 9787.77441 1161.44067 476
-12102.80371 9817.16211 1420.23315 475
-12143.42285 9845.94531 1685.27002 355
-11767.17773 9666.96191 388.37091 480
-11687.56543 9600.31738 635.74829 491
-11642.47363 9563.59375 882.97974 498
-12037.65918 9884.73438 1162.87476 475
-12072.99805 9915.73633 1426.59875 474
-11710.65039 9741.99316 389.47086 480
-11634.00293 9678.23242 636.79120 491
-11588.41309 9641.30664 881.04578 497
-12009.54590 9983.86621 1165.50134 475
-1663.11548 1468.60999 57.78172 439
-1667.69617 1472.78235 95.58532 379
-11653.84863 9817.66895 387.05347 480
-11579.54199 9753.01562 636.27545 491
-11532.38867 9715.06738 882.95642 497
-11975.62109 10083.64746 1170.09656 474
-1651.44751 1477.20288 58.51006 491
-1655.66113 1480.66296 95.77891 491
-1660.28735 1484.35217 132.96631 460
-11598.81055 9890.71680 389.43454 480
-11523.64746 9826.93457 634.50684 491
-11478.13086 9789.77441 882.99060 497
-1651.51624 1496.04187 58.12505 343
-11542.20801 9969.20801 390.21683 480
-11467.67188 9903.41016 634.87061 491
-11424.88379 9865.45410 883.32135 497
-38859.83594 33356.30859 10353.50488 1000
-11486.00293 10042.79297 390.98138 480
-11412.30859 9978.29004 638.59320 490
-11369.27148 9940.46484 883.84399 497
-11430.52344 10120.95996 390.39178 479
-11358.74316 10055.62012 637.46631 490
-11314.20996 10017.08594 883.93732 497
-11375.18164 10197.80762 390.03012 479
-11299.87793 10133.22754 638.07208 490
-11258.12793 10092.87988 886.36932 497
-11318.91699 10274.07520 388.09863 479
-11245.28613 10206.64062 639.30402 490
-11203.22559 10168.80176 883.30066 376
-11260.40234 10348.04492 391.79352 479
-11191.52051 10284.31641 640.29755 490
-11150.55664 10248.10645 886.78357 376
-31262.34766 28935.28711 -1946.36755 1000
-11205.38672 10423.07324 390.42725 479
-11134.64648 10361.62402 638.17627 490
-11099.06836 10327.61914 888.46185 376
-11146.85547 10500.18457 392.15793 479
-11080.48438 10437.22461 637.80981 490
-11048.31934 10405.17090 888.42310 376
-11094.14355 10576.58008 391.27405 479
-11022.08887 10514.60645 638.52075 489
-10994.08496 10486.41602 887.26227 445
-11036.05566 10656.97852 388.93784 478
-10966.44043 10589.02832 637.97400 489
-10938.05176 10560.90723 886.90820 445
-10979.37598 10730.56738 389.47546 478
-10909.32520 10667.53516 641.00037 489
-10880.61719 10637.30957 891.73236 445
-10919.63574 10809.01465 391.08255 478
-10854.70117 10744.47266 639.35260 489
-10825.67773 10714.01660 891.11066 444
-10865.42285 10887.03906 390.30383 478
-10799.54297 10818.54004 643.46417 489
-10766.49707 10789.36719 892.37976 444
-10807.44043 10963.24707 390.40393 478
-10742.17188 10897.54199 642.85828 488
-10709.61523 10865.23340 890.52472 444
-10749.24219 11038.93555 392.52222 477
-10684.55957 10971.17188 640.61993 488
-10655.16797 10942.38965 893.14191 444
-10693.73242 11118.52734 394.73715 477
-10630.29980 11049.37598 642.93396 488
-10596.84473 11016.31348 893.08252 444
-10634.53906 11192.57129 392.09180 477
-10571.56641 11130.44824 645.05688 488
-10539.18457 11093.83594 892.91858 443
-10577.90234 11272.49902 391.74887 477
-10517.85156 11206.24414 643.08716 487
-10485.34082 11174.26465 893.05573 461
-10520.15723 11348.98633 393.32370 476
-10460.76953 11284.61035 645.91022 487
-10429.56836 11250.99414 896.07928 301
-10464.43652 11427.63086 395.29929 476
-10402.38574 11360.75293 647.67633 487
-10381.10254 11338.55371 899.91614 295
-10406.43359 11505.08496 396.38962 476
-10346.10938 11440.16016 646.51410 486
-10334.43164 11430.26953 898.94147 295
-10346.58203 11585.34180 394.80515 476
-10284.74805 11520.21582 647.67322 486
-10284.33594 11519.21777 901.36249 295
-10287.67969 11665.88574 396.75385 475
-10229.25879 11595.65332 649.84204 486
-11264.00391 12760.12988 981.78625 421
-10231.26074 11744.15430 396.55795 475
-10170.49316 11677.31055 647.18591 486
-11196.39746 12840.60254 980.00806 421
-10174.00684 11820.41797 393.82089 475
-10113.81934 11756.96875 648.85077 485
-11132.63184 12926.29590 983.25763 421
-10112.55664 11901.11621 397.41602 474
-10054.89746 11834.27832 648.46246 485
-11065.25195 13010.62793 981.58698 421
-10052.55176 11981.49121 395.21652 474
-9997.26758 11913.66016 651.56329 485
-9995.41113 12060.56934 397.76987 474
-9940.05566 11991.70117 651.91229 484
-9937.05566 12142.46484 398.27957 473
-9882.26270 12073.59668 653.89514 484
-9877.43750 12222.02441 397.05209 461
-9822.73340 12152.00586 652.22443 483
-9826.87305 12311.00098 400.84042 461
-9764.31250 12231.67578 656.57111 483
-9773.79297 12400.76367 398.68607 463
-9704.90723 12316.74512 653.44836 483
-9725.22656 12495.71777 398.51865 462
-9651.24316 12403.27539 654.78583 463
-9673.16406 12592.25293 401.48450 462
-9599.96973 12493.39355 656.91217 462
-9622.71191 12686.14746 400.81891 461
-9548.35742 12588.62402 657.84460 461
-9571.34961 12777.29590 400.51758 461
-9499.36523 12683.60742 661.50391 461
-9527.54590 12721.40918 923.05878 332
-9517.37207 12876.04102 403.94672 460
-9447.33984 12778.19531 664.60736 460
-9421.88672 12742.56445 921.52075 480
-9476.13477 12983.96289 402.98126 418
-9395.98828 12874.16797 662.59332 460
-9394.31250 12868.70996 928.29834 440
-9440.72852 13103.37793 405.73380 417
-9346.05566 12966.77832 668.00354 459
-9343.20605 12963.28223 929.77533 440
-9411.55566 13234.84277 408.29645 395
-9292.99121 13063.87012 669.37238 460
-9290.13867 13059.26074 928.45856 439
-9382.81348 13364.57422 410.83807 394
-9248.34180 13171.62793 667.08661 418
-9237.54688 13156.02441 931.95691 439
-9354.90430 13499.75879 409.40628 393
-9210.36230 13295.28809 671.77032 417
-9185.18262 13259.56445 937.10895 351
-9338.74707 13652.48535 414.20844 367
-9173.43652 13415.95117 675.40759 416
-9371.04492 13880.01758 416.22833 298
-9136.62207 13539.43262 675.05426 415
-9100.33496 13665.14648 678.61481 393
-9072.55957 13806.78906 684.06805 367
-9058.57422 13973.20703 688.26459 366
-9045.27637 14136.87598 690.21002 365
-43.21311 2313.84448 57.33183 329
-27.70870 2290.50195 58.30960 399
-15.52821 2336.15405 18.20119 357
-12.52670 2273.01514 58.58634 402
-0.06580 2311.01343 19.71838 358
1.99167 2256.48120 59.33466 403
-2.70173 2365.95850 94.84837 386
14.49913 2286.82739 20.98848 359
15.81626 2244.41870 59.45763 418
29.73732 2243.40625 22.72142 286
30.34932 2233.84253 59.95329 419
43.83097 2221.24780 23.97344 370
44.35236 2223.65430 60.54176 419
57.76424 2205.86523 24.56184 390
57.96358 2214.36523 61.00934 376
71.55055 2194.01489 25.36642 391
71.43300 2208.01831 61.02816 376
84.77054 2182.98926 26.23899 448
84.89526 2201.57349 60.98723 376
98.42204 2173.16699 26.19867 449
98.56402 2195.45703 61.37015 376
112.13114 2201.68579 -11.04829 445
111.59435 2163.85596 26.60435 460
111.95409 2192.59717 61.54844 301
125.38223 2191.97778 -10.71441 451
124.83372 2155.21265 27.46851 461
125.05365 2187.76953 61.74304 431
138.42238 2183.00122 -9.75424 452
138.10205 2147.27710 27.71186 462
142.30467 2357.75342 56.31123 473
152.09155 2174.56738 -9.17568 453
150.77711 2138.93359 28.06176 466
156.84081 2357.47510 56.18740 381
164.76318 2165.64307 -8.64284 453
163.50204 2131.46924 28.42126 466
171.17284 2357.85181 56.05624 381
177.81705 2157.09082 -8.23666 454
176.58423 2123.85986 28.37527 467
185.79993 2358.57178 55.91097 383
190.59924 2148.88623 -7.71545 454
189.11348 2117.52051 29.23628 475
193.11281 2201.35938 60.99195 485
203.63829 2141.70605 -7.24879 464
201.48534 2111.05225 29.20710 476
206.00258 2195.88770 61.37836 486
206.51535 2196.04419 97.32259 486
216.05014 2133.26172 -7.02982 316
214.09995 2104.59351 29.44417 476
219.75832 2190.71191 61.09406 486
219.71307 2190.89575 97.03235 405
2325.60767 37977.28906 1392.02771 1000
228.66956 2122.08398 -6.22160 317
227.10814 2098.37915 29.46891 482
232.42084 2185.16992 61.64862 487
235.26016 2224.85815 96.49559 313
1778.31067 25968.12305 5762.77002 1000
240.96365 2111.19385 -5.87384 319
239.76285 2093.57544 29.68032 457
245.75888 2180.89893 61.39977 465
251.72041 2265.24878 95.96821 312
252.73079 2101.59424 -5.32635 320
251.89980 2088.52344 30.42880 457
262.18622 2216.00586 60.20536 313
265.39102 2091.89380 -4.46081 321
264.41553 2083.24219 30.19204 457
278.62250 2255.80249 58.90050 312
277.39520 2082.76416 -3.94902 325
277.12723 2078.69141 30.45811 459
289.49197 2077.03369 -3.72140 426
289.49625 2074.03906 30.58351 459
301.68680 2071.80029 -3.62609 426
301.61499 2069.58960 30.75603 460
310.43777 2158.21680 61.91909 490
314.41669 2066.18921 -2.94987 427
314.04590 2064.59741 30.94813 460
322.69644 2145.18823 62.53605 485
7184.37158 65486.42188 9926.15625 1000
326.63705 2060.77930 -2.80573 427
326.18512 2060.06079 30.97739 460
335.61447 2141.89062 62.48066 490
338.34656 2055.15039 -2.62074 427
338.43469 2055.54614 31.21377 461
349.54007 2144.77319 62.01377 314
350.57144 2049.64551 -2.48712 428
350.93613 2050.66650 31.32925 461
370.67920 2209.01172 60.33667 491
368.42432 2192.27612 96.98975 424
368.58905 2192.16968 132.81006 491
367.02478 2178.31372 168.77087 334
362.34818 2044.47424 -2.27776 428
362.96317 2045.92688 31.77269 461
380.29062 2175.31738 168.60106 333
374.36594 2039.16528 -2.16669 428
374.73993 2041.72253 31.91449 462
393.01279 2171.33276 132.78185 419
395.14337 2186.15015 169.20959 299
386.40878 2034.04504 -1.96626 429
387.33328 2036.84863 31.91145 462
398.36642 2028.58850 -1.82040 429
399.18787 2032.48328 31.70200 462
410.27234 2023.61499 -1.29700 429
410.99631 2027.93774 32.29896 462
418.04327 2072.50732 64.07415 493
436.95395 2191.66577 278.59073 492
422.30811 2017.99194 -0.84973 429
423.12115 2023.54932 32.36463 463
430.60846 2067.77173 64.30073 493
434.05063 2012.88538 -1.20308 430
435.16293 2018.82471 32.41603 463
443.74832 2070.79224 63.92708 295
445.79568 2007.88782 -0.94220 430
447.22867 2014.63403 32.17794 391
468.14847 2134.57593 62.00254 301
457.40701 2002.51575 -0.32755 430
459.18423 2010.43579 32.68655 391
493.07230 2196.27173 59.81780 300
469.36298 1997.54517 -0.16605 431
471.07385 2006.36047 32.62945 391
511.71494 2221.04736 58.84095 408
481.38614 1992.23828 -0.40049 431
483.19870 2002.05408 32.74406 391
492.74695 1987.31165 0.14467 493
495.06631 1998.00134 32.81286 392
504.50482 1982.74438 0.08709 493
506.82968 1993.67603 32.78683 392
518.47113 2050.52319 64.45765 495
516.08673 1977.70032 -0.05757 493
518.59082 1989.63074 33.01153 392
535.67267 2068.47217 167.42648 499
537.23706 2075.91748 202.16161 496
528.05237 1972.95288 0.32494 493
530.40332 1985.43408 32.97930 392
576.45886 2193.29272 59.23537 496
573.74530 2181.20215 96.57948 496
574.25189 2181.48804 133.13803 328
566.73151 2147.77075 168.91844 499
539.50848 1968.11011 0.28566 494
542.31732 1981.29541 33.08430 392
551.20679 1963.61340 0.37176 494
554.33600 1976.98083 32.84911 392
562.41913 1959.26318 0.42762 494
565.95294 1972.74207 32.80909 392
574.29669 1954.13477 0.93706 494
577.54303 1968.94788 33.27087 392
585.66418 1949.27881 0.95591 495
589.43182 1964.92676 33.45436 392
597.40387 1944.68982 1.02931 495
601.15112 1960.47754 32.96124 392
608.68347 1940.16711 1.17385 495
612.83112 1956.56653 33.34988 392
619.89398 1935.38672 1.24206 495
624.63580 1952.27039 33.03585 393
631.63635 1930.92224 1.19818 495
636.44501 1947.98071 33.13170 393
642.98822 1926.46497 1.15169 496
648.25220 1944.26196 33.24389 393
654.83478 1921.61133 1.40761 496
659.87518 1940.10144 33.66109 393
665.81769 1916.93152 1.59575 496
671.95898 1936.28613 33.32054 299
677.18158 1912.02429 1.48728 496
683.88538 1933.34912 33.56675 299
720.46057 2052.80835 62.30777 356
688.78027 1907.45435 1.62862 496
696.07703 1930.30945 33.47393 299
700.08563 1902.76135 1.63338 496
707.82709 1927.81677 33.41212 299
712.22247 1900.40381 1.73711 490
788.34991 2132.47070 22.43061 469
724.71252 1899.24670 1.65560 490
801.39539 2128.99390 22.62547 464
737.45728 1898.27173 1.27937 490
816.67065 2130.52490 21.87736 381
750.12372 1896.82312 0.84606 489
832.75098 2135.18823 21.51957 327
762.48395 1895.74158 0.61544 489
775.61176 1894.95117 0.61453 489
788.72729 1894.67175 0.49217 429
13318.86523 19460.88867 944.19897 1000
1039.85645 791.97943 -29.38578 382
1038.69116 781.36841 -28.22091 481
1041.38159 783.22217 -8.19823 442
1044.51892 785.83295 11.96714 390
1047.38416 788.27979 31.91451 383
1042.00757 774.21606 -28.04198 499
1044.64917 776.18378 -7.99005 499
1047.57227 778.35602 12.01210 499
1049.60583 780.10669 32.46197 497
1052.19812 782.05646 52.55950 453
1048.00635 769.32788 -28.49258 461
1051.13733 771.54181 -8.14204 460
1054.54895 774.48517 11.81643 455
1058.98206 777.63513 31.69492 340
1058.38977 767.61749 -29.43033 340
4016.56323 846.21692 -63.09722 329
4110.92285 840.82581 -135.34750 292
4030.78564 823.68658 -63.56545 396
4101.68311 812.87177 -134.53680 292
4047.54468 801.66052 -63.95432 402
4092.58643 785.48572 -133.58554 292
4066.35132 780.24872 -64.71777 447
4107.65918 762.09796 -134.24344 402
4085.42065 758.66193 -66.00471 454
4133.43896 742.39508 -135.41769 391
4107.11475 736.55396 -66.63462 445
4163.83447 720.96014 -136.94016 385
4129.89600 715.95422 -67.77922 437
4193.32422 700.47424 -138.19182 381
4156.75098 694.63116 -69.01038 429
4230.40625 681.65234 -141.18916 358
4187.76807 673.45923 -69.95190 417
4277.24561 662.32336 -143.95500 345
4220.93604 653.47266 -71.84589 401
4265.12744 633.72388 -73.78255 367
4323.97607 616.38562 -75.53271 355
4383.83789 598.07727 -78.41752 354
4445.56787 579.87988 -81.86190 353
4508.85693 560.45300 -84.82542 351
4574.13818 541.11401 -87.86950 350
18353.53906 1293.52271 -461.01486 1000
51721.58984 3343.32031 -7525.67871 1000
51944.09375 3356.04785 -5828.63428 1000
2819.39526 25.52270 -90.54860 493
2828.02319 25.26910 -46.23282 468
2824.49365 9.01750 -91.10794 434
3778.25342 -605.27460 -112.93891 492
3788.02051 -606.39008 -52.02370 461
4714.36816 -1023.84906 -99.87559 355
4674.64990 -1044.04407 -98.89378 478
4656.42285 -1070.58350 -97.83955 475
4638.24609 -1095.02039 -97.03969 481
4620.59131 -1121.07434 -97.53384 486
4604.11865 -1145.38611 -96.74658 487
4589.29443 -1170.82935 -95.72990 470
4575.77881 -1197.74316 -96.09399 473
4561.97900 -1223.86975 -95.74855 442
4550.70264 -1250.02002 -95.73131 444
4664.27148 -1281.63928 54.40194 291
4538.08740 -1274.99890 -95.07245 444
4657.26318 -1309.56055 -23.12494 312
4569.86865 -1285.45044 56.47047 429
4527.55469 -1301.61060 -95.39343 420
4557.30176 -1311.00281 -19.93198 314
4560.94922 -1311.67944 56.37545 429
4516.46875 -1328.90613 -95.42979 421
4545.12549 -1337.03699 -19.50223 499
4552.11182 -1338.50659 55.85574 429
4505.97803 -1354.83521 -95.21765 421
4536.36670 -1364.62280 -20.30433 499
4542.92480 -1366.62415 56.07187 429
4496.05420 -1381.93140 -94.33243 422
4527.43896 -1391.47913 -19.47862 499
4532.56836 -1392.77344 56.08697 430
4485.95752 -1407.70239 -95.20912 422
4513.71631 -1416.37463 -20.32966 499
4506.67627 -1414.72791 56.11353 347
4476.10645 -1435.12927 -94.06464 423
4505.07080 -1443.94983 -20.20344 499
4497.89160 -1441.75684 56.76437 347
4466.65820 -1460.59070 -94.25555 423
4496.03906 -1471.54932 -20.60920 499
4487.96777 -1468.46765 56.18352 481
4457.76562 -1488.68738 -95.16982 423
4492.99854 -1499.97229 -19.98152 499
4478.97070 -1495.90833 56.65487 481
4447.91650 -1514.78186 -94.67554 423
4484.10742 -1526.98523 -19.96024 499
4470.10889 -1522.29285 55.75677 481
4439.34619 -1541.78308 -95.03574 423
4475.15430 -1554.17505 -19.93977 499
4461.60889 -1549.45471 56.68701 480
4590.40430 -1595.77710 132.51810 324
4429.79932 -1568.15698 -94.45572 423
4467.23828 -1581.81470 -20.74952 499
4452.42578 -1576.99841 56.20356 479
4558.17920 -1614.41077 132.60966 482
4421.28467 -1595.36255 -95.00014 448
4466.21680 -1611.44519 -20.53458 354
4445.89941 -1604.65601 56.29968 472
4560.65186 -1646.15430 131.30103 387
4411.40918 -1622.06006 -95.35265 448
4571.97852 -1681.99036 131.45195 484
4402.07861 -1649.16785 -94.17868 448
4572.27686 -1714.31763 131.78943 488
4394.06396 -1675.26904 -95.41576 448
4654.55518 -1810.39331 -109.09612 499
4645.45361 -1838.91895 -109.10773 499
4635.32275 -1867.70728 -109.73466 498
4355.87988 -1783.33435 -95.52500 444
4510.13721 -1847.84058 -25.58567 489
4347.29736 -1810.48218 -94.75780 443
4339.12109 -1836.94641 -95.25770 480
4329.93750 -1864.34644 -96.16031 479
4320.75391 -1890.70728 -96.15353 479
4311.82568 -1917.85693 -95.55214 479
4413.00781 -1964.97876 -24.20372 425
4400.38770 -1990.53772 -101.16840 334
4394.62891 -1987.65649 -23.17037 461
4372.69775 -2010.37256 -100.63019 481
4377.23486 -2012.42334 -22.74546 469
4371.93750 -2042.37207 -100.77394 436
4369.36719 -2041.09448 -22.93768 487
8189.64746 -4172.78418 -1068.13977 1000
3010.65771 -2042.66284 -101.70013 496
3017.91626 -2048.55811 -43.48365 494
18503.32031 -13932.87988 -1764.25220 1000
18209.57227 -13713.32520 4648.25293 1000
23078.02734 -18303.41406 5474.01904 1000
2147.87207 -1921.55664 -52.34464 379
2115.87231 -1914.16931 -50.49072 379
2109.46313 -1908.20312 -4.76466 389
2086.14648 -1909.07190 -49.24455 378
2079.72070 -1903.75122 -3.60471 390
2056.17163 -1904.40015 -47.18600 378
2051.13745 -1898.97815 -2.05043 377
2026.55640 -1898.28943 -45.75589 379
2022.45630 -1894.73425 -1.40119 378
1997.75171 -1893.03674 -44.37251 380
1994.98193 -1890.66138 -0.04965 377
1969.18420 -1887.91052 -42.74318 382
1967.94080 -1887.04688 1.49741 378
1941.49512 -1883.20410 -41.34754 383
1941.45483 -1883.09485 2.52232 379
1914.21362 -1877.59631 -39.82675 384
1916.12256 -1879.55383 2.94138 335
1888.02563 -1873.51819 -37.93143 379
1890.68726 -1876.92395 4.13390 335
1862.10791 -1869.72314 -36.59432 380
1860.09253 -1867.07458 5.34462 330
1836.54614 -1865.11951 -35.74680 373
1834.57983 -1862.81458 6.51591 399
1810.39551 -1859.89758 -34.25998 374
1809.87866 -1859.44116 7.24608 400
1784.94360 -1854.82104 -32.47844 375
1785.53931 -1855.16638 8.81120 401
1760.40454 -1850.96582 -31.73276 377
1761.28613 -1851.50903 9.59313 412
1737.44849 -1847.91052 -30.25238 389
1739.08789 -1849.65015 10.10272 431
1716.19128 -1846.69763 -29.06953 399
1718.91321 -1849.58313 10.87186 442
1696.66113 -1846.52112 -28.75548 402
1700.29529 -1850.71570 11.76825 443
1677.67126 -1847.73560 -27.86066 405
1683.22888 -1854.08081 12.11442 414
1659.26208 -1849.58130 -26.99986 411
1667.32300 -1857.99597 12.39631 284
1642.04956 -1851.69031 -26.39507 417
1661.39307 -1874.70544 11.93750 289
1686.59766 -1905.26685 50.50694 423
1625.26135 -1853.97473 -25.43860 417
1652.39844 -1887.52881 11.66778 305
1683.00549 -1924.45911 50.04714 422
1608.63525 -1857.43030 -24.97321 422
1656.82373 -1916.92590 10.37506 362
1679.51086 -1944.87537 49.60554 423
1592.28308 -1860.84387 -24.79564 422
1773.22400 -2085.20825 0.32160 494
1676.20422 -1964.19324 49.50317 422
1576.86377 -1864.48059 -24.23675 431
1764.24512 -2100.24268 0.19753 414
1671.96033 -1984.31787 48.57458 421
1561.51929 -1869.04565 -23.65176 431
1668.18970 -2004.65601 6.47144 407
1667.69885 -2003.94983 48.25015 424
1547.22314 -1873.31604 -23.81393 436
1645.22632 -2000.22339 7.80700 475
1664.38708 -2025.03345 48.27768 419
1532.22986 -1878.63110 -23.18697 436
1636.06287 -2014.51099 7.47255 482
1660.49915 -2045.88391 47.79383 418
1517.41516 -1883.29297 -22.60684 436
1627.45251 -2028.54968 6.73990 481
1657.28149 -2067.46997 47.34758 260
1503.48767 -1888.20581 -22.38650 437
1618.73645 -2043.08533 6.47094 481
1488.75732 -1892.23694 -22.42430 437
1593.38867 -2034.26501 8.01929 373
1475.02979 -1897.69495 -22.05095 441
1562.19397 -2018.68835 9.32674 330
1461.18396 -1902.90320 -21.54200 450
1531.30811 -2001.64600 11.00594 319
1447.58203 -1909.12415 -21.19407 450
1481.58960 -1957.02502 13.94828 287
1433.82007 -1914.76111 -21.42845 464
1445.66479 -1931.66028 15.88807 412
1420.62830 -1920.41687 -21.25719 480
36955.62109 -54900.53906 4462.98584 1000
-10.44685 -3110.13623 25.10185 468
-10.70581 -3111.49292 76.06678 419
-10.00553 -3114.14893 126.58653 354
-2688.50806 -29290.95312 3468.94531 1000
-343.35422 -2482.18945 4.60302 499
-343.66882 -2482.28101 45.75078 499
-343.59473 -2481.99780 87.41270 486
-343.16730 -2482.53394 127.97764 486
-343.31256 -2483.07178 169.89066 449
-343.24991 -2483.12549 210.70566 449
-1872.41528 -8408.30762 -731.06805 1000
-659.61749 -1840.77722 96.82038 309
-658.14502 -1838.17920 129.33122 382
-657.25684 -1836.01978 161.91022 441
-656.64563 -1834.36011 194.54466 481
-656.26990 -1833.42969 227.16687 481
-670.63934 -1835.88855 31.84411 409
-670.78571 -1835.68921 64.38190 409
-28938.11914 -53917.99219 -11079.89648 1000
-1376.50745 -1312.58765 -129.37798 1000
-29199.33789 -16701.36328 2885.89258 1000
-839.71515 -506.24472 131.50700 1000
-3827.45142 -1990.95422 130.73186 481
-3199.44312 -1621.80115 130.37468 484
-2581.92212 -1298.46204 82.11102 477
-2586.75171 -1300.22729 131.12752 495
-2594.85889 -1283.99817 81.99755 417
-33432.71094 -15216.93066 6823.42822 1000
-46780.52344 -19899.80469 9387.72070 1000
-54264.81250 -21513.47266 3952.61621 1000
90.08969 -3.01814 127.86166 377
90.09007 -3.01634 128.11427 378
90.09013 -3.01877 128.36508 378
89.06127 -3.25774 128.38516 302
90.19423 -2.91435 127.88046 378
90.19508 -2.91425 128.13161 379
90.19419 -2.91241 128.38220 379
89.10069 -3.16207 128.38646 302
90.29765 -2.81037 127.89643 379
90.29778 -2.81193 128.14752 380
90.25784 -2.81845 128.38602 306
89.14246 -3.06425 128.38797 302
87.84362 -3.35263 128.38737 298
90.39998 -2.70846 127.91404 381
90.39907 -2.71020 128.16208 381
90.30127 -2.73023 128.38579 306
89.18513 -2.97019 128.38791 302
87.88390 -3.24931 128.38594 298
90.49989 -2.60827 127.92968 382
90.49846 -2.60880 128.17889 383
90.34312 -2.64170 128.38672 306
89.22611 -2.87366 128.38547 302
87.92458 -3.14465 128.38548 298
90.59823 -2.50964 127.94512 383
90.59743 -2.51047 128.19278 384
90.38662 -2.55112 128.38519 306
89.26772 -2.77809 128.38553 302
87.96707 -3.03796 128.38487 298
90.69735 -2.41285 127.96115 384
90.69797 -2.41054 128.20609 385
90.42921 -2.46324 128.38663 306
89.31121 -2.68208 128.38541 302
88.01016 -2.93490 128.38577 298
90.79283 -2.31377 127.97492 386
90.79290 -2.31335 128.22070 386
90.47416 -2.37505 128.38789 306
89.35619 -2.58564 128.38777 302
88.05151 -2.82983 128.38666 298
90.89106 -2.21807 127.98912 387
90.88981 -2.21839 128.23206 387
90.51823 -2.28425 128.38794 306
89.39825 -2.48788 128.38768 302
88.09438 -2.72563 128.38577 298
86.55933 -3.00816 128.38745 294
90.98569 -2.12116 128.00328 388
90.98499 -2.12255 128.24725 389
90.56561 -2.19657 128.38731 306
89.44443 -2.39308 128.38515 302
88.13979 -2.62124 128.38571 298
86.60246 -2.89291 128.38478 294
91.07961 -2.02600 128.01660 389
91.08125 -2.02669 128.25954 390
90.60979 -2.10680 128.38737 306
89.48975 -2.29681 128.38722 302
88.18502 -2.51859 128.38548 298
86.64677 -2.78097 128.38686 294
91.17327 -1.93277 128.02983 391
91.17385 -1.93282 128.27019 391
90.65779 -2.01953 128.38591 306
89.53734 -2.20093 128.38744 302
88.23018 -2.41563 128.38799 298
86.69038 -2.66555 128.38638 294
91.26733 -1.84216 128.04298 392
91.26700 -1.84111 128.28320 392
90.70505 -1.92905 128.38576 306
89.58320 -2.10600 128.38638 302
88.27760 -2.30929 128.38770 298
86.73820 -2.55039 128.38617 294
91.35127 -1.75039 128.05223 471
91.35278 -1.74905 128.29041 472
90.75171 -1.84121 128.38657 306
89.62914 -2.00888 128.38626 302
88.06455 -2.24406 128.33484 348
86.78195 -2.43871 128.38788 294
-68023.50781 -10264.20703 -998.75336 1000
91.37525 -1.66795 128.04543 471
91.37392 -1.66838 128.28377 472
90.80064 -1.75184 128.38670 306
89.67876 -1.91312 128.38675 302
87.82599 -2.17996 128.27559 346
86.82864 -2.32364 128.38513 294
91.39542 -1.58642 128.03947 472
91.39600 -1.58786 128.27910 473
90.84907 -1.66412 128.38757 306
89.72568 -1.81788 128.38707 302
87.57632 -2.11536 128.21576 345
86.87798 -2.21085 128.38756 294
91.41736 -1.50634 128.03198 473
91.41698 -1.50591 128.27014 474
90.89767 -1.57302 128.38701 306
89.77544 -1.72325 128.38701 302
87.31998 -2.04480 128.15678 343
86.92477 -2.09761 128.38712 294
91.43951 -1.42358 128.02437 473
91.43871 -1.42411 128.26349 474
90.94829 -1.48645 128.38669 306
87.11695 -1.96610 127.79520 442
87.11683 -1.96788 128.10515 443
86.97413 -1.98540 128.38831 294
91.46089 -1.34078 128.01750 474
91.46252 -1.34240 128.25627 475
90.99908 -1.39586 128.38683 306
87.12280 -1.85858 127.78751 302
87.02243 -1.87155 128.07768 442
87.02280 -1.87245 128.38506 443
91.48402 -1.25913 128.01096 474
91.48331 -1.25722 128.24986 475
91.04952 -1.30771 128.38658 306
87.17047 -1.74729 127.78801 302
86.92431 -1.77335 128.04565 441
86.92456 -1.77462 128.35829 442
91.50671 -1.17493 128.00121 475
91.50524 -1.17601 128.24310 476
91.09930 -1.21756 128.38710 306
87.22047 -1.63589 127.78884 302
86.82841 -1.67478 128.01927 440
86.82825 -1.67580 128.33025 441
91.52914 -1.09158 127.99434 475
91.52847 -1.09213 128.23480 476
91.15237 -1.13089 128.38643 306
87.26845 -1.52245 127.78815 302
86.72496 -1.57735 127.98946 439
86.72593 -1.57752 128.30334 440
85.33366 -1.71751 128.38501 290
91.54908 -1.00951 127.98717 476
91.54964 -1.00837 128.22797 477
91.20486 -1.04197 128.38698 306
87.32068 -1.40942 127.78661 302
86.62723 -1.47449 127.95538 438
86.62648 -1.47558 128.27368 439
85.38678 -1.59342 128.38815 290
91.57226 -0.92597 127.97825 476
91.57224 -0.92528 128.22130 477
91.25677 -0.95408 128.38676 306
87.37204 -1.29651 127.78623 302
86.52276 -1.37060 127.92568 437
86.52294 -1.37068 128.24815 438
85.43900 -1.46669 128.38844 290
91.59653 -0.84168 127.97123 477
91.59615 -0.84108 128.21289 478
91.31268 -0.86431 128.38695 306
87.42244 -1.18525 127.78646 302
86.41985 -1.26604 127.89632 436
86.41962 -1.26819 128.21977 437
85.49239 -1.34265 128.38632 290
91.61690 -0.75850 127.96110 477
91.61690 -0.75730 128.20505 478
91.36522 -0.77776 128.38779 306
87.47778 -1.07239 127.78582 302
86.31106 -1.16065 127.86407 436
86.31255 -1.16164 128.18741 436
85.54720 -1.21916 128.38651 290
91.63988 -0.67379 127.95383 478
91.64048 -0.67439 128.19780 479
91.42035 -0.68739 128.38765 306
87.53148 -0.95858 127.78657 302
86.27834 -1.04639 127.84482 490
86.27595 -1.04625 128.17162 491
85.60469 -1.09297 128.38576 290
91.66330 -0.58747 127.94624 478
91.66414 -0.58792 128.18837 479
91.47662 -0.60096 128.38530 306
87.58350 -0.84907 127.78741 302
86.24625 -0.93556 127.82726 490
86.24467 -0.93500 128.15555 491
85.66071 -0.97226 128.38651 290
91.68716 -0.50308 127.93788 479
91.68517 -0.50435 128.18095 480
91.53034 -0.51143 128.38719 306
87.63973 -0.73713 127.78780 302
86.21474 -0.81963 127.81278 490
86.21313 -0.81808 128.14233 490
85.72165 -0.84703 128.38689 290
91.70877 -0.41731 127.92828 479
91.70971 -0.41826 128.17195 480
91.58808 -0.42560 128.38557 306
87.69529 -0.62475 127.78602 302
86.18173 -0.70216 127.79501 489
86.18242 -0.70303 128.12326 490
85.77571 -0.72304 128.38800 290
91.73086 -0.33205 127.91970 480
91.73250 -0.33383 128.16493 481
91.64394 -0.33559 128.38771 306
90.52410 -0.38805 128.38568 302
86.21107 -0.58358 127.78616 298
86.15215 -0.58371 128.10802 490
85.83752 -0.60054 128.38855 290
91.75472 -0.24600 127.91109 480
91.75563 -0.24678 128.15475 481
91.70198 -0.24809 128.38710 306
90.58010 -0.29220 128.38661 302
86.26836 -0.46139 127.78739 298
86.11903 -0.46600 128.09198 489
85.89812 -0.47794 128.38820 290
91.77719 -0.16054 127.90021 481
91.77708 -0.16090 128.14754 482
91.75966 -0.16103 128.38681 306
90.63812 -0.19887 128.38675 302
86.32807 -0.34194 127.78802 298
86.09061 -0.34633 128.07541 489
85.95712 -0.35216 128.38646 290
91.80193 -0.07365 127.89116 481
91.79996 -0.07380 128.13911 482
91.80130 -0.07414 128.38130 483
90.69740 -0.10341 128.38658 302
86.38653 -0.22029 127.78956 298
86.05863 -0.22678 128.05835 489
86.01903 -0.22799 128.38719 290
91.81902 0.01341 127.88002 484
91.81764 0.01297 128.12747 485
91.81594 0.01180 128.37196 486
90.75845 -0.01009 128.38684 302
86.44676 -0.09778 127.78821 298
86.02514 -0.10553 128.04031 488
86.02264 -0.10823 128.37531 489
91.79361 0.09830 127.85916 484
91.79442 0.09831 128.10841 485
91.79494 0.09898 128.35275 486
90.81923 0.08350 128.38510 302
86.50729 0.02102 127.78551 298
85.99837 0.01526 128.02449 486
86.00106 0.01365 128.36072 487
91.77074 0.18701 127.83631 483
91.77087 0.18576 128.08676 484
91.77032 0.18614 128.33507 485
90.88070 0.17938 128.38768 302
86.56741 0.14352 127.78957 298
86.03479 0.13932 128.02263 487
86.03197 0.14086 128.35657 487
91.74569 0.27420 127.81642 483
91.74850 0.27580 128.06570 484
91.74716 0.27546 128.31505 485
90.94067 0.27327 128.38606 302
86.62800 0.26422 127.78627 298
86.06831 0.26368 128.01465 487
86.06703 0.26324 128.35419 488
