# .PCD v.7 - Point Cloud Data file format
VERSION .7
FIELDS x y z rgb
SIZE 4 4 4 4
TYPE F F F U
COUNT 1 1 1 1
WIDTH 950
HEIGHT 1
VIEWPOINT 5659.448730 -4082.251465 137.994873 -0.086268 -0.150408 -0.002796 0.984849
POINTS 950
DATA ascii
-197.28415 0.89071 53.32792 324
-197.22963 2.69990 53.33281 324
-197.26337 4.49708 53.39804 324
-197.26082 6.30431 53.39159 324
-197.30466 8.12228 53.38929 324
-197.26917 9.92692 53.40163 324
-197.23981 11.73875 53.38211 324
-295.97519 64.06632 39.78179 312
-275.38330 63.15575 37.94581 346
-291.54544 65.79708 40.71347 340
-273.36230 65.12741 38.36399 346
-289.61484 67.92322 41.02423 341
-271.43143 67.18137 38.79556 345
-290.78171 70.62787 40.70142 318
-270.92764 69.35536 38.78877 321
-253.06021 68.22578 37.05272 349
-272.82693 72.12197 38.28875 318
-275.73984 74.99803 37.40237 261
-59539.95703 23011.35156 7572.57031 1000
-2030.31812 1640.69946 47.35479 341
-2011.64014 1647.21838 47.38600 498
-2015.99768 1650.74353 90.98062 490
-2022.43518 1655.71484 135.28691 402
-2007.21191 1664.70825 47.59958 382
-2015.12842 1670.94312 91.07825 310
-1432.88000 1225.41895 38.05864 416
-1419.32263 1229.71985 38.31896 493
-1422.92676 1232.53418 70.44331 493
-1426.53333 1235.68970 102.43613 463
-1413.17297 1239.88245 38.64012 476
-1416.21570 1242.98401 70.28812 476
-1420.28540 1245.67419 102.41991 433
-46796.25000 39037.31641 -10895.84863 1000
-859.31720 824.74402 30.02740 451
-862.64233 827.90820 50.74689 395
-851.84058 828.77417 30.23057 499
-854.08527 830.69757 51.02438 487
-856.28864 832.71881 71.26009 457
-859.15491 834.89703 91.88950 450
-847.48273 835.25226 30.23664 487
-849.37689 836.66949 51.03227 487
-851.09045 838.38696 71.50504 450
-852.93427 839.90552 92.22435 487
-857.60022 843.90625 112.53997 401
-846.43951 844.62225 29.68540 396
-848.97162 846.72717 50.31351 395
-15919.41602 24694.07812 -7212.01514 1000
-22000.30469 34073.61719 -5177.32373 1000
-11972.21191 46189.12500 -3755.67993 1000
-2704.66260 15224.38867 -115.52181 460
-2688.60083 15124.48340 140.51653 465
-2604.73633 15196.17090 -112.40683 460
-2588.10303 15098.13281 138.30861 466
-2502.54199 15174.22266 -111.11736 469
-2485.88892 15079.47852 139.28647 470
-2405.53320 15152.83203 -111.92497 469
-2389.13184 15057.81543 140.21008 471
-2306.78857 15132.68652 -113.42649 470
-2290.18384 15042.26465 138.21042 471
-2208.78052 15118.44141 -110.33391 470
-2195.54443 15024.38281 137.04218 472
-2111.96680 15099.66699 -110.10416 471
-2096.28638 15006.52930 140.74017 472
-2013.28113 15077.28418 -111.49760 471
-2000.45459 14985.89551 139.72870 473
-1913.90259 15061.77832 -110.14626 472
-1903.05176 14969.76172 139.16917 481
-1820.26282 15040.86523 -109.41862 472
-1808.22815 14950.80859 137.67668 481
-1723.76819 15022.35059 -110.50957 473
-1713.60913 14934.56250 139.01903 482
-1627.59546 15004.84277 -108.45008 473
-1616.13513 14915.26953 138.79652 485
-1532.77393 14986.49121 -106.94193 474
-1520.99622 14899.25586 136.60861 486
-1435.08826 14968.75000 -106.81886 474
-1430.18445 14884.93164 139.88950 486
-1343.93262 14949.83594 -107.04711 474
-1333.71155 14868.14062 138.59251 486
-1247.52551 14935.60156 -109.11867 475
-1240.86414 14851.59473 136.64967 487
-1154.02869 14914.87207 -107.66215 475
-1148.22095 14832.96094 136.40298 487
-1061.28027 14897.89551 -107.16216 476
-1053.34155 14815.96289 137.78796 488
-968.88605 14882.84961 -105.57732 476
-961.02130 14800.06348 138.50720 488
-875.35754 14862.29785 -106.93138 476
-207.44734 3195.98535 1.15006 488
-783.40009 14847.11328 -106.05688 477
-777.47607 14765.23633 139.11897 489
-686.69415 14826.50391 -105.55852 477
-686.01666 14750.34473 137.98784 489
-598.52441 14810.71875 -106.02303 477
-593.08044 14734.66699 136.96977 489
-505.42609 14791.86523 -103.76454 478
-501.47391 14718.37695 135.73312 490
-414.45752 14775.97363 -105.91196 478
-409.18356 14700.03418 138.45187 490
-320.43542 14758.07422 -103.16196 478
-320.76923 14683.83105 138.10974 490
-231.61841 14741.69922 -105.93485 479
-229.71428 14666.03418 136.15872 491
-140.61574 14724.83594 -105.07493 479
-137.31458 14651.28027 135.03534 491
-46.80685 14705.47363 -104.79025 479
-46.01938 14636.91211 134.85474 491
42.89689 14691.60059 -104.65155 479
42.72522 14617.74023 135.49200 492
134.19308 14672.42969 -104.80421 480
130.09088 14604.45703 136.88802 492
222.52875 14656.08203 -103.22231 480
220.16669 14587.95410 134.64203 492
313.36002 14640.33691 -101.44437 480
310.89728 14573.08789 134.72838 492
399.79684 14621.70312 -103.26978 480
398.55887 14553.89160 136.14253 493
490.13330 14604.01953 -103.29831 481
490.70859 14541.06543 135.65128 493
579.61719 14588.68066 -103.58498 481
580.18640 14524.79395 136.53690 493
670.60803 14573.53613 -104.54881 481
667.96448 14506.81836 134.45132 493
697.05469 15266.99414 387.69434 488
757.35675 14555.32812 -103.20731 481
754.82147 14493.03711 134.78009 493
790.74591 15233.93164 386.50797 488
847.76135 14538.34082 -100.33628 481
846.37921 14474.76465 134.08600 494
883.28125 15201.16504 386.87411 488
935.54291 14520.19238 -100.43579 482
932.38330 14459.68359 133.95079 494
975.69928 15166.71582 382.42947 489
1023.41949 14504.20020 -103.16037 482
1022.23364 14444.61719 137.13448 494
1066.19250 15134.81152 384.42801 489
1110.91663 14489.35254 -103.78342 482
1109.12073 14427.88672 137.14116 494
1157.22791 15100.32910 385.06464 490
1202.06372 14471.70996 -101.05045 482
1197.46790 14413.05469 133.99907 494
1246.94604 15069.60547 383.93597 490
1288.80200 14452.63574 -100.28102 482
1285.14954 14395.61328 136.23207 494
1336.45557 15035.17285 383.88577 491
1378.87134 14439.61816 -99.86199 483
1374.57812 14379.45703 137.45323 497
1425.89844 15002.63574 381.89047 491
1464.35388 14422.94824 -103.63089 483
1461.69275 14364.46387 137.09767 497
1519.46021 14969.07227 380.67294 491
1561.19482 14489.39258 -341.63684 480
1554.53406 14406.14453 -102.63646 483
1545.57251 14350.84180 134.06264 497
1608.14246 14947.17480 380.39102 498
1649.25562 14473.27246 -342.53912 480
1641.61389 14389.05371 -102.50997 483
1633.24915 14334.85645 136.06123 497
1700.26465 14930.12891 382.63837 499
1738.45642 14456.90332 -339.70615 480
1726.65125 14372.00977 -100.75240 483
1721.54944 14318.52148 135.02443 498
1789.25281 14915.30566 379.63770 499
1825.86963 14439.61328 -340.47552 480
1816.13794 14356.23730 -101.88695 483
1810.94531 14302.39453 136.59784 498
1882.64233 14896.93359 378.78244 499
1914.38342 14426.56738 -340.75647 480
1901.88062 14337.09277 -103.10842 483
1896.92651 14290.48535 134.10857 498
1972.90112 14882.99707 381.03976 499
2002.03418 14409.82715 -339.58841 480
1992.46167 14320.74512 -99.86451 483
1986.30286 14274.83301 133.23058 498
2062.31812 14862.90723 378.94522 499
2092.40381 14390.28125 -341.40198 480
2080.41406 14305.68066 -103.29063 483
2072.84448 14258.55762 134.70950 498
2152.33398 14848.38184 379.26300 499
2177.76733 14373.62988 -342.06085 480
2164.03735 14287.87402 -100.05464 483
2157.38818 14242.61816 136.37254 498
2245.74829 14831.46191 381.39832 499
2265.53125 14356.29980 -338.69006 481
2253.69800 14274.79102 -101.31400 491
2245.81470 14225.51074 135.98663 498
2322.89575 14743.15527 380.54724 418
2353.93359 14341.72168 -339.78659 481
2340.33911 14255.01465 -99.58785 491
2332.45361 14210.30469 132.92322 498
2414.16699 14723.98438 377.78290 418
2435.66455 14846.16309 628.65228 499
2440.61987 14325.94531 -341.54242 481
2429.31323 14241.64941 -100.67320 491
2419.21997 14198.27539 132.73167 498
2504.53149 14704.87695 378.73785 418
2524.09326 14829.01465 624.75543 499
2528.70947 14307.77539 -340.74875 481
2516.09302 14225.64258 -100.88264 491
2508.63159 14180.60645 133.89081 498
2593.43164 14686.50293 380.14258 418
2616.46216 14809.51172 628.42139 499
2648.27344 14992.91016 883.84381 458
2618.09082 14291.82715 -341.68707 481
2602.56470 14210.75195 -101.01603 491
2594.72266 14167.25879 134.33652 498
2681.71875 14667.40918 377.96692 404
2706.77441 14796.14648 626.29309 499
2729.52637 14928.62891 879.55188 484
2704.23657 14274.80957 -339.13016 481
2688.14185 14193.36328 -100.33892 491
2683.39502 14149.79395 135.07237 447
2774.01782 14654.00586 378.35504 386
2797.18433 14777.11035 624.44354 499
2836.14502 14995.71094 885.44281 316
2791.53711 14257.89746 -338.80020 481
2778.13428 14177.33203 -101.93907 491
2767.72021 14136.55371 135.03719 464
2876.85962 14702.18066 379.53836 458
2876.80884 14712.10156 625.03339 458
2881.83936 14721.18652 868.44995 458
2877.82568 14243.44141 -341.60623 481
2863.66797 14163.43066 -100.87787 491
2856.30176 14124.63379 134.16595 464
2953.56152 14622.79297 380.10962 459
2957.58447 14635.52637 624.08380 459
2960.05981 14647.22070 868.45325 458
2969.57690 14226.63281 -340.27148 481
2953.09131 14148.32227 -100.17352 491
2942.56885 14111.35840 133.64145 424
3031.91016 14549.00098 376.35934 460
3034.85547 14559.49121 622.41052 460
3038.51562 14571.36816 862.67163 459
3057.16846 14209.57617 -340.07953 481
3037.45850 14131.84375 -100.33797 491
3031.41309 14098.62793 135.69377 424
3111.57812 14474.96094 377.86627 461
3114.03198 14485.16211 619.50018 460
3115.80054 14494.16406 861.76654 460
3142.84253 14193.79590 -339.21518 481
3127.39990 14113.45605 -103.69562 491
3120.65869 14082.45410 133.12851 424
3194.07788 14434.19629 374.30893 499
3196.17603 14439.42578 615.85754 499
3198.86377 14447.95410 858.60114 499
3267.97144 14761.08496 1123.00635 480
3231.75269 14174.41504 -340.33463 481
3211.98682 14098.91797 -101.72933 491
3207.35693 14072.21582 133.68475 424
3284.44214 14418.54395 374.97299 499
3287.37036 14423.47363 619.56244 499
3286.22681 14432.36523 861.66693 499
3357.02612 14747.17969 1122.08093 480
3319.86743 14158.80566 -340.60626 480
3302.47070 14081.02734 -101.44597 491
3296.72705 14064.88965 135.05698 302
3366.71265 14371.54785 374.79147 499
3369.79297 14378.71777 615.86060 499
3375.86108 14413.39746 861.22083 499
3448.79565 14729.93750 1122.43127 480
3427.43433 14627.67773 1365.89172 364
3425.98438 14625.69922 1609.70496 481
3428.01758 14633.71387 1860.14819 491
3406.90576 14141.61328 -340.25766 480
3388.41992 14067.90820 -100.51563 491
3386.79980 14061.29297 135.07883 302
3458.62231 14356.11230 374.47516 499
3457.72266 14362.24316 618.73962 499
3466.30249 14397.03223 858.42126 499
3541.75122 14713.03320 1124.71240 480
3493.03735 14126.96484 -340.10794 480
3474.38062 14050.93164 -102.40105 491
3478.14282 14059.12207 135.29364 296
3546.44165 14337.68359 377.46326 499
3546.25049 14344.64941 617.60590 499
3554.06299 14381.38281 859.11310 498
3619.98804 14640.65039 1119.94690 473
3581.10010 14108.79883 -341.85367 480
3563.92603 14033.17090 -100.82590 491
3631.37256 14299.54688 133.37901 499
3633.42749 14321.75684 374.98270 499
3638.00195 14330.01367 617.64252 499
3646.37476 14365.84180 862.16083 498
3723.59521 14678.21680 1126.50610 479
3671.60400 14094.56055 -343.22714 480
3650.80054 14018.65723 -103.94073 491
3718.05078 14281.00781 133.26913 499
3724.27808 14307.35156 374.24725 499
3727.01733 14313.09375 618.75745 499
3736.08813 14345.78027 862.64313 498
3816.30591 14659.44629 1125.46545 479
3759.11646 14078.68848 -344.03616 480
3741.00464 14003.18945 -102.61865 491
3805.54712 14266.88770 133.37038 499
3814.77295 14291.54004 376.56543 499
3815.18433 14296.56445 615.58392 498
3825.19409 14329.30859 859.25769 498
3906.21143 14645.47070 1123.84363 471
3847.48535 14059.02148 -340.95673 480
3825.56738 13986.39941 -103.14309 491
3896.10498 14247.15332 133.54330 499
3904.96021 14274.68652 377.44006 499
3903.55664 14276.46191 619.36755 498
3915.05933 14311.72266 861.84210 498
3998.31934 14630.21973 1124.70044 470
3936.97632 14042.65820 -341.32343 480
3913.43433 13972.31836 -101.61846 491
3986.15527 14234.34473 133.63849 499
3993.35596 14258.77051 376.58942 498
3995.28760 14260.92676 617.84290 498
3968.36816 14169.02539 857.35284 371
4090.34644 14611.27441 1128.91064 470
4024.79028 14026.43945 -342.48862 480
4002.41846 13955.27930 -103.91813 490
4077.88599 14215.67773 133.07204 499
4089.16479 14266.76562 377.98520 498
4092.07837 14272.87891 617.38562 498
4014.68335 13992.67188 848.14850 372
4184.72217 14596.14355 1126.43567 470
4112.64600 14011.96191 -343.65875 480
4089.93311 13937.58691 -102.20340 490
4166.92822 14197.85156 135.36034 498
4178.89600 14249.96973 377.81378 498
4177.72412 14239.09277 618.71063 477
4090.04468 13941.26953 848.11377 498
4275.67871 14580.17969 1128.63049 470
4198.70215 13992.23828 -343.09534 480
4178.35889 13924.97754 -103.83367 490
4254.85986 14180.58301 133.57979 498
4221.02637 14058.32129 372.05997 467
4204.99951 14005.75098 612.02814 492
4181.45557 13922.94922 846.38080 498
4368.63428 14564.09180 1129.44458 470
4288.45752 13975.73926 -344.05246 479
4266.07812 13907.12988 -103.85973 490
4344.81201 14163.95215 134.68929 498
4360.45557 14219.08887 376.07541 498
4299.96826 14015.17285 612.50653 451
4265.98047 13905.53711 848.64465 497
4461.76611 14547.74316 1127.40869 473
4377.75977 13959.06348 -343.90869 479
4354.54541 13893.20020 -102.62245 490
4435.90039 14146.86035 135.06963 498
4452.75293 14199.62012 375.24994 498
4452.06445 14207.53027 619.02441 497
4354.61523 13890.04492 845.64172 497
4553.89209 14532.61816 1129.12402 473
4465.06348 13943.69336 -343.59805 479
4443.99658 13873.77930 -103.34899 490
4525.12305 14130.20996 131.85522 498
4541.25000 14182.25391 377.66043 497
4545.29443 14188.77637 621.24023 497
4443.31885 13873.45703 848.18445 497
4648.49072 14520.50000 1132.15161 472
4554.91992 13927.09570 -344.95981 479
4532.08203 13857.14355 -102.84007 489
4616.47803 14115.46289 134.36449 498
4637.75928 14192.26562 377.87521 443
4639.42773 14193.46973 619.35748 443
4645.31982 14216.73340 865.58185 352
4745.58496 14521.39648 1132.19592 448
4645.73975 13911.23828 -344.98532 479
4623.22754 13842.67188 -105.26922 489
4706.77490 14098.14062 132.84859 497
4750.90967 14236.17285 378.58801 442
4752.36035 14238.98145 622.18323 442
4767.24023 14281.88574 872.56873 352
4850.55469 14542.08008 1137.58630 450
4732.13037 13894.61328 -345.56497 478
4712.75732 13828.88379 -106.04503 489
4797.15381 14079.94824 133.13249 497
4854.05518 14261.51465 378.98285 466
4863.57666 14280.78125 625.14667 441
4886.82715 14347.14258 877.66437 351
4821.73584 13878.63086 -345.82773 480
4800.24268 13811.46191 -105.56390 489
4887.31055 14061.50781 132.77246 497
4959.52881 14276.45020 380.04407 465
4977.34131 14325.49023 626.95062 440
4913.73682 13861.41016 -348.51941 480
4891.77100 13795.58789 -105.18661 489
4986.63184 14070.39160 132.57759 407
5063.17529 14293.64648 380.72083 464
5081.15723 14350.36914 628.84387 463
5004.05908 13842.14453 -348.81314 479
4981.30420 13778.11914 -106.11116 488
4990.70166 13809.51074 135.05226 428
5168.30322 14310.42969 383.63290 464
5091.35156 13825.91895 -346.43958 479
5069.23975 13763.73828 -106.28997 488
5079.38965 13789.87207 131.43791 428
5184.46094 13811.32324 -347.55624 479
5157.88232 13744.85352 -107.07594 488
5169.41602 13773.79395 135.10600 429
5274.76514 13792.43457 -349.83652 479
5250.12793 13730.91406 -106.16753 488
5257.87305 13752.15723 133.94885 428
5363.95215 13777.08301 -348.98108 478
5338.17773 13715.09961 -106.40476 487
5346.15283 13737.35352 132.35344 435
5454.74805 13759.46680 -350.85248 478
5430.59814 13698.76562 -106.16813 487
5439.09863 13721.39551 134.28705 434
5544.79199 13742.07910 -352.34384 478
5519.20459 13680.09375 -108.15577 487
5531.25000 13710.23438 132.61530 434
5636.56689 13724.84375 -352.17279 478
5612.97510 13663.36523 -108.12362 490
5623.77441 13694.94922 131.31955 384
5727.15918 13707.75195 -353.63013 477
5704.37793 13649.00586 -108.88629 489
5821.46289 13693.29883 -354.55597 477
5792.60205 13631.67188 -107.71395 489
5911.35449 13673.37793 -355.64429 477
5885.70996 13614.26562 -110.14264 489
6002.35400 13656.28906 -354.00104 476
5977.77344 13597.72266 -108.54189 488
6095.65430 13638.68164 -353.43954 476
6070.64062 13583.65430 -111.08862 488
6188.67041 13622.08691 -354.50354 476
6163.68848 13566.90430 -112.01995 488
6282.76660 13606.29395 -356.99326 475
6257.83936 13548.55957 -111.42175 487
6376.34082 13589.21875 -359.07632 475
6348.43457 13533.27539 -113.25642 487
6470.15186 13570.10938 -358.54065 475
6442.56885 13517.75781 -111.43166 486
6563.33740 13553.17285 -358.75473 474
6534.62549 13500.28125 -113.37038 488
6655.68652 13534.73145 -357.90958 474
6629.63916 13483.22363 -111.50211 488
6749.90430 13519.30762 -359.53409 473
6722.94434 13465.46582 -113.55775 488
6846.46436 13502.63184 -360.41272 481
6821.16113 13450.26270 -111.66931 487
6940.96582 13482.87988 -362.98499 480
6915.22266 13434.15234 -112.40240 487
7036.60742 13467.59277 -363.88654 480
7009.31836 13415.01270 -113.10860 486
7135.52441 13448.89160 -364.87271 479
7108.53320 13397.98926 -113.96741 486
7231.17188 13431.94238 -364.92651 479
7203.56641 13383.06348 -116.83590 485
7325.35645 13414.83984 -364.89709 478
7299.30127 13365.75195 -116.37118 485
7424.72559 13400.60547 -368.52643 478
7397.56445 13345.95117 -114.75666 484
7520.09131 13382.28223 -369.41577 478
7494.98047 13331.78809 -117.68833 484
7619.91992 13361.43555 -369.27155 477
7591.78027 13311.62012 -116.06644 483
7720.12793 13344.04883 -373.04187 477
7692.04785 13295.56641 -117.93045 483
7819.62891 13327.79883 -372.50235 476
7790.53125 13279.74609 -120.29855 482
7846.50537 13345.11523 -380.27664 476
7817.63867 13296.90820 -125.53648 482
7945.03564 13328.23047 -379.03052 475
7917.28857 13279.98438 -124.97269 481
8044.98730 13314.01758 -382.74561 474
8018.49609 13262.53320 -128.02695 481
8151.49512 13301.74512 -383.34824 451
8116.91162 13247.55371 -128.33975 480
8263.60449 13297.48535 -386.49255 451
8219.27051 13233.70703 -127.71353 476
8373.92090 13294.51855 -389.61807 451
8325.51172 13219.16699 -129.29390 475
8483.52148 13289.08301 -387.76569 450
8430.37695 13205.08496 -131.40927 475
8596.95020 13284.95410 -389.30780 450
8541.67285 13199.33301 -130.19521 456
8709.31738 13283.34082 -395.43768 449
8651.87402 13196.52344 -133.15903 455
8823.71973 13276.25000 -394.23834 448
8764.32715 13192.60254 -133.49329 454
8938.07227 13277.97656 -397.06039 403
8881.68848 13185.61621 -134.18549 453
9074.24414 13300.29688 -398.47900 402
9000.95508 13187.73145 -135.21631 452
9209.43945 13323.59473 -404.60510 401
9118.52930 13191.06836 -137.71648 451
9350.40527 13355.69336 -409.81171 379
9241.10449 13194.58594 -139.90382 450
9502.16504 13394.94727 -413.56100 378
9367.04980 13197.86133 -140.55913 449
9664.98926 13446.11523 -414.03024 351
9494.08105 13208.44434 -141.41185 392
9840.69824 13519.77051 -423.65796 350
9635.75293 13233.40723 -144.07501 391
9783.30566 13263.82422 -144.13467 386
9946.23438 13313.88672 -145.52034 385
10114.69629 13375.04980 -148.98320 350
10302.58398 13443.32324 -153.98357 349
36335.07422 37181.16406 -12007.97266 1000
10986.50488 10910.73242 -2423.78833 1000
1997.56458 1244.43347 -93.76622 378
1999.38953 1229.24915 -93.47086 498
2005.04541 1232.59265 -56.36210 498
2010.91675 1236.38171 -19.49217 479
2013.21167 1221.45422 -94.03603 412
3480.90625 161.88054 -92.06589 379
3462.58057 140.37349 -91.21649 412
3449.89966 118.83183 -90.41380 466
3439.05762 98.66247 -89.91622 467
3430.87036 77.23383 -88.64286 484
3424.26562 57.06599 -88.64349 484
3417.77954 36.32196 -88.09435 486
3413.15918 15.50776 -87.26043 493
3410.09570 -4.33486 -87.27192 493
3406.69824 -25.38879 -87.49975 493
3403.00269 -45.61274 -86.93386 493
3401.15308 -66.41322 -87.08270 495
3399.10107 -86.00224 -86.88196 495
3397.45703 -107.06813 -86.31672 495
3474.42603 -108.91506 -35.87203 498
3395.62402 -126.46315 -86.56252 495
3475.73999 -129.65422 -36.58306 498
3394.87549 -147.24266 -87.00225 496
3516.06982 -152.80333 -38.37268 487
3394.72632 -167.34335 -86.31332 465
3395.13843 -188.27518 -86.70203 463
3395.17554 -208.23717 -86.85649 463
3396.51709 -228.85808 -86.78846 463
3396.60327 -249.20715 -86.62352 462
3483.80615 -256.08490 -37.17033 497
3545.19165 -260.55463 16.53552 404
3398.08325 -269.52609 -86.77518 493
3535.37427 -280.91058 73.49799 356
3399.68799 -290.27328 -87.55759 493
3531.32935 -302.27017 73.38233 496
3401.42993 -311.51114 -87.22938 493
3401.89185 -332.31790 -88.03973 492
3597.37842 -351.27618 -42.85723 496
3404.04785 -352.54840 -87.75154 492
3459.21851 -358.66483 -36.38367 413
3405.01636 -373.27872 -88.57457 492
3458.39917 -379.61719 -35.78273 495
3406.41138 -393.93674 -88.95513 492
3407.67480 -415.16690 -88.29218 491
3409.16357 -436.05841 -88.76595 491
3409.89966 -457.30579 -89.12662 491
3411.70459 -478.21756 -89.34130 490
3412.71240 -498.83932 -89.97028 490
3414.58008 -519.74536 -89.95072 490
3415.57935 -541.29230 -90.82477 491
3417.21533 -562.16132 -91.09137 491
3418.89990 -583.86591 -90.58348 491
3420.34912 -605.14319 -91.42795 490
3422.29663 -626.37848 -92.01936 490
2584.97607 -1523.91553 -60.26546 498
2592.16748 -1528.34314 -12.83530 497
2588.14038 -1546.58301 -61.39120 334
27557.18359 -25998.48047 3851.40039 1000
3936.87134 -4163.82373 -53.53080 441
3925.67920 -4203.24951 -54.09012 426
4074.68530 -4366.10352 34.37716 442
3916.33057 -4244.88525 -55.10336 422
4032.12427 -4372.43945 35.98125 442
3906.82300 -4286.09424 -55.50151 415
3989.22656 -4380.51318 34.89639 443
3898.89941 -4332.11035 -56.95893 398
3947.57739 -4387.63574 36.87556 444
3894.00342 -4379.68408 -58.74408 395
3905.37256 -4393.09033 36.58123 447
3893.52075 -4434.66797 -59.29237 359
3886.63086 -4427.23145 35.46533 413
3904.97656 -4501.63135 -61.95641 359
3894.70947 -4490.69678 35.60278 376
3916.41040 -4572.12891 -64.25095 368
30648.56641 -37035.91016 2487.13306 1000
30979.86523 -38391.12500 -12213.66406 1000
2679.08813 -3464.38892 -10.08713 451
16677.11523 -29252.86914 -8878.14355 1000
2544.60083 -4587.48730 47.25315 483
2597.52783 -5649.49658 133.03818 302
2538.38770 -5609.16699 32.29428 394
2527.64746 -5583.42871 133.42873 463
2490.53735 -5594.85107 34.09023 413
2346.39673 -5535.28809 34.67269 418
2401.91895 -5670.68896 233.77371 464
2306.48438 -5533.92334 35.55305 424
2321.65259 -5570.42334 133.69374 472
2312.26758 -5551.19873 231.19669 364
17484.03711 -44264.08594 -12602.90332 1000
2267.08569 -5533.72070 35.21198 428
2279.46948 -5567.29346 133.39951 472
2276.57397 -5557.06982 230.17032 423
2227.39526 -5535.30713 35.66981 465
2240.99805 -5571.08984 133.13853 495
2238.91528 -5562.12891 230.07671 424
2189.52026 -5539.14453 35.93127 469
2205.25488 -5578.01855 133.42947 495
2201.07227 -5568.23242 230.87923 424
2154.25049 -5544.31885 36.29661 472
2166.64380 -5578.76611 133.59941 495
2165.54883 -5575.17969 230.82301 462
2116.63623 -5550.25488 36.92181 438
2129.81104 -5584.37012 132.49568 495
2129.10620 -5581.97656 231.23190 495
2080.30737 -5556.62207 35.86305 438
2094.66040 -5596.94775 133.48424 496
2092.53247 -5588.46826 230.42921 496
2044.89502 -5564.43994 36.49249 439
2057.77246 -5603.09668 132.87527 496
2056.25220 -5594.04053 229.77193 496
2009.67261 -5571.14209 36.95260 439
2022.65039 -5608.57373 132.87204 496
2020.96106 -5607.17236 230.50606 496
1972.84619 -5577.95068 37.68354 443
1984.88086 -5615.21777 133.26898 496
1989.68347 -5627.76367 231.28195 288
2015.93127 -5705.85938 329.73590 481
1936.64819 -5585.07324 37.75631 388
2024.65454 -5848.24170 133.76933 287
1902.31897 -5593.06494 38.01876 388
1954.55090 -5752.10010 331.28751 481
1764.02844 -5768.05225 134.31218 498
1700.07166 -5672.53857 133.63779 498
1663.98132 -5679.32031 133.41841 498
1640.92590 -5732.71582 132.91945 476
3963.78198 -14690.42480 -1360.13428 1000
1601.07117 -5726.79980 133.66122 477
1563.70435 -5729.57031 134.62672 497
5735.07861 -22528.20898 -1765.67224 1000
934.53839 -4529.66455 133.36879 441
633.88928 -3653.47095 133.81152 261
585.58148 -3475.21924 76.22993 277
586.57111 -3482.88403 133.43269 403
540.66156 -3308.95679 78.63011 287
539.64050 -3297.68384 133.61726 321
511.53421 -3243.42505 79.97688 326
513.62994 -3260.96729 133.76331 437
486.32025 -3202.45679 80.13110 336
492.74551 -3252.86353 133.57620 476
462.39740 -3168.54370 80.66454 358
472.90945 -3257.81030 133.20712 474
439.86676 -3141.90454 81.86514 365
453.50131 -3261.87720 133.55247 474
417.81696 -3117.48608 81.74089 366
469.68015 -3615.89722 133.84790 344
396.27530 -3093.63086 82.15607 367
453.53378 -3672.80591 133.86588 398
374.58276 -3071.63013 82.36776 389
408.01010 -3426.11035 133.47401 291
354.42728 -3050.93530 83.35100 406
386.46634 -3422.31836 133.84224 293
334.58249 -3044.12598 82.98406 360
353.64099 -3278.98486 133.40755 494
320.34720 -3098.38721 82.15156 309
333.56042 -3276.34326 133.30479 495
305.68130 -3175.59033 80.99168 301
308.82523 -3213.11548 133.21091 259
291.96463 -3261.33423 133.09685 284
1650.32397 -28437.51562 -6496.52881 1000
-3550.50317 -65129.45312 -9513.58301 1000
-222.53970 -2217.38330 694.56458 1000
-16662.66211 -34203.18359 -8074.21191 1000
-519.24976 -1146.94531 47.14212 368
-518.35260 -1145.33105 68.80590 369
-517.46021 -1143.94849 90.14863 431
-516.82983 -1142.66028 111.29719 431
-516.16998 -1141.41870 132.80917 475
-515.68854 -1140.17639 153.80928 475
-514.90363 -1139.24561 174.95189 476
-514.52960 -1138.39319 196.22205 497
-513.93622 -1137.38342 217.55278 497
-513.69391 -1136.54907 238.40770 497
-513.24640 -1135.90649 259.78543 495
-512.65100 -1135.30249 280.90961 494
-524.69226 -1140.49707 47.61490 467
-524.28058 -1139.83752 68.95129 467
-524.10724 -1139.42249 90.24975 468
-523.96613 -1139.11572 111.61388 420
-523.85345 -1138.90308 132.71190 420
-523.98560 -1139.23987 153.97847 355
-524.64209 -1140.33008 175.17809 280
-949.28564 -1714.67053 100.15671 480
-948.70679 -1712.79785 133.19234 480
-947.25287 -1711.67456 166.08641 499
-946.71008 -1710.50342 198.64026 499
-945.68677 -1709.03906 231.42714 499
-944.91339 -1707.70007 263.96817 493
-944.37646 -1706.63696 296.76898 493
-18441.92383 -30392.29492 6628.09229 1000
-1360.79944 -2292.83813 222.09421 384
-1358.76392 -2289.49707 266.42072 443
-1357.39453 -2287.05957 310.92371 443
-2573.44238 -3680.43823 357.64371 1000
-13208.18555 -16980.87109 -2339.81396 1000
-21312.05859 -22950.24023 5857.20361 1000
-39027.44922 -29993.81055 -5521.92334 1000
-650.98218 -485.12070 325.69870 1000
90.10775 -3.00088 128.31937 359
90.21395 -2.89467 128.34201 360
89.48236 -3.12800 128.38606 310
88.46983 -3.45249 128.38759 306
90.31786 -2.78791 128.36385 361
89.50661 -3.04250 128.38737 310
88.49239 -3.35975 128.38710 306
90.42188 -2.68435 128.38510 363
89.53429 -2.95673 128.38771 310
88.51701 -3.26891 128.38676 306
90.45303 -2.60357 128.38689 314
89.56110 -2.87126 128.38565 310
88.54339 -3.17794 128.38782 306
90.48245 -2.52454 128.38710 314
89.58728 -2.78658 128.38573 310
88.56745 -3.08599 128.38533 306
90.51242 -2.44345 128.38695 314
89.61669 -2.70170 128.38536 310
88.59377 -2.99401 128.38614 306
90.54258 -2.36451 128.38750 314
89.64465 -2.61416 128.38620 310
88.62155 -2.90020 128.38617 306
87.44083 -3.23057 128.38525 302
90.57191 -2.28502 128.38658 314
89.67303 -2.52927 128.38716 310
88.64850 -2.80844 128.38794 306
87.46655 -3.13002 128.38748 302
90.60123 -2.20401 128.38739 314
89.70241 -2.44224 128.38515 310
88.67590 -2.71791 128.38696 306
87.49368 -3.03025 128.38771 302
90.63214 -2.12212 128.38605 314
89.73046 -2.35612 128.38667 310
88.70414 -2.62427 128.38506 306
87.51987 -2.93289 128.38641 302
90.66386 -2.04141 128.38689 314
89.76065 -2.27033 128.38620 310
88.73406 -2.53115 128.38670 306
87.54834 -2.83075 128.38484 302
90.69708 -1.96051 128.38701 314
89.79317 -2.18590 128.38734 310
88.76373 -2.43933 128.38547 306
87.57564 -2.73112 128.38800 302
90.73052 -1.87932 128.38776 314
89.82339 -2.09832 128.38786 310
88.79290 -2.34713 128.38664 306
87.60384 -2.63188 128.38646 302
90.76322 -1.79980 128.38631 314
89.85542 -2.01181 128.38608 310
88.82463 -2.25450 128.38727 306
87.63432 -2.53255 128.38765 302
90.79761 -1.71983 128.38635 314
89.88858 -1.92488 128.38678 310
88.25749 -2.29623 128.24416 363
87.66344 -2.43202 128.38802 302
86.27625 -2.74626 128.38565 298
90.83139 -1.63746 128.38542 314
89.92135 -1.83864 128.38637 310
88.07303 -2.24843 128.19229 362
87.69389 -2.32950 128.38744 302
86.30471 -2.63819 128.38562 298
90.86443 -1.55642 128.38605 314
89.95662 -1.75141 128.38588 310
87.88280 -2.19584 128.14023 360
87.72303 -2.22994 128.38660 302
86.33367 -2.52796 128.38577 298
90.90049 -1.47551 128.38617 314
89.98952 -1.66462 128.38629 310
87.68778 -2.14408 128.08566 359
87.68639 -2.14400 128.37090 360
86.36550 -2.41891 128.38658 298
90.93608 -1.39426 128.38571 314
90.02345 -1.57750 128.38573 310
87.48439 -2.09018 128.02892 358
87.48412 -2.08923 128.32135 358
86.39745 -2.31040 128.38573 298
90.97276 -1.31298 128.38666 314
90.06045 -1.48948 128.38715 310
87.27670 -2.03466 127.97327 356
87.27786 -2.03358 128.26535 357
86.42826 -2.19881 128.38759 298
91.00887 -1.22963 128.38771 314
90.09536 -1.40279 128.38625 310
87.11476 -1.96516 127.92730 451
87.11488 -1.96484 128.22488 451
86.45888 -2.09023 128.38599 298
91.04685 -1.14910 128.38712 314
87.77644 -1.74483 127.78685 310
87.03169 -1.88026 127.89970 450
87.03242 -1.88356 128.19897 451
86.49111 -1.98098 128.38637 298
91.08329 -1.06803 128.38641 314
87.81316 -1.64265 127.78692 310
86.94725 -1.79611 127.86994 449
86.94810 -1.79626 128.17387 450
86.52413 -1.87083 128.38507 298
91.12155 -0.98724 128.38582 314
87.84854 -1.54353 127.78787 310
86.86046 -1.70969 127.84365 448
86.86169 -1.70772 128.14742 449
86.55909 -1.76056 128.38631 298
91.16109 -0.90340 128.38693 314
87.88403 -1.44023 127.78608 310
86.77216 -1.62073 127.81387 447
86.77061 -1.62210 128.11858 448
86.59589 -1.64966 128.38835 298
91.19835 -0.82330 128.38660 314
87.91830 -1.33879 127.78811 310
86.69629 -1.52897 127.78924 306
86.68404 -1.53421 128.09085 447
86.63120 -1.54007 128.38635 298
91.23985 -0.74010 128.38655 314
87.95621 -1.23699 127.78641 310
86.73110 -1.42179 127.78673 306
86.59048 -1.44067 128.06419 446
86.59031 -1.44024 128.37108 447
91.27810 -0.65925 128.38553 314
87.99265 -1.13419 127.78835 310
86.76865 -1.31112 127.78597 306
86.50217 -1.35141 128.03654 445
86.49865 -1.35079 128.34573 446
91.32067 -0.57747 128.38608 314
88.03135 -1.03304 127.78856 310
86.80499 -1.19960 127.78736 306
86.40508 -1.25519 128.00592 444
86.40703 -1.25517 128.32112 445
91.36187 -0.49512 128.38660 314
88.07030 -0.92845 127.78687 310
86.84530 -1.09121 127.78856 306
86.31377 -1.15955 127.98058 443
86.31146 -1.16116 128.29251 444
91.40353 -0.41224 128.38641 314
90.48048 -0.52907 128.38535 310
86.88095 -0.98077 127.78822 306
86.27779 -1.05693 127.96351 492
86.27739 -1.05827 128.28073 492
85.15850 -1.19934 128.38486 294
91.44555 -0.33185 128.38699 314
90.52437 -0.44053 128.38596 310
86.91943 -0.87132 127.78952 306
86.25037 -0.95229 127.94800 491
86.25017 -0.95393 128.26495 492
85.19878 -1.07765 128.38602 294
91.48647 -0.24969 128.38622 314
90.56503 -0.35284 128.38745 310
86.96067 -0.76366 127.78696 306
86.22390 -0.84653 127.93451 491
86.22260 -0.84671 128.25143 492
85.23465 -0.95557 128.38632 294
91.53016 -0.16771 128.38594 314
90.60712 -0.26576 128.38708 310
87.00089 -0.65304 127.78755 306
86.19329 -0.73707 127.91928 491
86.19511 -0.73691 128.23676 492
85.27395 -0.83539 128.38496 294
91.57306 -0.08550 128.38573 314
90.65248 -0.17857 128.38731 310
87.04364 -0.54272 127.78832 306
86.16381 -0.62987 127.90482 491
86.16358 -0.63179 128.22377 492
85.31500 -0.71611 128.38672 294
91.61791 -0.00279 128.38699 314
90.69629 -0.08951 128.38721 310
87.08321 -0.43319 127.78734 306
86.13586 -0.52235 127.88909 490
86.13641 -0.51960 128.20836 491
85.35961 -0.59474 128.38585 294
91.66301 0.07967 128.38603 314
90.73829 -0.00208 128.38597 310
87.12720 -0.31991 127.78925 306
86.10654 -0.41233 127.87237 490
86.10633 -0.41319 128.19595 491
85.39974 -0.47572 128.38803 294
91.70827 0.16323 128.38742 314
90.78397 0.08534 128.38574 310
87.16908 -0.21054 127.78876 306
86.07507 -0.30261 127.85626 490
86.07516 -0.30142 128.18065 491
85.44374 -0.35311 128.38730 294
91.75275 0.24334 128.38623 314
90.82926 0.17431 128.38605 310
87.21528 -0.10150 127.78915 306
86.04700 -0.19116 127.84172 490
86.04753 -0.19099 128.16754 490
85.48929 -0.23323 128.38719 294
91.73450 0.32268 128.37019 487
90.87491 0.26167 128.38777 310
87.25739 0.00953 127.78841 306
86.01768 -0.07724 127.82374 489
86.01453 -0.07596 128.15245 490
85.53113 -0.11050 128.38588 294
91.71413 0.40051 128.34970 486
90.92039 0.35091 128.38626 310
87.30541 0.11983 127.78902 306
86.00661 0.03539 127.81212 481
86.00720 0.03743 128.13986 482
85.57839 0.01031 128.38470 294
91.69215 0.47972 128.33340 486
90.96758 0.43738 128.38773 310
87.34863 0.23079 127.78596 306
86.03893 0.15492 127.81126 482
86.03860 0.15280 128.13756 482
85.62294 0.13224 128.38730 294
91.66997 0.55838 128.31415 486
91.01572 0.52613 128.38698 310
87.39758 0.33828 127.78873 306
86.07027 0.27090 127.80690 482
86.06975 0.27338 128.13416 483
85.67076 0.25140 128.38525 294
91.64842 0.64063 128.29556 485
91.06502 0.61397 128.38596 310
87.44144 0.45098 127.78902 306
86.10066 0.39138 127.80583 482
86.10214 0.38791 128.13237 483
85.71557 0.37321 128.38594 294
91.62699 0.72230 128.27702 485
91.11359 0.70137 128.38655 310
87.49227 0.55938 127.78633 306
86.13371 0.50605 127.80167 483
86.13273 0.50539 128.12868 484
85.76450 0.49483 128.38831 294
91.60411 0.80418 128.25710 485
91.16111 0.78918 128.38567 310
87.53811 0.66906 127.78911 306
86.16399 0.62343 127.79521 483
86.16183 0.62361 128.12617 484
85.81261 0.61458 128.38765 294
-30522.28711 -1007.10132 3657.91479 1000
91.58424 0.88877 128.23923 484
91.21043 0.87769 128.38777 310
87.58898 0.78142 127.78604 306
86.19653 0.74466 127.79191 484
86.19299 0.74415 128.12041 485
85.86273 0.73607 128.38689 294
91.56171 0.97161 128.21977 484
91.26285 0.96495 128.38622 310
87.63817 0.89117 127.78786 306
86.22633 0.86210 127.79008 484
86.22777 0.86074 128.11659 485
85.91539 0.85409 128.38550 294
91.53835 1.05598 128.19789 484
91.31306 1.05334 128.38635 310
87.68805 1.00161 127.78857 306
86.27119 0.97956 127.78646 302
86.25744 0.98124 128.11534 485
85.96633 0.97650 128.38795 294
91.51440 1.14382 128.18001 483
91.36235 1.14186 128.38647 310
87.73933 1.11121 127.78710 306
86.32445 1.09789 127.78822 302
86.28829 1.09890 128.10909 486
86.01806 1.09910 128.38617 294
91.49138 1.23018 128.15855 483
91.41542 1.22950 128.38785 310
90.36226 1.22698 128.38687 306
86.37563 1.21979 127.78752 302
86.36722 1.21962 128.11420 423
86.06942 1.21921 128.38611 294
