# .PCD v.7 - Point Cloud Data file format
VERSION .7
FIELDS x y z rgb
SIZE 4 4 4 4
TYPE F F F U
COUNT 1 1 1 1
WIDTH 1175
HEIGHT 1
VIEWPOINT 6857.978027 -2819.150391 140.887650 -0.594439 -0.113561 -0.093111 0.790618
POINTS 1175
DATA ascii
-196.09798 0.97826 53.33099 324
-196.12663 2.80848 53.29067 324
-196.16830 4.64725 53.34740 324
-196.19051 6.41006 53.30971 324
-196.18228 8.22260 53.28572 324
-196.17412 10.08203 53.31628 324
-196.13228 11.79678 53.30383 324
-19988.74609 783.96436 465.81879 1000
-269.29367 57.82582 32.75064 319
-283.49503 60.13552 35.62497 317
-263.06668 59.14008 34.44291 325
-277.59439 61.50972 37.04498 323
-293.67279 64.12611 39.87228 313
-259.39584 60.81507 35.32919 350
-274.05850 63.21556 37.89558 346
-290.18927 66.00558 40.62670 341
-257.52658 62.69110 35.72093 350
-272.05273 65.23302 38.34356 347
-288.24377 68.10005 40.96768 341
-255.63980 64.63305 36.13630 351
-270.14978 67.22976 38.63095 345
-289.57529 70.81126 40.59270 318
-253.72003 66.50777 36.51918 351
-269.80081 69.54885 38.68693 321
-251.97281 68.40332 36.96569 349
-271.81711 72.19248 38.08496 318
-16253.72461 3185.23022 958.79108 468
-253.73622 70.89228 36.28687 322
-274.90137 75.17831 37.13674 260
-16304.85645 3303.48120 686.91888 453
-16184.03320 3275.69824 955.44025 472
-255.74823 73.63464 35.69725 321
-16234.97754 3394.62280 684.73785 463
-16118.25488 3366.33057 951.19733 474
-257.82071 76.32594 34.98674 321
-16169.15039 3485.28247 683.17682 463
-16055.50977 3456.60181 951.52899 475
-16105.17090 3572.62061 683.48578 464
-15989.72949 3549.89355 947.71387 476
-16041.38281 3665.42017 679.74786 465
-15929.59863 3638.00757 946.55951 476
-15976.69434 3754.86157 678.65289 465
-15863.89941 3728.45630 945.86792 477
-15916.18848 3840.42236 680.30109 466
-15800.07910 3814.50024 941.29181 477
-15851.23242 3930.72192 676.35925 466
-15738.98926 3900.53442 940.46344 478
-15785.37793 4018.66089 673.78302 467
-15678.14453 3992.69312 940.42590 478
-15725.76855 4106.95557 675.99982 467
-15614.04492 4075.48926 934.38110 479
-15663.54785 4194.01123 673.21362 468
-15553.05078 4163.30176 934.04468 480
-15599.81055 4278.43164 672.13806 468
-15492.67676 4249.08887 931.94690 480
-15537.39648 4367.76465 668.57471 469
-15430.58301 4336.90234 929.20642 481
-15477.33887 4451.79834 670.30328 469
-15372.10547 4423.50342 931.06860 481
-15415.96875 4537.28857 669.48737 470
-15309.83008 4509.06641 927.53961 482
-15354.68164 4626.40186 665.92792 470
-15248.21094 4593.02979 924.92493 482
-15292.15430 4709.39502 665.84100 471
-15191.75977 4677.66162 926.24622 483
-15232.05566 4794.80225 667.31012 471
-15129.03223 4761.71436 924.00763 483
-15173.68066 4879.73779 662.45856 471
-15070.34375 4845.25537 920.90021 484
-15114.67188 4962.11377 664.79700 472
-15013.10840 4928.43457 922.54297 484
-15054.19824 5044.45312 663.37341 472
-14951.95801 5010.99756 919.74225 484
-14991.52832 5125.85254 663.05115 473
-14893.59570 5096.59277 917.30640 485
-14935.14258 5211.11523 660.26874 473
-14836.71484 5175.40527 914.85730 485
-14876.32031 5293.80322 661.23438 474
-14776.08691 5258.09863 916.35010 486
-14814.34863 5374.16748 657.08221 474
-14719.16113 5341.17139 912.46637 486
-14754.77441 5459.31543 659.53925 474
-14658.23145 5422.50342 911.65497 486
-14699.39941 5540.91797 655.45374 475
-14601.63184 5506.47754 909.07581 487
-14638.73047 5622.36475 655.52002 475
-14545.72852 5584.09180 912.13574 487
-14582.09961 5701.75342 657.27417 475
-14488.69824 5665.03320 908.89966 488
-14521.05957 5783.78027 655.93170 476
-14431.33691 5745.72754 905.68652 488
-14466.37695 5866.21680 654.04138 476
-14372.15234 5827.25830 908.26154 488
-14405.84668 5945.05371 655.42639 476
-14314.01758 5908.94678 906.09351 489
-14348.91016 6027.45605 653.30560 477
-14259.99609 5986.78662 906.29767 489
-14292.08984 6103.75537 651.94934 477
-14202.13672 6067.83643 903.88007 489
-14874.17578 6349.86475 1208.09375 480
-14913.63965 6370.84619 1479.91345 404
-38693.08203 16751.34766 -8248.39355 1000
-14234.99707 6185.81006 653.17249 477
-14143.83203 6146.69287 901.31445 490
-14794.18066 6424.29395 1203.05127 481
-14836.20605 6442.59766 1474.43848 404
-14178.15625 6264.93750 649.06586 478
-14088.13477 6225.03076 900.32471 490
-14716.59961 6499.12695 1202.28369 481
-14757.33105 6517.47070 1471.81091 405
-14118.69727 6342.48730 649.96271 478
-14030.06641 6305.37402 902.04803 490
-14641.89453 6578.10596 1200.86804 482
-14675.21680 6593.74072 1466.51379 405
-14062.84180 6423.91992 648.82507 478
-13976.25293 6383.96729 901.05341 491
-14564.78320 6653.16895 1198.19727 483
-14600.22266 6666.36768 1462.42310 405
-14004.58008 6503.86230 650.81421 479
-13920.95117 6462.21533 899.72015 491
-14490.04004 6726.68896 1195.42944 483
-14521.27246 6739.89893 1461.39233 406
-13949.22266 6579.95850 650.42480 479
-13862.45312 6541.84766 899.30908 491
-14415.41309 6798.93506 1192.90869 484
-14443.35449 6810.83789 1457.66748 406
-13892.52344 6658.70215 648.22119 479
-13810.42578 6618.19580 895.84387 491
-14341.07031 6873.40430 1188.73657 484
-14368.62891 6886.13916 1453.03113 407
-13838.62891 6740.43262 648.49384 479
-13754.17773 6696.83350 896.07898 492
-14269.60449 6945.32227 1186.67151 495
-14291.53027 6959.53223 1451.73572 414
-13781.31543 6818.04053 648.80365 480
-13698.41992 6775.46826 893.97815 492
-14212.96582 7026.51123 1185.24646 496
-14234.79590 7038.89014 1449.62524 415
-13727.25293 6893.57910 645.56171 480
-13640.70605 6852.39795 896.13293 492
-14153.20996 7107.70166 1183.06104 496
-14176.12402 7118.87061 1450.71704 415
-13667.07324 6972.57959 645.17224 480
-13585.57324 6932.14111 895.43817 492
-14093.20020 7186.29639 1182.67969 496
-14117.87793 7197.05029 1445.36682 415
-13611.20898 7050.21924 645.20844 480
-13533.24805 7008.68359 892.02832 493
-14035.90234 7265.87158 1183.28113 496
-14057.92578 7278.32324 1446.08337 415
-13556.48633 7126.12988 644.46155 481
-13477.32812 7085.42871 891.36438 493
-13976.01562 7347.19922 1182.57031 497
-13996.42676 7354.95703 1444.15295 415
-13500.44434 7206.48438 642.93481 481
-13421.49512 7162.10303 894.44537 493
-13920.62402 7428.37891 1180.32300 497
-13938.16992 7436.97021 1445.11560 415
-13447.02148 7282.14355 643.48206 481
-13365.80762 7237.74512 892.98456 493
-13860.48633 7507.36523 1181.66516 497
-13879.96973 7515.51318 1441.58569 416
-13390.13672 7360.05176 644.59808 481
-13311.48730 7316.22949 892.20416 493
-13743.94141 7552.19775 1173.78308 393
-13820.42285 7596.78418 1442.03430 416
-13334.86719 7438.09424 642.39227 481
-13257.61035 7394.39062 888.72644 494
-13688.29492 7634.06055 1175.33704 390
-13763.88672 7671.79199 1440.10669 416
-13278.88379 7516.24463 643.92352 481
-13201.02148 7470.28613 890.53326 494
-13632.48438 7713.50537 1171.38916 390
-13705.68555 7752.56201 1437.77332 416
-13221.89160 7591.13184 641.66357 482
-13145.20410 7546.55273 890.37091 494
-13575.22266 7791.24414 1171.69080 390
-13644.49414 7829.33740 1438.08838 416
-13786.62891 7909.41309 1715.69507 413
-13820.31445 7932.33984 1985.73682 367
-13167.74414 7667.07227 643.55396 482
-13091.33887 7624.06445 890.29395 494
-13573.47754 7899.55908 1176.49573 498
-13586.14551 7910.92920 1437.87329 416
-13721.81543 7985.53467 1711.50513 485
-13707.66406 7979.98340 1975.72449 368
-13112.44824 7743.36377 644.53381 482
-13035.89062 7700.90967 888.86945 494
-13515.26172 7979.00293 1176.84485 498
-13531.89551 7987.42041 1434.95020 416
-13526.43066 7986.44482 1698.18713 442
-13059.04395 7823.22168 644.14679 482
-12982.45801 7775.71729 887.71881 494
-13423.30273 8037.92871 1172.37500 444
-13415.12988 8034.90039 1430.00952 444
-13408.62988 8027.30176 1689.14832 443
-13000.32617 7898.23096 641.43091 482
-12928.35352 7854.59375 889.60529 494
-13305.08008 8081.75488 1165.63892 445
-13299.15332 8075.63281 1424.39075 445
-13292.12305 8073.52393 1679.76746 444
-12948.44629 7973.53027 643.01715 482
-12874.58008 7930.91748 885.85114 495
-13190.65723 8121.98096 1161.62024 446
-13185.29492 8117.59033 1418.50647 445
-13177.38184 8112.72998 1672.88818 445
-12893.66406 8051.42676 640.97198 482
-12820.13672 8003.17969 889.15070 495
-13103.02539 8181.89844 1159.56970 499
-13095.70020 8176.63916 1413.63354 498
-13089.57910 8171.32617 1670.70764 498
-13315.24219 8309.77246 1958.71411 452
-12839.39941 8127.16797 641.63348 482
-12763.33691 8081.97363 885.48505 495
-13047.55762 8258.31836 1157.77063 499
-13037.93359 8252.10059 1415.05469 499
-13032.69336 8249.09180 1667.40784 498
-13255.22559 8389.02441 1957.82654 452
-13698.66504 8667.38867 2287.41455 409
-13689.96973 8662.63184 2554.98047 408
-13679.78516 8654.21777 2826.45728 408
-13676.76074 8651.17188 3098.87646 483
-13667.49219 8645.27539 3374.73291 483
-12783.95703 8204.49609 639.33459 483
-12708.73926 8156.99951 888.53729 495
-12989.80078 8335.22949 1157.25574 499
-12955.40527 8312.28906 1410.82019 499
-12975.38672 8323.32910 1665.64648 498
-13139.26172 8430.10840 1948.92456 490
-13130.10742 8422.30078 2204.19507 490
-13125.13086 8420.07520 2465.67041 386
-13120.02148 8415.60449 2726.33789 386
-12727.52637 8277.87109 640.63818 483
-12654.89453 8233.44531 885.95093 495
-12932.52637 8408.61133 1157.91882 499
-12899.21875 8390.88477 1408.14441 499
-12918.19141 8401.98633 1665.54675 499
-13140.70410 8542.28711 1953.04724 453
-13211.86523 8588.54785 2228.41162 485
-12671.68848 8353.28418 642.91302 483
-12603.29590 8307.08203 888.20972 495
-12875.72461 8489.52637 1157.06372 499
-12843.21777 8468.39551 1408.27551 499
-12862.29688 8480.00098 1666.35437 499
-13084.37988 8624.20508 1951.66980 453
-13153.96289 8669.20117 2228.11084 485
-12617.04785 8432.53809 642.74005 483
-12549.52734 8385.80176 886.85107 495
-12819.58398 8564.29590 1155.55920 499
-12790.17871 8546.04297 1408.55188 499
-12808.58301 8556.17578 1665.08911 499
-13025.94727 8701.19141 1954.08350 453
-13096.45215 8746.46777 2226.67407 485
-12562.57715 8505.25000 641.95032 483
-12493.70996 8462.06738 884.94299 495
-12762.85645 8639.88086 1158.94873 499
-12732.16895 8621.27637 1408.31824 499
-12750.47656 8632.53809 1667.26318 499
-12968.62598 8776.55664 1951.34363 470
-13037.88379 8824.46484 2226.01050 485
-12508.21973 8581.29883 640.46753 483
-12439.08105 8534.32129 887.16333 495
-12708.48730 8719.60352 1154.81738 499
-12676.89160 8695.34375 1406.70166 499
-12695.03613 8710.57617 1664.13184 499
-12909.43066 8856.09766 1952.74670 470
-12453.84082 8660.73047 642.39526 483
-12385.64648 8612.89551 885.71826 495
-12654.25098 8793.83594 1154.77551 499
-12620.82031 8775.87012 1407.05981 499
-12639.23535 8784.73438 1663.78894 499
-12853.06934 8932.52246 1950.18018 470
-12398.66309 8736.85840 641.68982 483
-12330.06445 8685.83398 886.86890 495
-12595.58008 8874.17090 1157.72388 499
-12590.88867 8867.23828 1408.70032 499
-12581.68066 8859.83105 1663.97021 499
-12795.89355 9008.73438 1949.55481 472
-12345.04980 8809.15527 639.73376 483
-12278.55371 8765.03223 884.61560 495
-12536.80762 8949.37988 1155.86304 499
-12530.62012 8945.28906 1409.03406 499
-12526.92871 8937.69434 1666.36707 499
-12736.61426 9089.71484 1952.77283 472
-12288.99512 8886.47363 641.45892 483
-12223.80664 8838.87891 885.15137 495
-12484.31348 9024.44727 1156.48694 499
-12474.52344 9020.80078 1409.10217 499
-12470.33594 9013.87305 1662.94128 499
-12678.70508 9168.17480 1950.52234 468
-12233.18359 8960.27051 640.95685 483
-12170.01758 8913.20215 884.73633 495
-12426.28809 9104.06250 1156.61499 499
-12418.97852 9098.41699 1410.20276 499
-12411.94238 9092.30176 1666.10913 499
-12625.95996 9246.12793 1950.68677 468
-12180.60352 9037.27539 638.79260 483
-12113.01074 8992.15918 887.16254 495
-12369.77148 9179.61719 1157.45837 499
-12362.87402 9175.45898 1409.25293 499
-12358.29297 9169.17090 1663.42029 499
-12566.73438 9323.93457 1948.92053 468
-12124.27344 9114.20215 638.61774 483
-12061.64844 9064.54199 886.60895 495
-12314.38477 9255.83594 1157.31042 499
-12308.79883 9251.59766 1410.89221 499
-12303.19434 9245.06543 1665.46655 499
-12509.93945 9402.59473 1950.13379 468
-12071.25879 9191.74512 640.01086 483
-12007.11621 9140.22852 888.63409 495
-12256.04004 9333.48535 1157.18823 499
-12253.84863 9327.44238 1408.74841 499
-12246.96484 9323.35352 1666.24414 499
-12456.24316 9477.81836 1951.03479 468
-12014.50098 9267.36523 640.18976 483
-11950.82520 9216.86523 887.46490 495
-12233.38379 9434.60449 1160.79382 478
-12237.52344 9435.64258 1413.53613 458
-12228.60742 9427.77637 1668.93274 458
-12421.47168 9578.27930 1956.58447 449
-11960.12988 9339.62500 642.12207 483
-11899.17383 9293.71191 888.96436 495
-12203.28711 9530.73145 1160.65796 477
-12227.86914 9550.27539 1421.91528 457
-12219.28223 9544.87207 1677.82690 457
-12387.75293 9675.61328 1957.34241 448
-11904.80176 9417.93945 642.45044 483
-11845.44336 9369.20020 888.72498 495
-12172.61328 9630.61816 1165.60486 477
-12209.92188 9656.94824 1425.44836 476
-12220.08008 9663.03516 1683.32629 346
-11849.99805 9495.25781 641.84302 483
-11790.56738 9443.73730 889.34528 495
-12147.21387 9726.13965 1166.21387 476
-12183.22168 9755.50684 1429.30823 475
-12232.90234 9797.35254 1692.48181 451
-1714.59961 1456.17932 95.56168 442
-1717.64661 1458.99414 133.74792 451
-11795.61328 9567.78418 643.41241 483
-11735.41113 9520.69043 886.55389 495
-12116.57129 9827.11328 1171.03748 476
-12151.81445 9857.12402 1431.15869 475
-1777.23706 1448.56238 -36.07040 490
-1709.19556 1470.43774 133.24434 447
-11738.23633 9644.14062 642.75348 483
-11679.09277 9595.48633 889.29364 495
-12082.76855 9924.79102 1169.80688 475
-11684.10156 9721.76465 640.31213 482
-11625.36035 9674.42871 886.35712 495
-12053.81445 10023.75000 1175.72144 475
-11631.02539 9798.47754 640.58081 482
-11571.33691 9748.07031 889.81769 495
-12016.62109 10118.11621 1177.21924 444
-11574.23145 9874.99414 642.34778 482
-11517.83984 9824.49414 890.79254 497
-1635.18298 1482.07263 58.30650 499
-11520.75195 9951.73633 641.45197 482
-11464.05957 9902.86328 889.34821 497
-11465.19629 10026.01074 641.34711 482
-11408.94824 9978.24219 891.55585 497
-11407.45801 10101.80273 642.64148 482
-11354.45508 10055.23828 890.12543 497
-11352.92773 10180.88379 642.12280 482
-11297.38867 10130.96191 890.06885 496
-11299.43652 10257.55664 642.04791 482
-11245.42969 10208.56152 891.92963 496
-11243.68750 10332.99316 642.52179 481
-11190.91211 10284.34766 891.78003 496
-11187.16406 10408.78320 644.20667 481
-11132.23242 10362.28809 892.69470 496
-11132.25488 10487.76465 644.37726 481
-11079.64844 10436.84961 890.98846 496
-11074.14160 10563.26465 643.10382 489
-11024.83301 10515.26270 891.79810 495
-11021.30176 10641.12988 646.16705 489
-10966.37891 10592.58691 892.48529 495
-10962.07422 10718.53320 647.49603 488
-10914.28320 10671.87988 896.28680 495
-10906.06836 10797.20117 648.20905 488
-10856.61816 10746.55469 895.27637 495
-10849.54883 10874.88574 644.93896 488
-10800.87793 10825.48340 897.48303 495
-10793.90527 10951.96094 647.03430 488
-10746.51270 10904.00586 895.50983 494
-10740.60645 11032.23242 646.17383 487
-10691.26270 10978.60352 897.65076 494
-10681.34082 11108.81641 649.67334 487
-10633.85156 11056.27148 900.38104 494
-10626.36426 11187.98633 647.82983 487
-10577.21289 11136.47656 901.12177 493
-10571.16016 11268.08594 651.93958 487
-10521.16211 11216.45703 900.67828 493
-10513.11426 11346.40039 651.00140 486
-10467.27832 11292.29004 902.42896 493
-10455.65234 11423.88965 650.53699 486
-10410.91602 11374.56641 902.24341 493
-10401.33789 11503.17871 651.71606 486
-10354.92969 11453.29980 904.49377 492
-10343.14551 11583.95605 654.55621 485
-10296.10645 11532.11914 904.74023 492
-10286.42676 11661.31738 651.91400 485
-10238.34277 11610.39746 905.91559 492
-10227.39551 11739.78223 653.46509 485
-10181.07129 11691.58008 906.17365 491
-10167.92188 11822.20801 656.04254 484
-10126.99707 11771.85059 908.62708 491
-10110.31055 11901.14258 657.06409 484
-10068.53516 11852.18457 909.52228 491
-10056.58398 11982.73047 657.60779 484
-10012.63867 11931.74805 911.17200 490
-9997.33398 12064.19727 656.35834 483
-9951.14453 12013.03613 910.76666 490
-9937.42090 12141.66602 658.07629 483
-9894.33398 12093.80664 914.42084 489
-9882.05762 12230.20605 659.71045 463
-9835.68555 12175.08984 915.37897 489
-9831.92090 12319.63770 660.47888 463
-9778.86816 12257.42480 915.70007 486
-9782.46582 12416.39160 663.34399 462
-9725.80762 12345.25195 918.98273 486
-9731.77930 12507.20020 664.25867 463
-9669.19238 12428.75586 918.15948 485
-9682.30469 12604.80273 663.38684 462
-9615.71094 12514.26172 919.44220 485
-9632.40723 12698.13379 663.38446 462
-9561.94727 12610.90430 922.31287 468
-9583.56348 12793.10254 667.41638 461
-9513.40918 12705.30664 926.10541 467
-9529.17480 12892.02930 667.00201 460
-9464.34570 12802.65234 925.01569 467
-9486.62598 12996.74121 672.87805 419
-9416.82227 12900.61328 931.04407 467
-9449.26172 13117.82129 672.53809 418
-9368.65332 13006.12695 930.75513 466
-9413.10938 13239.99023 677.86920 417
-9323.18945 13110.08301 936.56335 465
-9381.29004 13364.24414 679.45813 395
-9274.96289 13210.70801 938.67639 464
-9355.76270 13499.34473 683.30219 394
-9223.54492 13318.13770 939.96887 464
-9331.50098 13647.43164 683.35602 367
-9178.07812 13420.21973 944.20850 407
-9318.90039 13808.62598 689.17261 366
-9143.17676 13548.38867 948.83252 406
-9342.19141 14028.28418 697.22571 273
-9111.41797 13682.93555 953.26324 406
-9090.70020 13832.92188 956.06531 405
-9067.82520 13989.57910 964.68719 404
-9049.41699 14141.54492 968.61835 403
-9057.53906 14355.19922 976.22534 317
-18799.67383 29629.33594 5955.38037 1000
44.89847 284.70374 155.90131 1000
-110.75812 2270.36646 95.82961 342
-95.34544 2252.75562 96.01660 395
-83.88827 2285.59619 58.11967 357
-80.21185 2238.41772 96.41591 396
-64.73804 2219.30396 60.11793 361
-65.00600 2224.46924 96.53566 397
-54.24686 2264.08130 21.37560 311
-50.09105 2201.20361 60.51168 362
-51.24242 2215.27026 96.46207 374
-38.55450 2234.60376 22.97833 409
-35.80794 2187.26294 61.51162 419
-36.88744 2207.64893 96.58494 373
-23.73001 2219.65552 23.56006 408
-21.50829 2173.51147 61.61279 420
-22.73792 2201.93140 96.68486 315
-9.96196 2204.02954 24.77497 409
-7.70871 2163.15527 62.06813 443
-8.95707 2195.72339 97.03625 325
4.65346 2192.04492 25.23381 439
6.02798 2153.52490 62.61364 449
-0.79560 2323.60474 95.11097 476
17.85112 2181.63989 25.99597 439
19.60420 2144.65112 62.36251 450
13.20691 2324.32959 94.86181 478
32.11858 2171.31738 26.34594 440
33.15211 2135.64868 63.15078 451
27.52204 2327.23975 94.86460 381
45.26189 2161.87573 26.95948 442
46.20715 2127.45044 63.33431 461
41.85740 2330.81030 94.77433 385
58.75827 2152.49658 26.96132 448
59.12987 2119.37231 63.64412 462
55.77275 2334.89233 94.73589 330
72.22233 2137.37183 27.59162 304
72.57670 2112.39453 63.45938 443
70.70219 2338.59448 94.64908 328
-33.39154 47644.76953 -3759.42725 1000
85.18280 2120.76611 28.85204 305
85.12606 2105.97437 64.08194 444
84.49315 2341.48389 94.77861 330
98.01593 2104.50708 29.69361 305
98.25600 2099.52734 64.31958 444
110.80835 2094.44067 30.23030 400
111.18236 2092.76270 64.48383 445
123.56898 2086.54810 30.57361 409
123.91730 2087.06201 64.54385 450
125.03288 2165.40210 97.60841 484
136.24246 2079.10083 30.58438 410
136.53233 2081.09790 64.56718 451
137.79141 2159.91260 97.44075 484
148.99486 2071.23413 31.19773 410
149.06342 2075.77905 64.58128 451
151.28448 2155.11230 97.43829 485
153.80081 2245.09766 132.61804 297
161.18019 2063.99268 31.46880 415
161.37366 2070.87500 64.79721 391
164.44695 2149.98511 97.64693 485
168.64215 2276.78906 132.89404 455
173.66719 2056.93774 31.52752 415
173.92319 2066.61768 64.88757 390
177.93996 2168.03369 97.29491 319
186.05551 2051.08984 31.86386 479
186.50546 2063.13867 65.40854 390
191.34375 2162.41919 97.25925 419
198.49817 2045.35168 32.22057 479
199.28271 2059.26172 65.18880 390
208.33505 2240.27124 96.10210 317
210.53896 2040.63928 32.52559 484
211.58263 2055.54224 65.36677 390
223.16226 2035.70032 32.37468 485
223.78925 2051.48218 65.47817 390
234.87276 2030.86780 32.75191 485
236.14328 2046.99512 65.52956 390
241.65443 2124.55908 98.00523 307
246.95436 2026.15393 32.70351 486
248.53105 2043.25598 65.65951 390
254.28928 2115.22705 98.16338 434
259.47235 2021.11023 33.27514 486
260.92651 2038.13684 65.66607 427
266.74313 2108.17432 98.05721 489
271.65695 2016.61597 33.55330 487
273.21768 2034.61926 65.68375 441
279.55075 2108.97754 98.31814 319
282.63989 2145.58667 203.42941 369
283.47644 2011.87976 33.65650 487
285.12112 2031.14587 66.13613 441
296.29254 2148.80884 97.58276 420
297.19916 2157.80469 132.45091 490
297.64386 2160.80396 168.50093 310
295.39200 2133.84668 203.15112 463
295.29544 2006.91895 33.42390 487
297.27271 2027.49585 65.75400 441
309.31122 2141.82495 132.75024 490
308.01318 2131.60669 202.83585 498
307.51602 2002.42859 33.70432 488
309.66061 2026.04077 65.85239 301
321.93085 2136.61499 203.32930 465
319.32062 1997.42236 33.95694 488
322.35394 2023.69421 65.94631 301
333.31985 2123.86865 202.64069 426
333.23346 2122.41650 237.60913 426
331.05026 1992.95105 33.96996 489
334.41681 2020.98096 65.80439 301
342.64456 1988.02502 34.16173 489
374.34082 2237.76025 58.68493 465
349.30426 2039.86475 99.07828 492
354.43530 1983.59070 34.18937 489
359.00644 2015.73804 65.93120 264
361.64209 2035.03760 99.33041 492
366.48355 1979.01135 34.53542 490
375.36203 2041.94580 65.39391 332
373.61627 2032.93079 99.35917 300
378.05087 1974.30310 34.91956 490
414.44955 2222.77954 59.19942 466
394.89648 2090.57837 98.00092 306
389.58679 1969.48560 34.64488 492
427.42593 2218.37378 59.07043 466
416.31519 2145.42871 96.91244 304
401.33063 1965.11243 34.79145 492
438.37177 2197.28174 59.96214 493
437.74411 2196.74097 96.33801 337
412.75494 1960.72937 34.83862 492
453.47559 2208.42432 59.65815 466
424.43814 1956.51672 35.37148 493
466.95282 2203.65015 59.74102 467
435.86508 1952.08301 35.27266 493
448.36758 2019.97803 65.72614 494
453.54199 1980.41174 0.87160 451
447.45615 1947.34851 35.20403 493
469.71338 2067.39136 63.69560 288
461.78381 2025.09277 199.90614 406
465.19519 1975.58521 0.55451 451
459.16190 1943.06348 35.32494 494
506.16995 2189.97534 59.50928 383
478.17114 2043.92932 200.82306 296
476.94266 1970.87036 1.00449 451
470.49387 1938.86768 35.40033 494
519.29462 2185.26880 59.60689 383
504.42902 2111.97412 203.05464 446
488.31567 1965.97241 1.29698 452
481.82697 1934.37012 35.43124 494
531.98438 2181.33618 59.49735 383
499.81900 1961.34021 1.47823 452
493.41971 1930.02649 35.89729 494
545.29688 2176.91724 59.57314 383
511.55908 1956.04456 1.27270 452
504.79230 1925.14612 36.00832 495
558.21576 2172.10449 59.89092 384
522.74292 1951.42786 1.74917 452
516.15790 1920.95166 35.65068 495
570.85248 2168.15332 60.18969 384
534.36572 1946.48987 1.93555 452
527.41119 1916.63855 35.73138 495
583.84570 2163.51440 60.15218 384
545.94708 1941.75220 1.61042 453
538.87213 1912.40271 35.80642 495
597.31488 2159.61646 59.86008 384
556.70850 1935.09497 2.18978 324
550.37402 1907.78992 36.18986 496
609.85736 2155.21436 60.00987 384
8645.82617 34509.89844 -8151.98340 1000
568.11951 1928.88110 2.20281 324
561.42584 1903.82959 36.26584 496
622.93799 2150.95435 60.02655 384
579.21686 1923.33813 2.42290 324
572.85107 1899.06287 36.46305 496
635.87164 2146.47729 60.38226 384
590.25085 1917.56238 2.78612 324
583.97229 1894.89136 36.26849 496
648.86029 2142.11450 59.80477 384
601.07410 1911.77258 2.97095 324
595.45721 1890.78870 36.61012 496
661.56622 2137.87891 60.10070 384
611.90851 1906.24219 2.99057 324
606.76428 1886.27625 36.50826 496
674.67407 2133.37915 60.16739 329
623.38153 1900.32263 3.19125 324
618.02808 1882.09729 36.68673 497
655.97546 2017.14978 63.68988 498
655.99475 2016.82141 98.49468 498
633.93787 1894.99292 3.14986 324
629.38989 1877.82947 36.51354 497
680.71991 2057.55786 62.29156 354
645.18750 1889.16638 3.52095 327
640.35449 1873.82458 36.47259 493
713.72260 2122.13525 59.84966 329
659.10236 1894.48865 2.64703 327
653.01495 1872.84424 36.16055 466
726.45374 2118.79834 60.31514 329
665.38861 1872.66516 36.43039 466
677.37720 1871.92932 36.20077 465
690.29370 1871.61414 36.12707 465
702.97809 1872.47534 35.48435 396
789.42694 2092.46680 24.31506 468
13146.45605 34081.69531 -2857.20190 1000
23639.54102 24932.77930 -981.83447 1000
994.15790 792.76874 -26.03481 426
997.95135 796.26013 -6.53602 363
995.59265 784.20673 -25.44652 496
998.47406 786.64148 -5.87402 472
1001.63446 789.23645 13.53380 472
1004.31262 791.72375 33.37167 466
1008.05072 794.85229 52.82374 359
1000.22559 778.21466 -25.60975 496
1002.75885 780.48407 -5.94174 496
1005.31635 782.56964 13.77107 496
1007.58203 784.74554 33.56260 497
1010.50299 786.97400 53.22792 495
1006.75787 774.21912 -25.76902 471
1009.51654 776.41583 -6.38346 471
1012.87512 779.13574 13.43296 424
1016.25470 781.98132 33.05416 414
1018.09491 773.90826 -26.99519 361
28239.94141 18954.17773 8049.56982 1000
3244.68335 1077.20679 296.18219 1000
3956.94604 858.13580 -62.38746 442
3974.69458 836.39899 -63.54404 445
3992.69385 815.87488 -63.75377 446
4011.93115 794.26721 -64.71684 444
4033.23560 773.24634 -65.52697 448
4053.81763 752.22516 -66.68539 447
4076.27954 731.40643 -67.61285 430
4103.33643 710.47314 -67.96336 426
4132.17969 690.34369 -69.84898 423
4162.77246 669.78906 -71.64032 408
4202.00049 650.26135 -73.39022 389
4254.47510 632.26440 -75.70250 359
4304.98682 613.66321 -78.11607 358
1217.72388 157.65009 -18.05435 1000
4362.59180 594.84387 -79.86549 357
4421.17969 576.11694 -82.88542 355
4485.60059 556.84271 -86.51964 354
4559.29590 538.89716 -89.64043 347
21124.02148 1229.24548 -560.98724 1000
2785.88306 58.49194 -89.46488 458
2794.17847 58.37524 -45.23541 335
2787.19897 41.71777 -89.60741 443
2799.98950 42.28971 -45.69926 378
3757.09741 -578.94696 -111.92450 268
3743.50586 -599.34131 -111.72301 441
4701.55811 -991.52222 -101.12999 356
4652.73828 -1010.69092 -97.78092 477
4634.13721 -1035.68848 -98.31479 476
4616.18115 -1060.82861 -97.14230 480
4600.01709 -1086.58472 -96.92008 464
4584.87305 -1112.01270 -95.98205 432
4572.53516 -1138.58472 -96.33270 437
4560.09912 -1163.78186 -96.13828 411
4548.44531 -1190.42676 -95.01932 415
51883.00000 -13834.32617 3635.11108 1000
4536.61377 -1216.21130 -95.60992 362
4527.07666 -1243.28210 -95.59203 362
4641.08008 -1274.46362 -23.50002 312
4616.48389 -1268.73840 54.10286 284
4519.13037 -1270.43408 -95.45477 362
4539.46875 -1276.31091 -20.12054 491
4547.56396 -1277.94641 55.65279 427
4518.84180 -1299.28442 -95.77696 499
4520.44043 -1300.38037 -19.33087 499
4537.10645 -1304.58142 55.60931 414
4510.50049 -1326.89807 -95.66441 499
4512.10303 -1327.39502 -20.43635 499
4527.71484 -1332.51904 55.78434 414
4501.51807 -1354.22986 -95.49832 499
4502.81836 -1353.61121 -19.80486 499
4520.12402 -1358.79285 55.02174 414
4492.49854 -1379.88440 -95.46138 499
4488.89795 -1378.77234 -19.51026 499
4496.53564 -1381.69946 56.02936 499
4504.92480 -1384.08301 130.58072 481
4735.50635 -1456.77197 211.13452 481
4484.04248 -1407.86560 -95.29154 499
4481.07910 -1405.94678 -19.16922 499
4502.29297 -1413.89136 56.01475 428
4475.87207 -1434.98035 -95.19060 499
4472.45605 -1433.54456 -19.40991 499
4493.77197 -1440.18811 54.92088 428
4467.42285 -1461.81165 -95.59743 499
4468.09082 -1461.55322 -20.01163 499
4485.65088 -1467.34436 55.89026 428
4458.56152 -1488.45789 -95.92483 499
4460.85693 -1489.21313 -20.00730 499
4475.79443 -1493.87573 55.59188 414
4449.67529 -1515.22327 -95.58295 499
4452.32373 -1516.69714 -20.05186 499
4465.45117 -1521.40320 55.43037 414
4441.96729 -1542.03711 -95.05540 499
4443.43311 -1543.28503 -20.41149 499
4457.70215 -1548.60266 55.98804 415
4545.63330 -1579.59546 131.37276 437
4432.94141 -1569.31824 -95.75005 499
4434.20508 -1570.07605 -20.41379 499
4449.57227 -1575.34875 55.89349 427
4535.25928 -1607.22083 130.88486 459
4430.38477 -1598.74634 -95.33561 262
4508.00977 -1627.91614 54.10222 451
4414.74805 -1623.10913 -95.85032 259
4544.11963 -1671.88440 131.90010 458
4397.65967 -1646.63147 -95.63504 259
4525.33789 -1696.52454 131.18001 376
4603.49512 -1854.45605 -107.79499 499
4345.59717 -1778.45129 -95.81509 315
4335.33447 -1805.30408 -94.98178 315
4325.66943 -1831.80554 -95.86441 315
4315.79443 -1858.04175 -95.04269 315
4305.63574 -1885.11938 -96.09309 315
4369.73047 -1945.60864 -99.66305 494
4352.15283 -1968.74512 -99.39420 493
4340.06982 -1995.12622 -99.24819 484
4528.79492 -2083.22729 -29.39033 497
4301.84814 -2008.75146 -21.60168 371
2981.56885 -2022.05444 -99.79321 494
2989.77441 -2028.00781 -41.88981 469
9987.83789 -8597.86621 2294.41553 1000
2133.68774 -1930.94434 -52.64564 363
2092.88403 -1916.35010 -50.21292 344
2084.48340 -1932.00745 -96.04678 363
2062.63647 -1910.41467 -47.93561 362
2051.14404 -1922.57654 -93.33224 367
2027.48291 -1899.53003 -46.17519 285
2076.06421 -1946.98438 -4.80020 373
2019.34143 -1915.14966 -90.62658 371
1994.36096 -1889.98450 -44.11703 326
2010.75745 -1906.93994 -1.52087 375
1988.75732 -1907.63770 -88.75127 372
1962.22388 -1881.12134 -41.74682 377
1980.44751 -1898.89062 0.50848 361
1958.93030 -1900.15576 -86.93076 374
1932.13708 -1872.97778 -40.45535 378
1951.13086 -1892.96240 1.25104 354
1929.11902 -1893.05139 -84.36649 375
1902.47583 -1865.76282 -38.39039 348
2065.37671 -2034.16528 -7.28821 462
1899.62195 -1886.40747 -82.30940 376
1873.67639 -1858.85559 -36.88446 381
2060.42212 -2053.63867 -8.06532 461
1871.38586 -1879.17578 -80.65898 370
1848.75854 -1855.25891 -35.57313 383
2054.93921 -2073.91772 -8.78933 461
1844.65051 -1873.68457 -78.58228 362
1820.30823 -1848.05566 -33.79184 384
1828.05725 -1856.53125 7.08800 387
1817.12769 -1867.03284 -76.78802 363
1793.02637 -1840.97900 -32.42150 385
1801.60986 -1850.55542 7.76034 388
1789.47400 -1860.28101 -74.69590 364
1766.41418 -1834.80151 -30.68972 396
1774.52747 -1843.47827 8.97322 389
1762.74829 -1853.38098 -72.76337 357
1742.47961 -1830.36218 -29.59553 416
1749.33875 -1838.73560 10.49791 419
1737.78076 -1848.41284 -70.85378 362
1720.51941 -1828.67444 -28.51022 428
1728.18530 -1836.78113 10.98090 426
1715.44409 -1845.94128 -69.77602 381
1700.32947 -1828.35339 -27.80870 435
1710.03796 -1839.96863 11.32196 489
1695.22607 -1844.67456 -68.28111 388
1680.48328 -1828.26917 -27.13753 445
1697.13611 -1847.31335 11.43950 485
1675.14941 -1845.02661 -67.75500 397
1661.91443 -1829.38855 -26.45687 440
1687.77661 -1859.89429 11.28544 438
1656.02283 -1845.72119 -66.76540 398
1643.83459 -1830.58887 -25.47146 448
1683.44580 -1877.73633 10.79998 437
1637.89771 -1846.86511 -65.35157 400
1625.81848 -1831.97180 -24.93585 454
1678.08923 -1894.96558 10.73972 437
1619.73694 -1848.13818 -64.88670 400
1608.33850 -1834.07336 -24.17383 453
1672.68811 -1912.72888 9.75240 438
1602.35034 -1849.75610 -63.58968 407
1591.66809 -1836.97681 -23.74473 462
1668.48743 -1930.57825 9.42519 435
1585.56628 -1852.32129 -63.49720 418
1576.04797 -1840.44336 -22.86142 467
1663.51709 -1948.84180 9.15704 434
1568.82324 -1855.12939 -62.22975 418
1560.44739 -1843.83667 -22.57316 467
1658.41577 -1967.29370 8.15009 433
1553.47046 -1858.50366 -62.28279 424
1544.94348 -1847.69971 -22.30834 468
1652.95813 -1985.77527 7.54945 433
1537.54602 -1861.93835 -61.05766 425
1529.46802 -1851.10449 -22.02781 462
1647.94910 -2004.46863 7.37582 432
1522.37146 -1865.21472 -60.63988 431
1514.03735 -1854.39001 -21.12173 464
1643.24133 -2023.11548 6.55167 431
1506.62024 -1868.35229 -60.40599 431
1499.39819 -1858.71887 -20.67058 462
1642.10669 -2047.13062 5.91301 274
1490.99963 -1871.08850 -59.51609 435
1484.22144 -1862.20447 -20.58567 465
1481.03540 -1882.56470 -59.82542 282
1470.07910 -1866.76501 -20.45414 462
1481.67725 -1907.28955 -61.29270 282
1455.81055 -1871.52344 -19.75248 464
1441.79529 -1876.73315 -19.63050 460
1427.49939 -1880.62537 -19.02043 460
4783.25391 -22435.77148 -3672.65894 1000
-360.36069 -2488.43530 5.97881 453
-359.91855 -2487.23267 47.63005 488
-359.86536 -2485.87231 89.20085 488
-359.61832 -2485.77246 130.40953 499
-359.53461 -2484.99927 171.49429 486
-359.80804 -2484.96509 212.89427 486
-12120.71387 -50793.50391 -3319.87378 1000
-690.55652 -1850.93457 -0.57211 481
-690.06738 -1850.04163 32.40249 481
-689.75159 -1849.26196 65.40765 499
-689.68628 -1848.58728 98.18758 492
-689.22852 -1848.48938 130.84148 492
-689.56287 -1848.69348 163.83177 461
-689.93463 -1849.38660 196.68997 409
-31291.60352 -59176.66016 14576.22852 1000
-45026.78906 -25356.86523 10426.96582 1000
-3853.32739 -2033.88171 131.34618 339
-3863.60571 -2008.37524 130.93552 383
-3227.35645 -1660.67383 131.64456 444
-2608.62695 -1310.38159 81.80007 462
-2614.50537 -1313.22314 131.77704 411
-2618.47583 -1294.70959 82.32794 439
-31817.00586 -13777.24512 1269.73010 1000
90.12199 -2.98544 127.56219 373
90.12128 -2.98684 127.80950 374
90.12283 -2.98578 128.05727 374
90.12084 -2.98573 128.30092 375
89.36462 -3.17711 128.38567 298
90.22569 -2.88336 127.58041 374
90.22440 -2.88427 127.82611 375
90.22504 -2.88311 128.07147 375
90.22302 -2.88394 128.31400 376
89.40911 -3.08505 128.38690 298
88.05575 -3.41859 128.38536 294
90.32576 -2.78238 127.59702 376
90.32558 -2.78160 127.84081 376
90.32703 -2.78067 128.08481 377
90.32624 -2.78188 128.32640 377
89.45298 -2.99004 128.38666 298
88.10094 -3.31621 128.38525 294
90.42643 -2.68168 127.61274 377
90.42793 -2.68098 127.85555 378
90.42739 -2.68155 128.09927 378
90.42619 -2.68060 128.33821 378
89.49921 -2.89661 128.38766 298
88.14396 -3.21323 128.38689 294
90.52573 -2.58141 127.62749 378
90.52739 -2.58257 127.87039 379
90.52673 -2.58132 128.11028 379
90.52691 -2.58050 128.34991 380
89.54379 -2.80356 128.38788 298
88.18947 -3.11262 128.38737 294
90.62582 -2.48365 127.64314 379
90.62424 -2.48328 127.88366 380
90.62409 -2.48373 128.12381 381
90.62511 -2.48313 128.36151 381
89.59107 -2.71078 128.38531 298
88.23725 -3.00923 128.38797 294
90.72314 -2.38474 127.65833 381
90.72123 -2.38633 127.89849 381
90.72149 -2.38449 128.13560 382
90.72126 -2.38553 128.37234 382
89.63905 -2.61718 128.38631 298
88.28385 -2.90911 128.38728 294
90.81760 -2.28890 127.67215 382
90.81783 -2.28842 127.91033 383
90.81778 -2.28903 128.14853 383
90.81793 -2.28806 128.38205 384
89.68629 -2.52622 128.38666 298
88.33186 -2.80616 128.38776 294
90.91275 -2.19422 127.68439 383
90.91399 -2.19340 127.92287 384
90.91315 -2.19389 128.16017 384
90.88413 -2.20007 128.38695 302
89.73325 -2.43024 128.38728 298
88.37730 -2.70542 128.38791 294
86.75513 -3.02989 128.38812 290
91.00787 -2.09867 127.69848 384
91.00851 -2.09902 127.93453 385
91.00780 -2.10050 128.17076 386
90.93217 -2.11466 128.38742 302
89.78330 -2.33957 128.38600 298
88.42747 -2.60311 128.38533 294
86.80472 -2.91776 128.38475 290
91.10267 -2.00638 127.70988 386
91.10178 -2.00528 127.94569 386
91.10048 -2.00700 128.18115 387
90.98144 -2.02879 128.38783 302
89.83202 -2.24411 128.38792 298
88.47612 -2.50049 128.38626 294
86.85503 -2.80638 128.38608 290
91.19528 -1.91322 127.72288 387
91.19365 -1.91486 127.95732 387
91.19352 -1.91497 128.19119 388
-9.90502 -1.80471 -2.17425 302
89.88379 -2.15301 128.38631 298
88.52815 -2.40093 128.38666 294
86.90273 -2.69491 128.38707 290
91.28633 -1.82276 127.73515 388
91.28452 -1.82280 127.96886 389
91.28571 -1.82281 128.20125 389
91.08320 -1.85891 128.38730 302
89.93308 -2.06040 128.38580 298
88.57739 -2.29796 128.38503 294
86.95377 -2.58292 128.38597 290
91.35696 -1.73441 127.74070 469
91.35524 -1.73350 127.97336 470
91.35621 -1.73451 128.20644 471
91.13405 -1.77259 128.38617 302
89.98429 -1.96595 128.38658 298
88.17585 -2.27365 128.30304 352
87.00627 -2.47444 128.38722 290
91.37752 -1.65668 127.73444 470
91.37812 -1.65718 127.96774 471
91.37640 -1.65496 128.19925 471
91.18615 -1.68671 128.38725 302
90.03523 -1.87437 128.38715 298
87.95377 -2.21676 128.25137 351
87.05748 -2.36258 128.38698 290
91.39902 -1.57626 127.72488 470
91.39761 -1.57712 127.95964 471
91.39754 -1.57683 128.19138 472
91.23719 -1.60272 128.38661 302
90.08934 -1.78178 128.38768 298
87.72292 -2.15197 128.20084 349
87.11025 -2.25150 128.38707 290
91.42112 -1.49671 127.71643 471
91.42045 -1.49871 127.95069 472
91.41848 -1.49752 128.18504 473
91.29129 -1.51740 128.38641 302
90.14236 -1.69050 128.38695 298
87.48576 -2.09115 128.14861 348
87.16286 -2.13929 128.38667 290
91.44221 -1.41708 127.70865 471
-12.51387 -1.80662 -3.16677 472
91.44203 -1.41723 128.17657 473
91.34317 -1.43233 128.38734 302
90.19456 -1.59651 128.38536 298
87.24167 -2.02626 128.09280 346
87.21651 -2.02750 128.38522 290
91.46237 -1.33730 127.70160 472
91.46221 -1.33884 127.93671 473
91.46153 -1.33786 128.16830 474
91.39922 -1.34620 128.38731 302
90.25064 -1.50629 128.38698 298
87.09360 -1.94312 128.05673 446
87.09169 -1.94358 128.35524 446
91.48281 -1.25746 127.69425 473
91.48305 -1.25735 127.92977 474
91.48293 -1.25903 128.16208 474
91.45174 -1.26331 128.38718 302
90.30346 -1.41290 128.38776 298
87.00073 -1.85071 128.02974 445
86.99973 -1.84847 128.33374 445
91.50629 -1.17749 127.68532 473
91.50434 -1.17811 127.91997 474
91.50499 -1.17790 128.15465 475
91.50604 -1.17704 128.38676 476
90.36008 -1.32148 128.38657 298
86.90448 -1.75622 128.00301 444
86.90596 -1.75509 128.30608 444
91.52712 -1.09803 127.67647 474
91.52822 -1.09693 127.91345 475
91.52718 -1.09880 128.14777 476
91.52766 -1.09665 128.37819 476
90.41588 -1.23005 128.38663 298
86.81328 -1.65954 127.97232 443
86.81200 -1.66096 128.28235 443
85.46346 -1.82019 128.38840 286
91.54852 -1.01588 127.66949 474
91.54760 -1.01716 127.90498 475
91.54897 -1.01620 128.13802 476
91.54794 -1.01762 128.37216 477
90.47260 -1.13756 128.38571 298
86.71603 -1.56391 127.94792 442
86.71417 -1.56311 128.25627 442
85.52458 -1.69786 128.38699 286
91.56987 -0.93658 127.66084 475
91.57039 -0.93548 127.89737 476
91.56957 -0.93571 128.13048 477
91.57057 -0.93653 128.36346 477
90.52867 -1.04848 128.38612 298
86.61551 -1.46719 127.91965 441
86.61553 -1.46720 128.23193 441
85.58282 -1.57721 128.38855 286
91.59046 -0.85504 127.65002 475
91.59211 -0.85436 127.88857 476
91.59235 -0.85457 128.12263 477
91.59109 -0.85411 128.35585 478
90.58720 -0.95635 128.38756 298
86.51657 -1.36527 127.88895 440
86.51447 -1.36621 128.20459 441
85.64021 -1.45532 128.38658 286
91.61269 -0.77372 127.64299 476
91.61283 -0.77387 127.88006 477
91.61269 -0.77374 128.11552 478
91.61311 -0.77391 128.34894 479
90.64627 -0.86432 128.38707 298
86.41592 -1.26399 127.86110 439
86.41555 -1.26434 128.17804 440
85.70353 -1.33349 128.38838 286
91.63605 -0.69251 127.63209 476
91.63493 -0.69029 127.87052 477
91.63531 -0.69129 128.10625 478
91.63541 -0.69092 128.34099 479
90.70422 -0.77268 128.38683 298
86.31084 -1.15937 127.83136 438
86.31361 -1.16091 128.15230 439
85.76611 -1.20870 128.38602 286
91.65662 -0.60916 127.62381 477
91.65902 -0.60922 127.86205 478
91.65688 -0.60832 128.09787 479
91.65738 -0.60973 128.33313 480
90.76399 -0.68344 128.38535 298
86.27754 -1.05188 127.81435 491
86.27622 -1.05248 128.13419 492
85.82581 -1.08858 128.38467 286
91.67939 -0.52652 127.61403 477
91.67859 -0.52702 127.85396 478
91.68089 -0.52695 128.08862 479
91.67938 -0.52567 128.32550 480
90.82433 -0.59206 128.38527 298
86.24937 -0.93994 127.79650 491
86.24734 -0.93792 128.12001 492
85.88866 -0.96617 128.38495 286
91.70132 -0.44283 127.60484 478
91.70142 -0.44366 127.84399 479
91.70316 -0.44435 128.08252 480
91.70236 -0.44387 128.31619 481
90.88375 -0.50034 128.38574 298
86.25066 -0.82590 127.78601 294
86.21842 -0.82794 128.10277 492
85.95370 -0.84471 128.38513 286
91.72385 -0.36011 127.59736 478
91.72391 -0.36245 127.83640 479
91.72330 -0.36139 128.07382 480
91.72389 -0.36016 128.30818 481
90.94577 -0.41079 128.38684 298
86.31153 -0.70725 127.78937 294
86.18714 -0.71557 128.09039 491
86.01744 -0.72542 128.38692 286
91.74722 -0.27755 127.58590 479
91.74581 -0.27925 127.82586 480
91.74621 -0.27813 128.06367 481
91.74773 -0.27784 128.29962 482
91.00674 -0.32172 128.38626 298
86.37424 -0.58716 127.78764 294
86.15789 -0.60051 128.07184 491
86.08414 -0.60233 128.38567 286
91.76817 -0.19439 127.57766 479
91.76965 -0.19402 127.81773 480
91.76835 -0.19419 128.05559 481
91.76763 -0.19455 128.29196 482
91.06760 -0.23064 128.38535 298
86.43502 -0.46887 127.78684 294
86.12716 -0.48330 128.05673 491
86.12545 -0.48332 128.38516 491
91.79160 -0.11027 127.56636 480
91.79257 -0.11006 127.80673 481
91.79135 -0.11058 128.04671 482
91.79028 -0.10987 128.28337 482
91.13013 -0.13948 128.38573 298
86.49957 -0.34925 127.78953 294
86.09549 -0.37003 128.04280 490
86.09561 -0.36750 128.36891 491
91.81296 -0.02660 127.55755 480
91.81448 -0.02717 127.79835 481
91.81423 -0.02785 128.03770 482
91.81344 -0.02793 128.27487 483
91.19339 -0.05052 128.38683 298
86.56073 -0.23027 127.78754 294
86.06279 -0.25076 128.02455 490
86.06175 -0.25304 128.35416 491
91.80627 0.05694 127.53846 485
91.80505 0.05676 127.78030 486
91.80646 0.05633 128.02142 487
91.80551 0.05677 128.25935 487
91.25748 0.03966 128.38773 298
86.62782 -0.11314 127.78942 294
86.03006 -0.13433 128.01036 490
86.03125 -0.13408 128.34077 490
91.78330 0.14009 127.51765 484
91.78464 0.14012 127.76078 485
91.78384 0.14134 128.00221 486
91.78232 0.13992 128.24152 487
91.32197 0.12710 128.38657 298
86.69082 0.00383 127.78647 294
85.99819 -0.01520 127.99194 489
85.99995 -0.01305 128.32617 490
91.76008 0.22406 127.49366 484
91.76153 0.22426 127.73876 485
91.76122 0.22423 127.98083 486
91.76085 0.22447 128.22121 487
91.38837 0.21688 128.38721 298
86.75849 0.12074 127.78597 294
86.02649 0.10741 127.98759 486
86.02467 0.10719 128.31860 487
91.73788 0.31124 127.47190 484
91.73741 0.31057 127.71667 485
91.73838 0.30909 127.96075 486
91.73693 0.31122 128.20341 486
91.45373 0.30676 128.38641 298
86.82253 0.23783 127.78574 294
86.05776 0.22991 127.98233 487
86.05535 0.22668 128.30992 487
91.71484 0.39780 127.44875 483
91.71593 0.39743 127.69687 484
91.71552 0.39598 127.94236 485
91.71542 0.39570 128.18407 486
91.51817 0.39600 128.38646 298
86.89143 0.35699 127.78833 294
86.09114 0.35161 127.97398 487
86.08827 0.35111 128.30711 488
91.69148 0.48248 127.42532 483
91.69012 0.48306 127.67500 484
91.69041 0.48470 127.92164 485
91.69180 0.48277 128.16452 486
91.58547 0.48297 128.38695 298
86.96029 0.47373 127.78770 294
86.12038 0.47033 127.97000 488
86.12238 0.47103 128.29910 488
