# .PCD v.7 - Point Cloud Data file format
VERSION .7
FIELDS x y z rgb
SIZE 4 4 4 4
TYPE F F F U
COUNT 1 1 1 1
WIDTH 1166
HEIGHT 1
VIEWPOINT 6519.063477 -3564.851318 134.190475 -0.440344 -0.133830 -0.048408 0.886478
POINTS 1166
DATA ascii
-195.89041 1.33989 53.28389 324
-195.91393 3.24658 53.32631 324
-195.95113 4.98148 53.30748 324
-195.96130 6.79774 53.35133 324
-195.95134 8.57717 53.28223 324
-195.89917 10.38938 53.33030 324
-195.89351 12.20730 53.28355 324
-283.48032 60.06892 35.55857 316
-262.78854 59.12745 34.35704 325
-277.40375 61.48005 37.03345 322
-293.60782 64.06921 39.79090 312
-259.21408 60.81260 35.29945 350
-273.92697 63.28488 37.88015 346
-290.03735 65.87702 40.49219 341
-257.33960 62.69968 35.67397 350
-271.85562 65.17201 38.30526 347
-288.11899 67.97719 40.88772 341
-255.42963 64.60814 36.14169 351
-269.92169 67.21243 38.60010 345
-289.26794 70.60335 40.49710 319
-253.56339 66.47314 36.50398 351
-269.62460 69.46172 38.70870 322
-251.69415 68.30848 36.88151 349
-271.52274 72.11535 38.10051 319
-253.50461 70.95959 36.33574 322
-273.85959 74.91643 37.33085 318
-255.49113 73.55691 35.69143 322
-257.58063 76.26233 35.02339 321
-8070.43701 4619.59619 -636.58484 1000
-33736.52734 19137.14648 2682.35474 1000
-13450.08887 8683.72266 -3897.27197 1000
-13149.85938 8962.58398 133.01811 455
-13058.34375 8900.03613 393.09518 470
-13050.58398 9014.41406 132.35681 459
-12965.80273 8951.96094 389.41339 474
-12957.13379 9066.84277 130.42574 465
-12875.19629 9006.88574 390.97311 476
-12868.53223 9124.33496 133.72401 465
-12786.03125 9066.13867 390.86060 477
-12778.92090 9177.88281 134.11786 466
-12696.13281 9121.77539 389.14966 477
-12688.57324 9235.56738 133.93535 466
-12611.21777 9176.99902 389.74091 478
-12601.53711 9291.49023 133.84216 467
-12522.51660 9235.60156 386.37289 479
-12511.29004 9342.72559 130.92795 467
-12436.86328 9289.68359 389.63467 479
-12425.43652 9398.08203 132.78700 468
-12350.52246 9342.36328 386.39487 480
-12336.93750 9455.48047 131.16591 468
-12261.48828 9397.74121 388.02133 480
-12250.68457 9509.10938 133.87506 469
-12179.91211 9452.81641 385.28296 481
-12161.32324 9562.00977 133.95544 469
-12092.57520 9510.12598 385.62848 481
-12077.22363 9616.33984 131.38611 470
-12005.91309 9559.91895 386.10730 482
-11990.49512 9669.35156 131.65105 470
-11925.16504 9614.64551 383.38104 482
-49812.61328 39932.27344 12845.90820 1000
-11905.90332 9722.02441 130.52602 471
-11838.33105 9668.10059 382.91812 483
-11819.62500 9777.25293 133.68002 471
-11752.32129 9722.74609 384.48993 483
-11737.34180 9828.60645 130.92549 472
-11669.01855 9776.04883 380.88538 484
-11650.60547 9879.73535 129.90294 472
-11587.25000 9826.74707 382.90555 484
-11566.20801 9934.61426 133.94807 473
-11502.11816 9880.34082 379.01456 485
-11482.04004 9982.95312 131.16808 473
-11420.75293 9933.01953 379.14905 485
-11398.55273 10038.47266 130.02531 474
-11338.08301 9986.95508 378.60757 485
-11317.41309 10088.56055 130.87328 474
-11258.61133 10038.29004 379.30441 486
-11234.98926 10140.91992 132.89058 474
-11177.74316 10089.51855 378.25565 486
-11148.41602 10192.74805 129.82242 475
-11094.30664 10141.61621 380.47311 487
-11067.59082 10243.36133 132.07187 475
-11013.18652 10194.97559 379.91180 487
-10983.77344 10295.24316 129.68369 476
-10931.28223 10243.18164 379.48758 487
-10902.20605 10343.96191 131.19106 476
-10851.14941 10293.05859 379.14676 488
-10821.80664 10396.83008 132.80087 476
-10770.14062 10347.34082 378.86053 488
-10740.65723 10447.56934 129.39999 477
-10690.25684 10398.41699 376.68686 489
-10659.70117 10498.52734 130.38870 477
-10611.82031 10448.08984 374.23413 489
-10579.62012 10548.60938 130.77258 477
-10530.91699 10496.70996 375.73026 489
-10498.19043 10594.50781 130.44177 478
-10450.54004 10547.49316 373.73569 490
-10419.75781 10647.94238 131.98956 478
-10371.24902 10599.60254 376.51477 490
-10340.22266 10697.09766 129.71815 478
-10293.00391 10649.51172 374.06952 490
-10258.89258 10745.18750 131.08815 479
-10214.57227 10700.48926 376.36005 491
-10181.22949 10794.71191 133.00374 479
-10136.20117 10751.00391 375.06268 494
-10657.33203 11300.88867 643.67603 483
-10099.20410 10845.03125 132.29518 479
-10059.20605 10799.71582 375.35364 494
-10566.92090 11338.50488 639.40405 483
-10022.16211 10892.97461 130.86426 480
-9977.91113 10848.51367 373.41861 495
-10472.90625 11378.42480 640.22046 484
-10005.14258 11009.85059 -113.08140 477
-9941.06641 10942.70020 132.62067 480
-9901.29102 10898.80176 374.52838 495
-10376.94043 11420.89258 637.73126 484
-9923.20801 11061.81934 -112.28587 477
-9861.64355 10990.80078 131.28568 480
-9823.12012 10947.28125 374.23279 495
-10281.00977 11456.82910 636.39868 485
-9846.62012 11109.48438 -111.70425 477
-9785.62695 11041.46680 132.78416 480
-9743.63672 10999.56934 374.33429 496
-10189.84473 11494.42188 634.58344 485
-9767.05273 11157.28418 -114.20753 478
-9703.76660 11091.18164 131.23221 481
-9668.54492 11047.06934 373.38809 496
-10097.88574 11536.79004 634.80304 486
-9688.43359 11206.50098 -111.24081 478
-9626.68066 11136.90820 130.20946 481
-9589.46484 11097.00000 371.91019 496
-10007.81348 11572.61230 635.85437 486
-9609.07129 11259.58398 -112.09158 478
-9551.20703 11188.17969 130.90305 481
-9513.90137 11144.79492 370.87885 496
-9915.76465 11610.27832 632.81665 487
-9531.18750 11304.28809 -112.50616 478
-9470.21094 11237.46875 130.84877 481
-9436.14648 11197.41504 369.78024 496
-9828.31641 11657.38281 630.05927 497
-9453.51660 11355.74219 -111.76267 479
-9393.13965 11282.91309 129.36591 481
-9360.59375 11243.24219 370.82867 497
-9747.79395 11708.97656 633.06268 497
-9372.76074 11403.80371 -109.85980 479
-9316.31348 11331.29297 130.80763 482
-9282.81836 11293.06445 369.89435 463
-9670.45215 11758.53320 631.63751 497
-9298.36133 11451.19629 -111.54314 479
-9237.09961 11378.82617 131.76642 490
-9210.53516 11344.26660 372.95880 463
-9587.70996 11805.91895 628.86951 497
-9219.20703 11501.84863 -111.00488 479
-9162.37012 11429.19434 131.14125 490
-9134.73145 11395.14941 370.98483 423
-9507.26953 11858.40039 631.27496 497
-9142.08594 11548.56934 -111.39931 479
-9081.21191 11478.39258 133.04688 490
-9059.80371 11445.28027 372.61630 424
-9426.28711 11908.14551 628.02570 498
-9063.14258 11595.63281 -111.28096 479
-9007.12793 11528.40039 132.19182 490
-8981.12012 11496.83203 371.70166 424
-9346.40918 11958.30273 629.73535 498
-8983.08105 11644.86523 -111.08894 480
-8927.95215 11574.85938 128.95714 490
-8908.83887 11547.98730 370.92020 424
-9266.90625 12007.50195 629.73700 498
-8907.17578 11692.29297 -111.28399 480
-8852.95801 11621.37109 130.81827 491
-8833.90234 11597.25586 370.76682 424
-9121.11426 11973.20605 627.21307 496
-8830.78516 11741.37598 -108.22099 480
-8778.89941 11671.14941 131.68042 491
-8761.42578 11650.59277 371.19293 302
-9041.92676 12021.13184 623.44031 492
-9135.93066 12144.29590 881.60284 498
-8752.96973 11789.79199 -110.60771 480
-8700.51660 11722.65527 132.94789 491
-8692.14551 11708.75293 369.65491 302
-8961.54492 12072.03809 626.12079 492
-9053.20117 12195.02930 880.75964 498
-8675.86133 11837.07324 -108.31528 480
-8622.28027 11767.51465 129.14171 491
-8623.53809 11767.86035 371.50827 296
-8885.17188 12119.12305 622.90955 492
-8974.21387 12243.87012 879.55908 498
-9082.99121 12390.54004 1140.14771 449
-8596.99121 11885.91113 -112.07528 480
-8547.34766 11819.02051 132.02148 491
-8557.27051 11827.54785 370.24500 296
-8801.48926 12168.43457 622.44165 492
-8897.91016 12293.95410 880.38208 498
-8975.30176 12401.03711 1138.29834 489
-8519.63574 11933.56543 -108.25942 480
-8472.71484 11863.57324 132.49991 491
-8634.20312 12092.48828 375.16687 499
-8760.98828 12264.50195 626.42371 363
-8816.47949 12341.03906 879.59631 448
-8950.07031 12529.51367 1141.55847 331
-8443.68164 11980.61523 -110.64949 480
-8393.97266 11912.95117 132.59245 491
-8558.04590 12141.90234 376.60519 499
-8694.85840 12332.39746 628.52533 449
-8699.68164 12339.17969 874.43481 449
-8710.52344 12360.13965 1127.47937 360
-8367.02246 12028.76660 -108.99263 481
-8319.09473 11963.25000 131.50778 491
-8479.63281 12186.91895 373.04819 499
-8578.65723 12329.67188 626.38483 450
-8582.75293 12336.59473 872.63184 450
-8592.63867 12352.74219 1122.30518 360
-8287.83105 12076.86133 -109.23018 481
-8241.62402 12006.48926 132.08202 491
-8403.27148 12237.74023 374.29279 499
-8463.59375 12327.43945 622.18005 451
-8467.60645 12332.93652 866.92010 450
-8476.19434 12345.50781 1113.61829 361
-8211.83105 12124.39160 -110.57550 481
-8166.43701 12055.05859 128.82556 492
-8321.75195 12284.68848 373.10782 499
-8351.28320 12328.05957 618.85193 499
-8351.80469 12332.05762 866.66534 451
-8360.66406 12340.47754 1112.83862 361
-8133.23877 12171.30469 -109.50479 481
-8090.16846 12102.46680 129.55115 492
-8246.91016 12333.23047 373.51868 499
-8274.05664 12377.54395 618.16711 499
-8275.38867 12381.09863 865.73914 499
-8279.45801 12386.00098 1111.95410 391
-8389.94629 12547.34473 1374.24475 434
-8388.80371 12547.34082 1622.31055 444
-8395.90234 12557.98145 1875.25256 443
-8057.25244 12218.54102 -108.94151 481
-8014.07959 12151.57812 129.83684 492
-8169.75781 12382.26270 372.45319 499
-8178.84229 12402.51367 620.30695 499
-8179.97754 12401.06445 861.44855 499
-8203.01074 12437.65625 1111.18823 391
-8382.84863 12708.11719 1384.93140 479
-7979.54932 12267.99219 -110.69768 481
-7939.34033 12200.18945 131.58978 492
-8088.57520 12432.24121 376.10721 499
-8103.49902 12448.43164 617.23029 499
-8102.20947 12452.38379 862.98450 499
-8127.82910 12489.35840 1111.44800 391
-8302.02344 12754.58496 1384.76636 479
-7907.37061 12314.31250 -111.29668 481
-7862.08252 12248.46875 130.55283 492
-8011.28662 12478.62012 374.65140 499
-8022.25781 12497.67188 618.78333 499
-8025.34326 12497.58496 862.06848 499
-8048.70312 12539.71484 1109.96729 391
-8224.10645 12804.28223 1383.89868 480
-7827.74121 12362.27930 -110.31145 481
-7785.66260 12298.17773 132.29349 492
-7934.04395 12530.51758 376.09924 499
-7945.44287 12548.21289 618.55139 499
-7945.03369 12548.64648 863.34332 499
-7976.63232 12591.00977 1112.14636 391
-8116.39111 12815.06250 1378.39441 476
-7750.01855 12410.03711 -109.57914 481
-7711.66113 12344.60156 132.57059 492
-7855.02734 12575.65039 375.49673 499
-7869.22217 12594.50488 617.26483 499
-7869.30518 12598.18066 862.05219 499
-7897.74805 12641.03711 1112.99658 391
-8064.05078 12906.24609 1382.43042 471
-7675.42334 12458.65332 -111.62983 481
-7635.42285 12391.55664 131.65979 492
-7779.02197 12623.34863 372.37204 499
-7790.80371 12644.59961 616.54468 499
-7793.19434 12645.42285 862.30664 499
-7822.32080 12691.81934 1109.94788 391
-7987.83887 12956.38184 1383.83887 471
-7597.66113 12505.30469 -111.60688 482
-7558.04688 12441.92188 130.76048 492
-7701.67676 12674.01465 374.26010 499
-7713.79297 12692.55273 619.34015 499
-7715.47705 12694.91504 861.13440 499
-7743.91064 12746.11133 1109.83386 391
-7905.42969 13007.40527 1382.95703 471
-7521.38574 12550.99805 -107.51962 482
-7480.97900 12487.77051 130.05672 492
-7625.26758 12722.71387 375.11249 499
-7634.26318 12738.31055 619.03204 499
-7634.73047 12744.10449 864.45245 499
-7670.99170 12796.80176 1111.05737 391
-7827.43457 13060.38477 1381.61023 471
-7443.84473 12601.36914 -111.60587 482
-7407.74463 12536.91602 131.76874 492
-7544.29590 12771.61230 375.40085 499
-7573.83105 12814.28027 621.10425 499
-7572.37402 12814.74023 862.93445 499
-7594.46191 12849.47168 1113.49609 391
-7750.46387 13108.79492 1383.44983 471
-7365.98096 12648.08398 -109.33928 482
-7331.74854 12584.03906 128.79739 492
-7469.15967 12819.26953 372.97067 499
-7492.05908 12862.82715 617.76855 499
-7495.11768 12864.00000 863.94421 499
-7517.74707 12900.47070 1111.86292 391
-7668.57275 13160.12988 1382.65491 471
-7290.92432 12696.43262 -108.80313 482
-7255.04004 12632.91699 130.48396 492
-7268.24512 12655.22656 371.14526 430
-7356.59229 12812.52734 614.67517 294
-7415.01709 12907.99609 865.74866 478
-7438.68945 12953.89941 1110.35547 382
-7589.26953 13211.40625 1381.59900 471
-7213.10889 12745.02637 -111.75939 482
-7177.14111 12681.36914 131.22894 491
-7189.63477 12703.53711 369.20804 431
-7264.05859 12827.54688 613.46490 473
-7233.14648 12773.95996 855.69940 458
-7362.78418 13002.05664 1110.97949 382
-7510.26270 13260.40820 1385.89465 471
-7136.36279 12790.30078 -109.28036 482
-7102.03662 12727.18262 128.93236 491
-7111.39307 12746.91309 369.00232 431
-7259.35059 13009.58398 619.19202 499
-7259.94824 13010.60742 863.15955 499
-7284.39941 13054.13477 1112.27051 382
-7429.77588 13313.57227 1383.54614 471
-7060.20117 12840.77637 -110.63647 482
-7025.29102 12776.01660 131.45911 491
-7038.03418 12794.36816 369.90414 431
-7184.11572 13057.21387 619.28345 499
-7182.92578 13057.43750 864.20526 499
-7205.46924 13104.56934 1113.07434 382
-6985.27783 12888.13184 -110.32643 482
-6949.34863 12822.15820 130.21446 491
-6959.78369 12843.17969 371.29572 438
-7105.23340 13106.11328 621.13721 499
-7105.50977 13110.12793 864.45172 499
-7131.19678 13159.26953 1115.45923 358
-6907.03174 12935.01953 -109.79106 482
-6870.84033 12872.76074 131.51932 491
-6887.83398 12895.37012 371.33841 438
-7053.78711 13207.19727 623.35028 453
-7052.18408 13205.18652 866.88947 452
-7090.52393 13280.24707 1121.83142 357
-6831.50342 12984.31250 -110.36533 482
-6796.44336 12918.76465 131.65742 491
-6810.41455 12948.11035 371.58865 387
-7002.25879 13306.91602 623.86908 452
-7001.75391 13308.31055 870.77228 452
-7052.47754 13402.40332 1127.03589 358
-6752.36084 13033.20996 -110.97770 482
-6720.48926 12971.48633 129.69705 494
-6844.97900 13207.56445 373.74442 499
-6939.97705 13390.27539 627.58655 472
-6953.09277 13410.21094 876.65851 451
-7012.05615 13525.44824 1129.58484 357
-6674.53857 13077.68555 -109.44004 482
-6642.51855 13018.27637 131.52939 494
-6778.45850 13277.64746 373.48096 415
-6876.62451 13470.51172 627.55591 472
-6900.14990 13514.06738 876.23859 450
-6600.90186 13127.47461 -111.90175 482
-6567.44775 13067.22363 132.19388 494
-6727.44580 13377.97461 378.14325 414
-6814.99023 13548.45703 630.30444 471
-6520.76758 13173.67480 -109.39355 481
-6491.72412 13114.18164 128.94704 494
-6674.13330 13480.41113 378.19016 414
-6749.95703 13628.51172 630.25964 470
-6443.27148 13222.91211 -111.52637 481
-6413.96191 13163.92480 130.48878 494
-6620.94092 13583.88770 377.07047 413
-6366.45215 13271.65918 -112.65002 481
-6336.79492 13209.10742 130.68704 493
-6569.37793 13685.13086 381.00259 412
-6289.59033 13319.48242 -110.64096 481
-6261.28076 13260.42871 128.49196 493
-6209.73389 13368.38379 -112.26423 481
-6183.84180 13311.29199 131.39969 493
-6132.05908 13415.36133 -112.18481 481
-6104.24902 13358.23535 129.76448 493
-6056.23438 13465.86719 -112.72797 480
-6028.20508 13406.45801 132.41621 493
-5977.59229 13512.45508 -112.57008 480
-5951.23584 13456.62598 132.20364 492
-5901.01514 13562.36328 -112.81967 480
-5872.50928 13506.14551 128.68365 492
-27384.81055 62196.51953 12496.17285 1000
-5820.75195 13610.37695 -110.40997 480
-5793.82666 13554.78613 131.44963 495
-5741.53760 13658.33496 -113.28887 480
-5719.60059 13603.00684 131.69443 494
-5638.14551 13645.66113 -343.65860 478
-5663.50342 13709.90625 -114.00674 479
-5638.27783 13653.80957 130.12112 494
-5586.43555 13756.64844 -112.90246 487
-5563.12305 13706.21582 132.07085 494
-5508.03613 13806.41113 -111.99173 487
-5486.70166 13752.87988 128.30843 493
-5427.81250 13857.17090 -112.15473 487
-5403.82373 13804.02441 131.47704 493
-5348.15234 13908.58398 -114.83385 486
-5328.00977 13852.15039 128.94041 493
-5268.27148 13957.26562 -113.70725 486
-5247.66406 13904.22461 130.65813 493
-5190.45850 14009.37109 -114.46249 486
-5169.38037 13955.55176 131.13821 492
-5109.92041 14058.51270 -115.49476 485
-5090.77588 14003.83789 130.03458 492
-5030.96045 14109.82520 -113.90254 485
-5009.83252 14054.93848 131.60760 492
-4952.08984 14157.96777 -115.49065 485
-4931.09766 14106.73242 129.15132 491
-4871.74316 14208.86426 -115.94478 484
-4853.80811 14157.15527 129.97368 491
-4789.34814 14262.14648 -117.59280 484
-4770.81006 14209.11230 131.93491 491
-4709.33887 14311.88672 -117.09814 484
-4692.69385 14259.84277 131.21622 490
-4631.30811 14362.43555 -117.33660 483
-4610.28320 14310.09570 131.85902 490
-4547.66113 14413.40039 -118.46773 483
-4531.63086 14361.64941 129.08452 489
-4465.89307 14462.69727 -116.05370 483
-4448.99268 14411.69336 130.71555 489
-4384.74951 14518.00195 -118.78217 482
-4370.50684 14465.98926 131.05928 489
-4301.43555 14568.09277 -119.62930 482
-4286.61523 14519.18555 128.91917 488
-4219.36182 14622.38770 -117.30433 481
-4205.13379 14571.17285 128.70177 488
-4137.97021 14674.41016 -121.77622 481
-4122.88623 14620.45898 130.56871 487
-4054.98022 14727.78516 -120.63533 481
-4038.78027 14675.00098 130.20670 487
-3971.96704 14778.79492 -122.21645 480
-3958.09473 14727.38379 132.25906 487
-3889.48950 14830.21094 -121.58636 480
-3873.62646 14779.05078 129.14719 486
-3805.87476 14886.95410 -119.78587 458
-3790.48364 14833.95410 128.67139 483
-3722.93384 14953.85254 -120.25847 458
-3707.40625 14892.01172 129.40813 482
-3641.17676 15023.53516 -122.25881 457
-3626.78149 14951.54688 130.32092 482
-3560.78613 15092.69629 -122.16196 457
-3541.74268 15009.65820 129.19939 481
-3482.24951 15161.68750 -125.59097 457
-3459.10889 15070.62402 129.29073 481
-3395.79321 15230.70020 -126.04831 457
-3375.12256 15133.60352 130.33719 463
-3316.49292 15301.59375 -127.45602 456
-3293.07324 15201.93945 128.93022 462
-3232.08008 15370.57812 -127.38931 455
-3211.24561 15280.57520 131.47629 461
-3199.08569 15687.32617 -393.88269 388
-3149.15991 15448.16016 -129.55511 412
-3129.61255 15355.84277 128.82993 461
-3121.87402 15804.08691 -398.28625 387
-3069.79126 15548.64648 -128.69894 411
-3046.83447 15434.95898 128.05130 460
-3056.24536 15978.11230 -404.91620 293
-2991.64014 15650.12988 -130.08087 410
-2965.34326 15514.82812 128.19971 459
-2909.51807 15755.01074 -133.66899 409
-2881.86987 15595.55859 128.67377 458
-246.02785 1832.69861 -20.75550 452
-2833.84399 15872.06250 -135.91527 387
-2795.69946 15676.32812 129.00827 457
-233.83293 1830.12976 -20.38893 499
-234.83121 1835.35156 9.65173 490
-235.75894 1840.32507 40.36081 486
-2754.42920 16002.47852 -137.64754 360
-2711.96484 15757.38867 130.97546 457
-223.67828 1837.37732 -20.66893 395
-224.63026 1844.59497 9.48466 326
-2681.14380 16153.36523 -140.08083 359
-2627.63916 15850.97559 131.99205 398
-2608.56323 16339.40918 -139.18703 292
-2547.19019 15984.31250 131.28075 396
-2468.42139 16120.74316 131.98651 395
-2391.13574 16258.43750 131.23624 394
-2308.75146 16397.47070 128.54266 392
10152.25488 32782.45703 -2681.49609 1000
25265.31250 48071.50781 -2534.28979 1000
20265.18164 35799.71484 -10878.92871 1000
776.71381 1221.33899 -75.61569 1000
1549.65845 2040.63477 -35.70171 395
1551.64136 2017.61011 -34.26381 440
1586.92065 2039.44812 -78.75082 409
1557.22693 1999.14844 -33.22223 453
1590.73950 2018.07593 -77.53789 410
1563.25256 1981.52344 -32.85389 454
1595.00732 1997.87952 -76.36061 411
1569.39331 1964.75378 -32.38624 455
1596.55408 1974.46753 -74.49094 386
1576.57690 1948.84814 -31.77637 473
1602.80017 1957.26440 -74.11316 461
1584.66357 1934.07605 -31.24094 454
1609.04382 1941.18848 -72.96372 461
1592.81897 1920.47351 -30.68071 453
1610.82275 1918.69446 -71.53727 311
1601.20483 1906.92090 -30.43272 454
1614.71680 1899.34827 -70.45352 319
1609.84692 1893.49878 -30.24444 460
1620.35571 1882.27881 -69.51762 322
1618.88147 1880.93140 -29.56492 460
1627.34680 1867.18933 -69.51363 424
1628.48608 1868.50940 -29.76886 460
1634.77026 1852.76013 -68.46718 425
1637.52283 1856.92078 -29.17146 393
1642.52954 1839.33081 -68.04667 429
1647.41504 1845.30823 -29.26927 391
1650.61255 1825.92407 -67.55831 429
1658.27319 1834.33240 -29.08701 393
1659.15845 1812.81311 -67.61182 429
1668.17053 1823.58337 -29.02068 393
1667.86670 1799.95325 -67.25967 430
1678.82410 1812.66626 -28.60175 393
1676.19739 1787.29858 -66.41611 430
1688.66187 1801.60901 -28.70536 393
1684.76514 1775.30359 -66.10680 492
1701.36975 1793.53540 -29.05271 302
1737.98755 1834.44531 8.09621 499
1694.37524 1764.04712 -66.31120 495
1713.63293 1784.62756 -28.53332 300
1748.97095 1823.58362 8.30059 499
1704.39746 1752.59070 -65.94153 495
1759.46790 1812.29749 -32.46346 499
1845.78650 1905.57080 1.79315 350
1713.63721 1741.25708 -66.22823 495
1771.02539 1802.10388 -32.04156 499
1723.94666 1730.22253 -65.83179 497
1891.35303 1906.93274 -42.54545 382
1733.75635 1719.74231 -65.65765 497
1904.69507 1897.33472 -43.29230 381
1743.96655 1708.91968 -65.63721 497
1917.70178 1887.48767 -43.32959 382
1753.98059 1698.06519 -65.49181 497
1817.92615 1763.22119 -32.70346 499
1764.43042 1688.22095 -65.77157 497
1829.02014 1752.93994 -32.65598 499
1774.96545 1677.91553 -65.78244 497
1836.21387 1738.55115 -32.36217 499
1836.92566 1738.73059 8.12386 499
1786.09851 1668.02258 -65.77745 497
1847.54700 1727.71326 -32.41237 499
1847.75940 1728.16174 8.44351 499
1890.08325 1770.10608 46.57310 365
1886.60046 1766.18433 88.39352 341
1796.56909 1657.66565 -65.68288 497
1976.25403 1831.69275 -42.93537 382
1807.75183 1647.54395 -65.73887 497
1988.48999 1820.45630 -43.08602 382
1929.87427 1764.35303 88.03907 357
1818.28320 1637.26562 -65.94751 497
1999.70984 1808.70679 -42.81661 382
1828.86292 1627.48132 -65.51971 496
2011.04297 1797.52063 -43.49427 382
1839.70850 1616.92200 -65.87861 496
2023.37524 1785.88037 -43.07737 382
1850.11365 1607.23132 -65.95934 496
2034.81335 1774.57324 -43.13165 382
1924.96313 1674.78210 7.20962 403
1861.20398 1597.20789 -66.38812 496
1885.71533 1618.68762 -28.76052 465
1900.70093 1632.18958 10.06945 499
1872.01355 1587.00024 -65.84608 496
1891.84827 1604.53918 -28.37090 441
1921.35437 1630.73242 8.89933 365
1882.69958 1576.78198 -66.28654 496
1935.14868 1622.23779 -31.34359 361
1893.50208 1566.41736 -66.39157 496
2081.27563 1728.40576 -43.64882 468
1904.39404 1556.42212 -66.44747 496
2092.41821 1717.30212 -43.55453 468
1915.13257 1546.19482 -66.83281 495
1933.26575 1561.09241 -28.59901 451
2043.53491 1655.00513 88.13878 261
2069.22510 1675.95435 129.65204 349
2069.76782 1676.88367 172.03925 397
1925.87854 1535.61365 -66.79430 495
1945.98901 1552.66553 -28.99895 433
1936.99268 1525.88257 -66.85893 495
2128.39624 1683.51624 -43.54602 468
1947.53198 1515.31018 -66.76484 495
1969.43066 1533.29541 -29.16277 299
1958.46094 1505.25513 -67.47157 495
1979.71436 1521.81714 -29.16641 299
1969.33557 1494.73828 -67.58627 494
1989.53601 1510.92603 -29.51444 299
1980.42078 1484.61633 -67.17056 494
1998.98328 1499.31018 -29.41443 299
1991.67432 1474.27454 -67.63225 494
2009.53882 1488.23267 -29.24194 299
2002.39905 1463.58472 -67.56407 432
2019.23328 1476.43689 -29.33920 299
2013.87366 1453.84778 -68.32640 432
2028.95251 1465.38684 -29.52845 391
2024.53418 1443.71423 -68.28956 432
2039.33337 1454.61658 -29.54087 391
2035.81616 1433.40332 -68.21321 431
2050.46582 1444.13672 -29.61148 391
2046.92090 1423.06396 -68.46918 431
2061.09375 1433.26746 -30.20548 391
2164.10620 1507.95813 4.03785 412
2058.75586 1412.63635 -68.80560 431
2071.90552 1422.44141 -30.14916 391
2070.39722 1402.57947 -69.11086 431
2082.67480 1411.41406 -30.43377 391
2081.19238 1392.19592 -69.40398 430
2089.72681 1398.38599 -30.05426 459
2093.01147 1381.53589 -69.70486 430
2103.93481 1389.30872 -30.65276 390
2107.17993 1373.41077 -70.23791 406
2123.86206 1384.82837 -31.65904 282
2127.45190 1369.06738 -71.30482 310
22456.99023 7850.84082 -3797.71118 1000
32985.87109 7594.35645 1219.98254 1000
2038.95312 216.32086 -29.29536 279
2027.56140 202.74208 -28.36966 494
2033.69006 203.46292 3.57892 492
2038.37891 203.91472 35.37346 490
31352.90430 3259.06860 4782.58301 1000
2030.48853 190.86224 -28.50717 475
2038.62280 191.74176 3.10271 430
4843.61475 -800.96289 -26.22415 263
4798.71143 -823.16833 -25.07687 438
4810.14404 -855.06909 -26.00558 436
4821.76025 -887.02209 -25.94914 438
4837.68945 -920.99945 -26.84188 434
4849.49072 -953.16058 -26.88703 442
4868.92480 -988.00812 -28.14538 370
4896.42725 -1023.56793 -28.97322 367
4929.81250 -1062.18396 -30.89429 369
4975.55225 -1104.59521 -33.00505 341
5039.96533 -1150.25940 -34.61575 336
5101.15234 -1197.13489 -37.71591 343
5167.97217 -1246.90967 -39.01636 342
5236.21143 -1297.25842 -42.20647 341
55775.62500 -15883.47559 -6533.69678 1000
3407.05640 -1147.27405 17.42241 478
4082.66235 -2080.73511 -14.93490 322
4060.38623 -2100.43213 -14.45627 453
4812.83984 -2804.30493 42.70027 350
18008.08008 -10798.87109 -3673.23511 1000
4756.08301 -2809.22070 42.81007 464
4723.05518 -2828.66699 42.92783 472
4692.25293 -2848.09131 44.36182 473
4661.77734 -2869.02734 43.41106 479
4635.49609 -2892.38843 44.51976 491
29971.18555 -19025.72461 713.48328 1000
20879.79883 -13236.04297 940.05023 1000
4608.78662 -2914.42163 43.68693 486
4579.58838 -2933.98804 44.98397 487
4555.15430 -2958.15723 44.24205 489
4635.46924 -3010.99463 221.02625 281
4528.32617 -2978.54102 44.78711 493
4618.92676 -3040.80054 132.68938 300
4559.70605 -2999.43359 220.69598 427
4505.52881 -3004.00830 45.16941 495
4533.85693 -3023.32544 132.95020 499
4538.53467 -3026.56470 220.67746 427
4480.69775 -3025.57178 45.14603 496
4513.97607 -3049.30469 133.08774 499
4517.12109 -3051.45386 219.97409 427
4460.15527 -3051.69312 44.52786 497
4493.28809 -3074.88428 131.96416 499
4480.08594 -3065.87036 219.95541 344
4438.11035 -3076.54224 44.60387 498
4467.16553 -3097.63403 132.23706 499
4458.05908 -3090.95264 219.35509 480
4414.51367 -3099.97949 44.91658 498
4446.54199 -3122.54224 132.85086 499
4437.11621 -3116.05371 220.06584 480
4396.18652 -3127.15210 44.62540 499
4430.84082 -3151.71509 132.21469 499
4416.63818 -3142.00293 219.54575 480
4373.20801 -3150.14038 44.92989 499
4409.86621 -3177.30957 132.04234 499
4396.66357 -3167.01782 220.29230 480
4354.42041 -3177.24390 45.20628 499
4389.95996 -3203.06909 132.66020 499
4376.62402 -3194.21948 219.96483 345
4334.44482 -3203.26440 45.50509 499
4368.18359 -3229.05005 131.89725 499
4365.60986 -3226.56665 219.50883 428
4445.80664 -3286.21484 310.76773 470
4311.13086 -3227.25854 44.86876 499
4354.34668 -3259.01270 132.83189 350
4409.04297 -3301.02148 221.73497 255
4435.77930 -3322.28247 311.96912 362
4292.27100 -3253.37964 45.23759 499
4425.01904 -3356.82080 311.50143 490
4270.28857 -3277.54102 45.90938 499
4409.87793 -3386.16309 311.74487 465
4251.64697 -3303.91064 45.12809 499
4231.61133 -3329.84937 45.52066 499
4208.67139 -3354.04126 45.40530 499
4191.01416 -3380.56616 45.72621 499
4320.17334 -3487.54858 131.70570 390
4166.71680 -3403.10718 44.98495 497
4197.00293 -3427.99194 132.43800 488
4146.63867 -3428.28174 45.40688 497
4378.07373 -3626.00342 132.23708 486
4126.30273 -3454.82397 45.20648 497
4155.44482 -3479.85107 132.07115 399
4105.38916 -3479.60059 45.91058 497
4134.90771 -3505.27539 133.01137 398
4125.94189 -3541.47974 45.33717 499
4159.07861 -3570.95166 131.69521 488
4146.46289 -3604.40454 43.42408 457
4129.73877 -3589.81714 132.07251 489
4110.90576 -3616.51123 131.88721 492
2852.74390 -3138.88989 63.48934 359
2834.95264 -3157.45288 63.50570 364
2075.81909 -2722.62622 76.82792 338
2027.47913 -2691.64136 77.63299 340
1982.13879 -2663.42896 78.86317 338
2003.56091 -2693.29932 132.16309 406
1938.42883 -2635.11572 79.43232 340
1991.23193 -2711.11499 132.20036 476
1895.61816 -2607.61011 80.16066 341
1979.31299 -2729.51538 131.89233 475
1854.89111 -2582.79907 81.15182 342
1965.09314 -2744.69849 132.45770 416
1816.93616 -2560.94653 81.28272 334
1815.77502 -2558.39722 131.92998 355
1777.65295 -2534.93652 82.32545 336
1778.24023 -2536.72266 132.24408 356
1740.52454 -2511.97192 82.86429 340
1741.44519 -2514.14453 132.19270 357
1707.20605 -2494.85303 83.07549 356
1708.87378 -2497.91992 131.59218 397
1677.96741 -2482.95654 83.81657 372
1681.02893 -2487.62744 131.56058 472
1651.04114 -2474.74707 83.81388 384
1661.63916 -2491.66699 131.93677 472
1626.14209 -2467.75635 84.63263 392
1647.32703 -2502.61206 131.90787 293
1601.61072 -2462.80859 85.09747 393
1636.92322 -2520.04077 132.34921 293
1578.21216 -2457.98853 85.23315 399
1623.37402 -2532.57031 131.91862 263
1555.86584 -2455.04907 85.12622 411
1691.71057 -2682.45044 132.10541 441
1534.99316 -2453.01318 85.26656 417
1682.67444 -2705.53320 131.54500 467
1513.08691 -2451.58154 85.31331 417
1671.39197 -2724.50464 131.78461 467
1498.71106 -2440.74023 86.89085 418
1587.95630 -2594.81323 133.60521 498
1478.15271 -2438.92944 87.54774 418
1572.93848 -2605.98950 133.27844 498
1458.16858 -2438.34277 87.26131 425
1558.35986 -2616.95972 133.71733 497
1438.06726 -2438.04932 87.75839 447
1543.12769 -2628.36719 133.46967 497
1418.21997 -2437.69800 87.93813 456
1504.73816 -2595.05054 133.62621 254
1402.48035 -2443.81055 88.03313 306
3801.02026 -45773.99609 10873.25977 1000
-1012.66052 -20158.05859 -2511.29858 1000
-3042.02808 -39459.40234 3406.47681 1000
-6030.88379 -47341.28125 -6913.88574 1000
-356.68866 -3041.63428 134.26355 483
-356.46521 -3039.62329 184.32619 483
-355.76367 -3038.00952 234.61877 499
-355.17331 -3035.63916 284.83380 499
-355.01773 -3033.09570 335.44952 499
-8455.31445 -42976.05469 -9299.01855 1000
-428.99835 -2331.38062 212.17012 331
-428.22430 -2328.23340 250.87024 400
-427.95407 -2325.22583 290.07462 400
-8763.01953 -37296.96484 2672.37109 1000
-10088.73730 -30169.39453 -3508.59204 1000
-507.47110 -1620.33521 161.38469 290
-506.81284 -1617.81128 189.59146 364
-505.79385 -1615.22095 217.95540 428
-505.09821 -1613.53149 246.05351 428
-504.13287 -1611.25732 274.49863 428
-518.26941 -1617.95190 76.27412 470
-517.53894 -1616.76465 104.70190 470
-517.14880 -1615.46179 133.00346 424
-516.88721 -1614.54907 161.47942 424
-516.14795 -1613.63306 189.90114 360
-516.29327 -1612.94128 217.98738 360
-6565.23340 -16631.77930 -1620.29626 1000
-4483.97021 -11042.20605 2722.74731 1000
-2397.67090 -5907.43750 -389.54388 1000
-38941.46484 -24931.59570 7796.72803 1000
-52426.22266 -23496.79492 1087.71790 1000
90.12010 -2.98825 127.90660 351
90.11877 -2.98857 128.14671 351
90.11803 -2.98877 128.38564 352
90.23396 -2.87512 127.93050 352
90.23276 -2.87311 128.17027 352
90.15979 -2.90000 128.38715 306
89.13290 -3.26994 128.38626 302
90.34669 -2.76256 127.95359 353
90.34733 -2.76146 128.19077 354
90.19280 -2.81739 128.38536 306
89.16396 -3.18062 128.38664 302
90.45720 -2.65027 127.97533 355
90.45562 -2.65090 128.21141 355
90.22492 -2.73057 128.38712 306
89.19593 -3.09004 128.38638 302
90.56587 -2.54210 127.99750 356
90.56664 -2.54231 128.23032 357
90.25983 -2.64596 128.38748 306
89.22953 -2.99744 128.38676 302
88.02965 -3.40680 128.38547 298
90.67219 -2.43385 128.01976 357
90.67198 -2.43549 128.25121 358
90.29295 -2.56167 128.38599 306
89.26203 -2.90440 128.38618 302
88.06075 -3.30822 128.38713 298
90.77911 -2.33029 128.03758 359
90.77784 -2.33065 128.26852 359
90.32948 -2.47572 128.38602 306
89.29495 -2.81342 128.38712 302
88.09337 -3.20779 128.38548 298
90.88168 -2.22622 128.05769 360
90.88255 -2.22483 128.28601 361
90.36457 -2.39039 128.38608 306
89.33154 -2.72223 128.38629 302
88.12675 -3.10957 128.38513 298
90.98485 -2.12343 128.07726 361
90.98346 -2.12277 128.30275 362
90.39961 -2.30570 128.38550 306
89.36613 -2.63162 128.38582 302
88.16090 -3.00974 128.38728 298
91.08530 -2.02384 128.09496 363
91.08519 -2.02192 128.31949 363
90.43719 -2.22084 128.38661 306
89.40144 -2.53951 128.38644 302
88.19267 -2.90916 128.38647 298
91.18597 -1.92297 128.11325 364
91.18508 -1.92423 128.33766 364
90.47269 -2.13550 128.38690 306
89.43586 -2.44661 128.38527 302
88.22788 -2.80940 128.38547 298
91.28283 -1.82528 128.12830 365
91.28385 -1.82483 128.35291 366
90.51031 -2.05208 128.38730 306
89.47436 -2.35618 128.38635 302
88.26421 -2.71092 128.38553 298
91.35551 -1.73476 128.13840 457
91.35656 -1.73444 128.36234 457
90.54971 -1.96605 128.38756 306
89.50995 -2.26263 128.38744 302
88.29964 -2.61205 128.38699 298
86.87358 -3.01884 128.38750 294
91.37521 -1.66089 128.13391 457
91.37538 -1.66141 128.35675 458
90.58818 -1.88156 128.38669 306
89.54813 -2.17264 128.38551 302
88.33617 -2.50968 128.38773 298
86.90871 -2.91285 128.38484 294
91.39507 -1.58665 128.12895 458
91.39590 -1.58549 128.35168 459
90.62628 -1.79628 128.38724 306
89.58553 -2.08053 128.38705 302
88.37208 -2.41234 128.38625 298
86.94287 -2.80308 128.38835 294
91.41539 -1.51148 128.12425 459
91.41714 -1.51123 128.34512 460
90.66721 -1.71142 128.38530 306
89.62508 -1.99028 128.38629 302
88.41187 -2.31285 128.38509 298
86.98169 -2.69432 128.38683 294
91.43633 -1.43749 128.11884 460
91.43570 -1.43547 128.34132 460
90.70667 -1.62445 128.38588 306
89.66419 -1.89554 128.38571 302
88.19298 -2.28068 128.33336 371
87.01752 -2.58554 128.38503 294
91.45755 -1.36135 128.11314 460
91.45543 -1.36164 128.33646 461
90.74751 -1.54044 128.38692 306
89.70438 -1.80620 128.38702 302
88.01781 -2.23179 128.29092 369
87.05634 -2.47671 128.38693 294
91.47729 -1.28650 128.10661 461
91.47603 -1.28688 128.32904 462
90.79009 -1.45530 128.38669 306
87.83894 -2.18306 127.96430 368
87.84048 -2.18387 128.24542 368
87.09496 -2.36863 128.38776 294
91.49676 -1.21216 128.10173 462
91.49696 -1.21004 128.32465 463
90.83100 -1.36939 128.38605 306
87.65567 -2.13457 127.91251 366
87.65379 -2.13607 128.19824 367
87.13460 -2.26147 128.38493 294
91.51634 -1.13439 128.09526 462
91.51661 -1.13465 128.31770 463
90.87221 -1.28501 128.38626 306
87.46429 -2.08462 127.86160 365
87.46206 -2.08405 128.15312 365
87.17642 -2.15196 128.38577 294
91.53696 -1.05871 128.08899 463
91.53614 -1.05875 128.31247 464
90.91573 -1.19923 128.38585 306
87.26582 -2.02982 127.81187 364
87.26616 -2.03055 128.10329 364
87.21740 -2.04332 128.38602 294
91.55663 -0.98292 128.08206 464
91.55739 -0.98494 128.30711 465
90.95916 -1.11400 128.38602 306
87.20296 -1.94608 127.78677 302
87.11567 -1.96521 128.06476 456
87.11498 -1.96661 128.36188 457
91.57793 -0.90804 128.07669 464
91.57783 -0.90816 128.30116 465
91.00366 -1.03118 128.38644 306
87.24476 -1.83793 127.78626 302
87.03421 -1.88435 128.03943 455
87.03206 -1.88232 128.33618 456
91.59869 -0.83014 128.07028 465
91.59817 -0.83090 128.29376 466
91.04913 -0.94555 128.38541 306
87.28452 -1.72974 127.78840 302
86.95036 -1.79781 128.01428 455
86.95044 -1.79877 128.31360 455
85.61831 -2.07751 128.38535 290
91.61827 -0.75475 128.06352 466
91.61948 -0.75415 128.28824 467
91.09330 -0.86133 128.38762 306
87.32479 -1.62295 127.78877 302
86.86536 -1.71487 127.99090 454
86.86356 -1.71284 128.29068 454
85.66108 -1.95711 128.38678 290
91.63831 -0.67766 128.05553 466
91.63990 -0.67838 128.28249 467
91.13734 -0.77649 128.38763 306
87.36526 -1.51225 127.78683 302
86.77708 -1.62858 127.96312 453
86.77888 -1.62593 128.26688 454
85.70420 -1.83863 128.38661 290
-2108.05835 -430.77774 95.10505 397
91.66084 -0.60107 128.04971 467
91.65997 -0.60257 128.27551 468
91.18410 -0.69145 128.38538 306
87.40975 -1.40612 127.78897 302
86.69128 -1.53926 127.93830 452
86.69119 -1.53896 128.24043 453
85.75115 -1.71807 128.38513 290
-2105.18506 -415.76419 94.88728 487
-2108.18970 -416.11224 131.46048 487
91.68059 -0.52465 128.04370 468
91.67975 -0.52439 128.26826 469
91.23016 -0.60606 128.38692 306
87.45271 -1.29611 127.78883 302
86.60195 -1.45264 127.91169 451
86.60320 -1.45142 128.21736 452
85.79388 -1.60056 128.38809 290
-2802.37305 -529.28766 83.15915 387
91.70240 -0.44730 128.03725 468
91.70046 -0.44662 128.26195 469
91.27802 -0.52265 128.38782 306
87.49377 -1.18822 127.78870 302
86.51442 -1.36192 127.88239 450
86.50982 -1.36161 128.19310 451
85.83989 -1.47853 128.38536 290
-2794.83765 -509.06744 83.48069 498
-2799.47754 -510.36682 131.46251 498
-2805.43555 -510.85886 180.08250 433
91.72218 -0.36963 128.02876 469
91.72213 -0.36895 128.25584 470
91.32567 -0.43805 128.38770 306
87.54198 -1.07999 127.78721 302
86.41934 -1.26935 127.85606 449
86.42109 -1.27204 128.16786 450
85.88611 -1.35975 128.38588 290
-2815.56885 -494.91312 83.33195 261
-3523.21338 -614.56342 131.71121 489
-3530.87964 -616.06354 192.10144 447
91.74285 -0.29188 128.02284 470
91.74213 -0.29255 128.24849 471
91.37243 -0.35184 128.38580 306
87.58552 -0.97046 127.78664 302
86.32829 -1.17685 127.82739 449
86.32671 -1.17815 128.13930 449
85.93470 -1.24215 128.38783 290
91.76445 -0.21405 128.01601 470
91.76384 -0.21441 128.24199 471
91.42211 -0.26701 128.38699 306
87.63050 -0.86284 127.78638 302
86.28353 -1.07352 127.80962 493
86.28255 -1.07571 128.12538 494
85.98356 -1.12313 128.38803 290
91.78499 -0.13706 128.00691 471
91.78382 -0.13580 128.23586 472
91.47174 -0.18201 128.38699 306
87.67988 -0.75534 127.78892 302
86.25716 -0.97229 127.79512 493
86.25636 -0.96982 128.11134 494
86.02892 -1.00494 128.38716 290
91.80492 -0.05795 127.99965 471
91.80682 -0.05759 128.22893 472
91.52036 -0.09842 128.38721 306
87.72511 -0.64882 127.78651 302
86.26819 -0.85967 127.78611 298
86.22599 -0.86562 128.09438 494
86.07965 -0.88531 128.38750 290
91.81522 0.01863 127.99078 489
91.81480 0.01980 128.21814 490
91.57156 -0.01410 128.38715 306
87.77341 -0.54091 127.78845 302
86.31467 -0.74320 127.78850 298
86.19856 -0.75777 128.08305 494
86.12891 -0.76731 128.38567 290
91.79561 0.09361 127.97169 489
91.79604 0.09436 128.20067 490
91.62252 0.07020 128.38756 306
87.82177 -0.43458 127.78795 302
86.36428 -0.62483 127.78735 298
86.17157 -0.64914 128.06865 493
86.16877 -0.65124 128.38382 494
91.77706 0.16739 127.95300 489
91.77637 0.16638 128.18314 490
91.67262 0.15416 128.38617 306
90.62323 0.02070 128.38560 302
86.41159 -0.50833 127.78822 298
86.14164 -0.54018 128.05376 493
86.14059 -0.54343 128.36928 494
91.75495 0.24238 127.93336 489
91.75651 0.24163 128.16420 490
91.72556 0.23905 128.38579 306
90.67535 0.11231 128.38757 302
86.46125 -0.39017 127.78580 298
86.11191 -0.43270 128.03966 493
86.11198 -0.43309 128.35954 494
91.73599 0.31640 127.91269 488
91.73637 0.31673 128.14632 489
91.73566 0.31709 128.37683 490
90.72702 0.20494 128.38760 302
86.51215 -0.27511 127.78829 298
86.08125 -0.32329 128.02496 493
86.08102 -0.32286 128.34212 493
91.71477 0.39382 127.89520 488
91.71624 0.39366 128.12747 489
91.71446 0.39485 128.35860 490
90.77894 0.29421 128.38715 302
86.56451 -0.15647 127.78884 298
86.05254 -0.21419 128.00708 493
86.05133 -0.21388 128.33147 493
91.69469 0.47157 127.87457 488
91.69395 0.47238 128.10843 489
91.69438 0.47013 128.34238 490
90.83270 0.38453 128.38533 302
86.61431 -0.04270 127.78735 298
86.02223 -0.10013 127.99473 492
86.02242 -0.10033 128.31529 493
91.67351 0.54820 127.85667 488
91.67400 0.54966 128.09103 489
91.67331 0.54910 128.32561 490
90.88721 0.47596 128.38724 302
86.66839 0.07263 127.78580 298
85.99996 0.00979 127.97879 480
85.99759 0.01116 128.30437 481
91.65285 0.62754 127.83584 487
91.65208 0.62949 128.07146 488
91.65331 0.62769 128.30757 489
90.94355 0.56471 128.38612 302
86.72057 0.19275 127.78566 298
86.03136 0.13190 127.97411 481
86.02990 0.13239 128.29765 481
91.63097 0.70689 127.81618 487
91.63178 0.70668 128.05473 488
91.63099 0.70757 128.29047 489
90.99832 0.65573 128.38728 302
86.77526 0.30795 127.78605 298
86.06305 0.24645 127.97275 481
86.06232 0.24688 128.29706 482
91.60941 0.78800 127.79579 487
91.60810 0.78801 128.03560 488
91.61008 0.78806 128.27145 489
91.05470 0.74614 128.38524 302
86.83166 0.42447 127.78788 298
86.09200 0.36722 127.96770 482
86.09322 0.36982 128.28897 482
91.58760 0.86933 127.77590 487
91.58883 0.86878 128.01579 488
91.58933 0.86972 128.25270 489
91.10839 0.83629 128.38640 302
86.88666 0.53972 127.78791 298
86.12469 0.48765 127.96195 482
86.12514 0.48758 128.28850 483
91.56540 0.95060 127.75527 486
91.56564 0.95177 127.99563 487
91.56625 0.95148 128.23579 488
91.16703 0.92575 128.38788 302
86.94113 0.65680 127.78652 298
86.16055 0.60608 127.95805 483
86.16023 0.60590 128.28119 483
91.54403 1.03413 127.73370 486
91.54485 1.03381 127.97664 487
91.54535 1.03392 128.21591 488
91.22476 1.01561 128.38724 302
87.00014 0.77058 127.78626 298
86.18932 0.72495 127.95124 483
86.18784 0.72471 128.27594 484
91.52078 1.11804 127.71283 486
91.52058 1.11683 127.95736 487
91.52225 1.11788 128.19775 488
91.28206 1.10437 128.38736 302
87.05793 0.88660 127.78680 298
86.22318 0.84633 127.94711 483
86.22079 0.84420 128.27516 484
91.49969 1.20263 127.69056 485
91.49863 1.20039 127.93542 486
91.50011 1.20178 128.18079 487
91.33934 1.19539 128.38635 302
87.11610 1.00317 127.78730 298
86.25464 0.96242 127.94289 484
86.25373 0.96591 128.26920 485
91.47697 1.28719 127.66926 485
91.47521 1.28627 127.91762 486
91.47523 1.28755 128.16158 487
91.39898 1.28388 128.38626 302
87.17259 1.11964 127.78749 298
86.28486 1.08259 127.93809 484
86.28413 1.08329 128.26428 485
91.45422 1.37324 127.64739 485
91.45224 1.37210 127.89625 486
91.45185 1.37264 128.14249 487
91.45341 1.37330 128.38486 487
90.24412 1.33407 128.38744 298
86.35532 1.20521 127.94173 418
86.35574 1.20719 128.26501 418
91.42903 1.45987 127.62688 484
91.43014 1.46105 127.87498 485
91.42945 1.46129 128.12158 486
91.42947 1.45916 128.36676 487
90.30472 1.42891 128.38536 298
86.47723 1.32609 127.95012 419
86.47720 1.32524 128.27580 419
91.40591 1.54691 127.60617 484
91.40793 1.54802 127.85630 485
91.40597 1.54890 128.10228 486
91.40694 1.54835 128.34810 487
90.36662 1.52553 128.38622 298
86.60030 1.44972 127.96119 420
86.59772 1.45027 128.28310 420
91.38097 1.63639 127.58413 484
91.38196 1.63740 127.83499 485
91.38171 1.63544 128.08324 486
91.38364 1.63664 128.33119 486
90.42889 1.62290 128.38715 298
86.71780 1.56852 127.97108 421
86.71754 1.56914 128.29288 421
91.35732 1.72646 127.56171 483
91.35888 1.72560 127.81268 484
91.35904 1.72499 128.06282 485
91.35873 1.72593 128.31380 486
90.49076 1.71768 128.38548 298
86.83907 1.69041 127.98012 422
86.83955 1.68751 128.30360 422
85.26493 1.67505 128.38777 286
91.29121 1.81634 127.52558 421
91.29253 1.81665 127.77991 421
91.28970 1.81645 128.03366 422
91.29100 1.81727 128.28403 423
90.55222 1.81488 128.38651 298
86.95490 1.80693 127.99274 423
86.95762 1.80458 128.31140 424
85.33076 1.80248 128.38498 286
