# .PCD v.7 - Point Cloud Data file format
VERSION .7
FIELDS x y z rgb
SIZE 4 4 4 4
TYPE F F F U
COUNT 1 1 1 1
WIDTH 1102
HEIGHT 1
VIEWPOINT 6742.794922 -3154.355225 136.747437 -0.555872 -0.131988 -0.067630 0.817931
POINTS 1102
DATA ascii
-196.91594 1.35275 53.39271 324
-196.93889 3.17283 53.33158 324
-196.96440 5.03177 53.37171 324
-196.91162 6.79517 53.37231 324
-196.86429 8.62726 53.37690 324
-196.87053 10.37038 53.33015 324
-196.83943 12.20036 53.32101 324
-277.48621 61.58642 37.24485 322
-293.62943 64.21497 40.00581 312
-259.66714 61.07406 35.42508 350
-274.26883 63.40642 37.97536 346
-290.39807 66.21587 40.62943 341
-257.69543 62.88157 35.82290 350
-272.24640 65.46747 38.39854 347
-288.49200 68.26524 41.08359 341
-255.86258 64.80703 36.23385 351
-270.40009 67.46799 38.76844 345
-290.12112 71.04536 40.50854 318
-253.93167 66.70800 36.67108 351
-270.45810 69.83041 38.64965 322
-252.38817 68.66895 36.89982 325
-272.39825 72.48372 38.09307 319
-254.31709 71.20048 36.28222 322
-278.89453 76.15166 36.31004 261
-256.36633 73.84595 35.63277 321
-258.41141 76.53838 34.96924 321
-15540.43750 4867.61621 667.56421 454
-15571.65234 4983.23926 403.85010 453
-15459.89941 4948.11475 667.31012 458
-15493.44238 5063.15088 401.74051 448
-15382.75391 5025.48926 665.35333 464
-15391.51758 5029.54736 934.55615 436
-15417.33105 5142.73291 402.11224 444
-15308.72754 5105.64062 663.49579 465
-15359.46094 5122.52588 934.54083 338
-15340.14062 5223.74561 399.75735 445
-15234.49121 5186.01904 660.56342 465
-15268.25488 5304.29785 400.03314 445
-15160.97852 5266.04004 661.48822 466
-15191.89844 5383.63135 395.77536 464
-15087.14648 5346.97119 657.52606 466
-15119.10547 5460.75977 395.79636 464
-15015.40820 5424.46582 656.64465 467
-15045.30078 5543.78516 396.65506 466
-14945.06738 5505.97998 656.77417 468
-14976.57031 5619.38818 394.75479 467
-14870.53906 5581.67969 656.07397 468
-14902.15234 5698.23389 393.02597 467
-14801.48145 5662.66016 655.94995 469
-14831.33887 5779.21875 396.44073 468
-14732.21582 5737.05518 654.40479 469
-14759.30078 5855.51855 395.26425 468
-14662.42871 5814.89404 652.23486 470
-14689.19043 5933.66943 393.87045 469
-14587.92578 5893.01025 648.91534 470
-14619.23242 6008.33008 392.64163 469
-14521.17383 5968.23828 650.13757 478
-14550.42285 6084.81982 393.40945 470
-14450.64160 6047.10693 648.30414 479
-14480.33203 6164.22754 389.66003 470
-14384.21777 6120.82031 647.77008 479
-14409.94824 6238.08350 389.03763 471
-14315.03320 6197.73535 645.78052 480
-14340.77734 6314.78760 387.75064 471
-14247.12988 6271.84570 646.44952 480
-14269.35547 6388.41309 387.40228 472
-14179.73145 6346.44531 642.01184 481
-14201.43750 6462.27881 390.08151 472
-14112.39941 6425.02783 643.53656 481
-14131.75000 6537.77393 389.36972 473
-14045.49414 6496.80371 641.01569 482
-14066.07422 6614.24658 387.76950 473
-13978.81738 6572.25684 638.52325 485
-13996.67090 6687.76416 387.24911 473
-13911.87402 6646.35889 640.99573 486
-13928.25195 6762.66406 386.98773 474
-13847.47461 6719.08545 639.91559 486
-13862.32910 6834.94336 385.16531 474
-13777.76758 6793.08105 638.35565 486
-13797.05469 6906.96143 383.75473 475
-13712.20117 6866.07764 636.45819 487
-13725.69238 6981.54541 383.05777 475
-13645.80469 6940.66650 636.66992 487
-13661.50781 7055.18799 384.36731 475
-13580.00879 7013.95508 634.50232 488
-13595.37500 7125.32568 385.37881 476
-13514.81055 7086.85547 634.40576 488
-13529.94531 7199.28857 385.40952 476
-13452.04688 7159.85156 632.56128 488
-13462.75879 7269.30273 384.75940 477
-13389.16895 7229.95068 629.83533 489
-13395.77246 7341.65576 382.01590 477
-13323.35156 7303.16650 633.10706 489
-13332.70312 7412.75732 381.32928 477
-13258.48730 7374.13135 630.35498 489
-13266.77441 7483.29248 380.65280 478
-13194.80762 7444.89355 631.69147 490
-13199.81055 7557.39160 380.89209 478
-13128.43164 7516.11914 630.16473 490
-13778.00488 7884.98242 915.65942 481
-13135.30957 7628.80127 381.48557 478
-13065.19043 7585.11035 627.49872 490
-13696.74805 7949.75684 912.54889 482
-13069.92969 7696.14453 380.30838 479
-13000.95703 7659.79150 626.23706 491
-13613.99414 8016.74658 912.61450 482
-13007.13770 7768.40625 378.36230 479
-12940.85645 7728.62500 626.23077 491
-13533.55566 8079.42725 907.49121 483
-12941.61230 7840.89551 380.10065 479
-12874.51367 7798.58154 625.85913 491
-13452.11523 8144.14062 906.71167 483
-12877.80273 7908.65576 377.73712 479
-12812.94336 7869.87354 623.27966 492
-13369.91406 8209.33984 906.31079 484
-12812.50684 7980.85938 378.70377 480
-12750.77832 7938.41602 622.94299 492
-13290.55957 8275.95703 904.52881 484
-12747.50000 8047.13379 379.30124 480
-12685.36621 8009.08643 625.06940 492
-13207.38574 8337.62988 900.10016 485
-12685.02441 8117.87988 376.15308 480
-12623.74805 8081.97607 623.15839 492
-13127.53125 8401.52734 899.73224 485
-12619.64062 8187.45703 376.53961 480
-12560.67285 8149.21533 621.29395 493
-13062.31250 8472.88574 897.55072 496
-12554.73438 8258.63477 378.70694 481
-12498.37207 8220.93555 622.94043 493
-12996.72266 8546.45020 898.33575 496
-12490.28223 8326.79395 378.64160 481
-12437.00195 8287.79004 622.54852 496
-12933.98633 8616.28320 897.44147 496
-12431.32031 8394.91699 376.85382 481
-12372.16406 8360.28809 621.59320 496
-12865.95020 8689.51562 895.42676 497
-12444.88672 8519.90918 131.08603 478
-12365.50293 8464.25586 375.66870 481
-12312.97949 8428.94531 622.06946 496
-12800.28027 8761.54785 894.82745 497
-12383.44141 8589.00684 127.92049 479
-12303.30566 8535.61133 378.03949 482
-12250.97363 8498.32910 618.81207 496
-12736.48340 8834.30762 893.92456 497
-12319.11035 8655.49805 130.49660 479
-12238.06836 8602.39160 376.64331 482
-12188.08301 8567.66406 621.39136 496
-12670.97656 8902.39746 893.65552 497
-12258.06348 8726.98438 131.30789 479
-12178.65820 8669.36328 376.52679 482
-12128.19238 8635.40820 621.11633 497
-12558.82715 8942.38379 888.73260 445
-12192.85742 8794.38086 128.55093 479
-12114.36914 8740.43750 375.09021 482
-12067.52832 8704.63477 619.47687 497
-5160.05518 3693.48120 310.78238 417
-12130.03418 8863.27441 130.53394 479
-12050.06738 8807.48633 374.92218 482
-12006.41309 8774.56445 617.25427 497
-12415.42480 9071.64062 890.70886 417
-12511.98438 9140.92773 1151.99072 498
-12064.85059 8933.89648 129.08430 480
-11986.74512 8875.98730 373.62814 490
-11941.08594 8843.14062 616.86584 497
-12349.08008 9143.03516 887.31024 417
-12448.19531 9214.31543 1150.68860 498
-12001.63867 9000.22266 131.77502 480
-11927.31836 8944.14160 373.14008 491
-11879.19434 8912.20117 619.49310 497
-12282.86035 9211.45117 888.44977 404
-12383.55371 9287.72266 1150.05005 498
-12499.70801 9375.39453 1418.14014 465
-11938.25488 9069.47852 130.66470 480
-11865.01465 9012.93848 375.71066 491
-11821.39160 8982.72266 619.42865 497
-12218.96680 9281.88867 886.12762 389
-12320.57422 9355.79492 1146.48303 498
-12433.59180 9443.98438 1415.14355 490
-11878.83496 9137.75391 130.91272 480
-11802.14062 9082.32715 375.16180 491
-11762.80078 9050.40234 618.19543 377
-12218.42969 9402.04297 890.66943 445
-12225.82129 9402.85840 1145.91699 445
-12229.96094 9409.58594 1401.64661 445
-11814.48730 9207.24902 129.33618 480
-11737.58496 9149.19336 372.87344 491
-11700.79688 9117.53809 616.69550 464
-12101.26465 9427.70312 885.10535 446
-12105.43652 9434.75977 1138.82971 446
-12112.51367 9438.55371 1396.68604 445
-11751.34375 9273.93750 130.50110 480
-11678.19629 9220.18457 375.48108 491
-11641.23145 9189.05859 617.62280 464
-11984.07617 9459.71094 881.40686 447
-11992.27637 9462.44629 1137.58423 447
-11995.00098 9468.80957 1390.05896 446
-11689.63184 9343.40234 127.61520 480
-11618.02539 9284.89160 374.28857 491
-11581.49121 9258.60156 619.26196 424
-11872.77832 9487.88770 881.38428 448
-11878.05469 9491.94922 1129.88892 448
-11879.06543 9498.40527 1383.23767 447
-11626.04785 9409.88574 128.55487 480
-11556.18066 9354.43457 372.73486 491
-11525.02344 9328.98828 615.21710 424
-11796.90918 9548.48242 880.59375 499
-11795.68848 9550.51367 1127.30005 499
-11794.37012 9546.94336 1379.61853 498
-11562.07324 9480.32812 127.97032 481
-11494.06934 9421.01367 374.48874 491
-11472.80078 9406.04297 617.20917 302
-11710.11328 9598.16602 876.76471 499
-11707.73633 9600.27344 1124.42371 499
-11731.46484 9619.36328 1377.63953 498
-11984.77344 9826.48730 1662.41211 479
-12357.58105 10129.78125 1974.20764 406
-12350.20215 10124.32520 2242.28369 485
-12356.56836 10126.31836 2507.57373 474
-11501.25391 9548.29785 127.62261 481
-11429.65625 9492.03613 371.96173 491
-11422.56152 9485.28906 619.10663 296
-11649.57715 9671.23535 876.11908 499
-11646.10742 9667.54492 1126.14880 499
-11669.34277 9689.71387 1379.65161 391
-11827.42480 9818.87598 1648.84045 384
-11821.02441 9814.19629 1905.17749 489
-11820.17383 9814.34277 2160.53101 486
-11436.17285 9613.26758 128.14989 481
-11367.43359 9557.51172 374.49390 492
-11572.05273 9727.08301 627.97290 499
-11587.60742 9739.21875 878.25366 499
-11582.51562 9738.92383 1125.18799 499
-11609.08691 9760.71191 1380.93982 391
-11856.55371 9968.26270 1661.63660 479
-11374.79590 9684.56445 128.18257 481
-11307.10059 9625.35645 374.83527 492
-11510.50879 9799.37109 626.38141 499
-11523.41504 9807.85156 874.97089 499
-11522.18652 9807.36719 1127.74805 499
-11553.27148 9834.54297 1380.04077 391
-11751.59082 10002.78516 1654.92712 477
-11311.73145 9749.40332 128.96481 481
-11245.95215 9694.96387 373.14066 492
-11447.72266 9867.57031 624.58105 499
-11461.80176 9877.78320 873.83691 499
-11460.56250 9877.70703 1123.57837 499
-11493.45801 9906.03613 1378.01001 391
-11732.77930 10110.41699 1662.09888 471
-11248.73926 9816.12793 128.44014 481
-11184.81543 9762.58203 371.98453 492
-11385.26855 9934.70410 625.26306 499
-11398.12500 9949.43066 875.99225 499
-11397.58301 9947.62793 1123.51270 499
-11431.74219 9979.41992 1379.95667 391
-11670.18945 10181.08496 1659.44897 471
-11188.57227 9887.23340 130.19131 481
-11124.28809 9829.56055 373.37793 492
-11320.68066 10005.78516 628.08142 499
-11332.15527 10016.76562 874.00110 499
-11331.51660 10016.49609 1126.18762 499
-11374.37598 10050.99414 1380.19958 391
-11604.47754 10255.63867 1662.29260 471
-11123.33398 9952.00000 130.03661 481
-11059.66211 9898.85547 373.54007 492
-11258.02441 10071.80957 626.09741 499
-11271.62109 10084.56738 877.15906 499
-11269.57129 10083.47461 1126.28210 499
-11318.02539 10124.47852 1378.11633 391
-11543.08008 10327.05469 1661.05774 471
-11061.03418 10019.94141 127.86726 481
-10998.67871 9967.19824 374.09381 492
-11195.90625 10142.40723 624.33868 499
-11230.54004 10176.41797 877.83942 499
-11228.37695 10174.97949 1128.46643 499
-11258.27637 10197.12402 1382.21777 391
-11478.71191 10399.78809 1661.86414 471
-10997.70605 10087.95508 127.98627 481
-10938.42383 10035.21680 372.95724 492
-11135.52832 10210.45801 624.36536 499
-11165.87012 10243.11621 876.46765 499
-11167.50000 10242.13672 1128.83240 499
-11197.17090 10268.98438 1382.26001 391
-11415.79980 10471.02539 1660.13721 471
-10937.47461 10158.45117 128.77307 481
-10877.93750 10104.45410 371.85294 492
-11072.15625 10279.73535 626.39490 499
-11015.34277 10228.12695 871.18195 288
-11098.58789 10305.04980 1125.64368 479
-11136.10254 10344.61621 1380.47803 382
-11352.55176 10540.42383 1662.47095 471
-10873.13184 10223.84863 130.62733 481
-10813.09473 10169.83594 372.00919 492
-11007.15234 10347.14258 627.34784 499
-10931.57227 10279.60645 868.08105 475
-10882.00391 10234.51367 1110.60779 461
-11077.96875 10414.92969 1380.66443 382
-10812.11328 10291.31738 128.71461 481
-10754.93457 10237.87598 375.05966 492
-10947.38867 10417.45410 625.30103 499
-10978.77832 10449.81738 878.61597 499
-10977.57715 10448.27539 1128.05029 499
-11019.83398 10488.64844 1381.61023 382
-10749.41895 10362.26172 128.46681 482
-10690.63477 10305.80957 372.65497 492
-10704.96094 10318.26953 618.67175 431
-10916.53906 10521.63477 877.99817 499
-10917.31836 10519.97461 1127.03821 499
-10956.67480 10560.66016 1382.35510 382
-10685.50977 10428.55273 128.53520 482
-10629.27051 10371.27539 375.03802 492
-10641.85449 10383.70703 619.30481 431
-10853.11230 10591.82129 877.36902 499
-10852.56543 10587.74316 1125.63525 499
-10900.69727 10633.52539 1383.98474 360
-10624.93652 10494.97070 127.67041 482
-10571.26270 10440.72656 375.03699 492
-10553.54004 10418.47656 628.28821 387
-10832.02539 10701.19629 878.51263 456
-10826.16895 10697.10742 1130.27893 456
-10893.41797 10759.12305 1391.44385 359
-1110.34265 1194.54468 -292.97958 1000
-1141.51367 1225.63879 -39.57871 1000
-10563.90918 10564.38770 127.65903 482
-10508.43164 10510.56543 371.78262 491
-10522.02637 10526.20898 616.89917 438
-10813.74219 10813.11328 884.13861 455
-10805.91797 10804.83496 1133.79114 455
-10888.55859 10890.11719 1395.21082 360
-10500.99902 10632.41504 128.32759 482
-10446.24121 10577.20703 371.47748 491
-10628.93066 10762.71094 626.44263 499
-10776.63379 10908.64844 883.00586 475
-10786.20410 10922.03809 1139.90063 454
-10883.98145 11021.33301 1404.41431 359
-10435.37793 10698.71875 129.04144 482
-10382.52051 10645.69238 373.86298 491
-10589.33594 10853.64648 627.75574 418
-10733.28223 11003.17578 885.28912 474
-10763.76562 11035.21777 1144.35242 453
-10375.20508 10769.69238 126.90930 482
-10322.98926 10713.51270 371.21869 494
-10570.35742 10968.83887 630.00220 417
-10695.86230 11099.55469 888.48615 473
-43414.67188 44759.75000 12533.39062 1000
-10311.96484 10834.08496 130.76874 482
-10260.27051 10780.72852 372.35150 494
-10549.18359 11080.95898 633.12805 416
-10655.98828 11195.66895 891.96936 473
-10250.32324 10902.92676 128.92088 482
-10198.53125 10851.35156 372.94250 494
-10525.13867 11195.23242 634.09760 415
-10187.17773 10970.86523 128.35582 482
-10139.26758 10918.50293 374.76672 494
-10306.66406 11097.07031 638.86292 417
-10123.20117 11039.09668 129.48039 482
-10075.71680 10989.66895 374.98059 494
-10059.91016 11109.05371 128.91269 482
-10015.74316 11056.47363 371.84790 494
-9997.42090 11178.11719 130.00345 482
-9951.20312 11124.26855 373.51236 494
-9933.58398 11244.32227 126.78744 481
-9890.31055 11192.86523 374.82343 494
-9871.49316 11314.38184 130.01468 481
-9826.73730 11263.11328 374.42590 496
-9808.47266 11380.61035 129.63306 481
-9765.45996 11334.48242 372.85870 496
-9747.07715 11451.81738 128.83856 481
-9701.36328 11403.04590 373.85010 495
-9680.88379 11517.91016 126.88238 489
-9640.54590 11472.66992 376.20715 495
-9617.92676 11588.16211 126.25790 488
-9578.63477 11539.60938 376.49207 495
-9555.41602 11659.13086 129.34941 488
-9517.87109 11610.16309 374.81049 495
-9492.15625 11729.57617 129.28792 488
-9453.81348 11679.75781 373.84229 495
-9429.24902 11796.87207 128.08006 488
-9392.79980 11750.80176 374.44672 494
-1192.88586 1614.63208 -3.88858 463
-1199.74426 1623.12830 29.55932 279
-9365.13086 11869.15234 127.18089 488
-9327.97266 11821.83984 373.65582 494
-1181.78638 1620.79468 -3.69753 480
-1184.30823 1624.25769 29.85103 498
-1186.03894 1626.65845 63.64986 498
-9302.63574 11936.82129 129.75990 487
-9266.80176 11890.77051 374.02911 494
-9240.32520 12010.96875 127.88575 487
-9205.29688 11962.99609 377.07483 494
-9175.07422 12080.56836 126.01440 487
-9139.20703 12034.52930 377.30362 493
-9109.38086 12149.26855 130.09177 487
-9076.89062 12102.08398 377.49103 493
-9046.49707 12218.28418 126.43627 486
-9011.36328 12176.16895 375.45456 493
-8982.76465 12290.78613 126.59878 486
-8950.48730 12244.55859 375.31906 492
-8918.27441 12363.64160 127.20343 486
-8887.42578 12315.72266 377.05280 492
-8852.82227 12431.69238 126.16711 485
-8821.93555 12390.83203 376.72046 492
-13086.82324 18318.44336 5778.25439 1000
-8841.14551 12579.27344 -123.15453 474
-8788.18555 12504.05176 129.57686 485
-8759.12793 12458.61719 376.17947 491
-8778.72070 12651.70020 -126.76441 474
-8723.98633 12575.83594 127.27703 485
-8693.05078 12530.19336 380.06754 491
-8710.37012 12721.02148 -123.11406 474
-8659.76758 12650.03711 127.96398 484
-8629.02148 12606.00879 379.57635 491
-8643.95996 12795.22656 -127.89847 474
-8595.52637 12719.40332 127.87927 484
-8564.80859 12675.27930 377.03497 490
-8577.71387 12864.34277 -124.51568 473
-8527.10254 12793.15430 125.80096 484
-8500.32129 12751.94727 379.45459 490
-8512.73730 12940.62012 -125.85445 473
-8462.18066 12865.05371 128.19464 483
-8435.31543 12823.72168 380.78802 373
-8444.80957 13011.22656 -126.97813 473
-8399.23535 12936.07715 126.29543 483
-8378.99219 12905.06250 381.66644 372
-8379.18848 13085.75879 -127.01575 472
-8328.96191 13010.34082 128.45679 483
-8317.43945 12986.53613 383.11478 372
-8315.01660 13163.87500 -128.63835 460
-8264.11816 13083.71484 128.28773 482
-8252.75586 13061.13672 381.16968 439
-8253.98242 13245.78027 -130.41156 459
-8199.17676 13158.53711 126.91780 482
-8184.66162 13133.71289 382.49356 439
-8195.83008 13330.12793 -127.14999 459
-8131.92969 13232.83984 129.93399 461
-8114.41504 13206.52051 381.23492 438
-8134.29688 13418.04297 -128.54311 460
-8075.08594 13320.92285 128.86038 461
-8057.02686 13290.27832 382.34650 406
-8072.30566 13503.37891 -131.63234 460
-8017.54102 13406.37012 128.26709 460
-7993.58887 13374.43848 382.81509 405
-8011.94580 13593.91602 -130.09436 459
-7956.35303 13495.29980 126.27885 460
-7935.12158 13462.07812 383.14966 316
-7952.40088 13679.75879 -130.70595 459
-7894.58740 13582.32715 128.20303 459
-7870.01709 13541.08496 383.04343 479
-7894.97021 13777.07910 -134.15074 416
-7832.56494 13671.39160 125.59245 458
-7807.29102 13622.11133 386.06931 480
-7845.29150 13891.59570 -133.69897 416
-7772.51123 13759.67285 126.56963 459
-7910.09033 13995.89746 392.57056 413
-7804.01074 14014.79395 -134.03609 393
-7713.30371 13848.63184 128.74594 458
-8355.62891 14993.24219 407.84460 465
-7761.98389 14143.68848 -135.07179 392
-7651.72656 13940.49219 125.80658 416
-8265.17188 15046.76562 408.79297 371
-7720.45068 14269.99707 -137.45360 392
-7602.27295 14057.52539 125.71543 415
-8177.81348 15105.59863 407.40054 467
-7679.66846 14407.34863 -140.79369 365
-7552.73779 14170.32422 125.84340 414
-7669.71973 14607.14551 -142.25842 297
-7504.08545 14291.03027 126.50740 414
-7454.07129 14410.77637 128.98854 413
-7406.15918 14537.43848 127.01096 391
-7349.18701 14428.47461 395.13806 437
-7371.38525 14691.79102 129.46826 364
-7303.61084 14549.11133 393.00531 436
-7337.09619 14852.18848 127.28645 363
-7304.53271 15015.17188 126.82204 362
6781.02832 45989.74609 7797.00488 1000
496.74084 2299.62646 -21.12066 375
507.73602 2280.18091 -20.00050 418
526.93182 2303.20386 -60.53613 388
519.62738 2265.33984 -19.05441 419
531.27081 2252.42871 -56.02900 366
531.03290 2251.41553 -18.58492 418
541.78015 2231.14331 -54.47023 387
543.23779 2237.90234 -17.44373 383
560.13519 2252.61328 -94.60522 436
552.64209 2214.59521 -53.46754 388
555.76208 2229.13525 -17.00954 382
571.18494 2237.75073 -93.38587 436
563.74347 2200.10278 -52.45743 446
568.05414 2220.66992 -17.19853 380
583.06964 2223.23291 -92.06207 437
574.43945 2187.19312 -51.41371 447
580.60474 2213.83838 -16.50599 311
593.73175 2208.67603 -91.37371 438
586.27472 2175.60645 -51.17351 466
593.01160 2205.84082 -16.39178 351
605.40363 2197.00439 -90.04993 462
597.74158 2165.15454 -50.39595 466
637.38477 2334.63501 -25.29079 372
617.04944 2185.91406 -89.49510 462
609.12384 2154.58691 -49.92249 470
653.34235 2336.62524 -25.59026 377
628.33923 2175.61865 -88.52543 463
620.89948 2144.73950 -49.04851 471
669.59802 2340.99170 -26.02979 321
640.19128 2164.80029 -88.15685 463
632.28516 2135.28467 -48.34335 471
685.84497 2344.07056 -26.65166 324
651.52271 2154.98193 -87.01322 468
644.21985 2126.51685 -48.24958 479
663.05017 2145.62061 -86.68810 468
655.85291 2117.91138 -47.52393 480
674.62396 2136.40625 -85.96237 469
667.34705 2109.33032 -47.02160 480
685.20959 2124.03955 -85.21520 318
679.10876 2101.48462 -46.97503 456
695.23059 2109.71509 -84.05235 319
690.95404 2093.61230 -46.58722 456
705.50470 2095.80542 -82.97562 319
702.60638 2085.92725 -46.29501 457
724.37634 2160.49976 -15.57672 495
715.68274 2084.67554 -82.17145 324
714.12421 2078.75610 -45.61070 460
736.97565 2154.04761 -15.15920 495
726.74542 2073.63403 -81.37428 325
725.77795 2072.12769 -45.75900 461
749.26764 2147.55371 -15.07513 495
737.59406 2065.20068 -81.36218 426
737.57251 2065.04907 -45.61731 461
761.53094 2141.31274 -14.82296 495
749.13556 2056.78345 -80.69507 428
749.47040 2058.06958 -44.97847 464
789.60223 2182.24951 -18.21341 287
760.65247 2049.25293 -80.34640 429
761.60168 2051.79785 -44.76932 464
772.10529 2041.36450 -79.85233 429
773.60889 2045.71045 -44.75011 464
782.90839 2033.71948 -79.67687 430
785.40308 2039.48291 -44.71192 464
794.69739 2027.27661 -79.04971 433
796.86115 2033.74158 -44.30115 391
806.56897 2020.52637 -79.34130 433
809.24121 2028.03943 -44.25284 392
836.92725 2106.25879 -14.44669 497
818.13605 2014.31519 -78.52467 433
821.12128 2021.81860 -44.38253 392
847.73419 2096.36890 -13.71266 379
829.86426 2007.41943 -78.58284 433
833.27222 2016.27026 -44.32761 392
859.74152 2087.98975 -13.82096 497
877.74084 2137.65723 95.07154 401
841.10571 2001.29321 -78.12417 434
844.75708 2010.98938 -44.14342 392
888.71259 2126.87061 -16.74756 498
892.90344 2138.28491 19.90404 498
894.53662 2143.33716 57.12473 346
886.38190 2121.66846 95.20184 479
852.97040 1994.90564 -78.26897 434
856.75989 2004.70886 -43.83613 392
899.12915 2116.17871 94.74435 495
864.73700 1988.55981 -78.00621 434
868.79468 1998.84607 -43.48384 392
914.96143 2118.47095 95.07018 443
876.33899 1982.19165 -78.12921 434
880.53174 1993.35913 -43.56387 392
924.26086 2103.75537 95.07447 498
925.23065 2105.33057 131.80234 498
887.47888 1975.72083 -77.63099 434
892.69354 1987.72388 -43.48420 392
954.42151 2140.47925 169.68764 498
899.33636 1969.57312 -77.58670 434
904.21674 1982.19287 -43.68334 392
910.65973 1963.69983 -77.18790 496
916.03485 1976.37817 -43.76860 392
931.27991 2012.88293 -11.12467 499
922.53998 1957.10742 -77.55251 496
928.27850 1970.52148 -43.48837 392
943.60156 2006.86865 -10.70683 499
933.62885 1950.99292 -77.16543 496
939.54254 1964.34668 -43.29744 392
959.50806 2010.09888 -11.10218 499
945.91174 1945.15564 -77.41803 496
951.63849 1958.96411 -43.51677 392
1039.24377 2156.98071 -22.65487 499
957.15283 1939.07361 -77.20502 497
963.48151 1952.74341 -43.34171 392
968.69714 1932.85059 -76.71470 497
974.92218 1947.28784 -43.23016 392
980.06799 1926.81580 -76.69747 497
986.78418 1941.65344 -43.09830 392
991.82263 1920.55933 -77.10155 497
998.84186 1935.43970 -42.90984 392
1003.00153 1914.55188 -76.67370 497
1010.29987 1929.90515 -42.90063 392
1099.69849 2116.94482 -21.61955 499
1040.83057 1992.78394 23.49888 365
1040.17017 1992.10889 60.13568 499
1040.99548 1993.74500 95.88262 358
1014.94427 1908.76257 -76.74149 497
1022.04297 1923.78076 -43.03540 392
1094.79590 2073.97607 94.27123 498
1026.53552 1902.40442 -76.39210 497
1033.87842 1917.99548 -43.11239 392
1037.70752 1896.71594 -76.45036 497
1046.08679 1912.30823 -43.28372 392
1049.55371 1890.41052 -76.44749 497
1057.41675 1906.22717 -43.02721 392
1061.21960 1884.52979 -76.33906 497
1069.20496 1900.26538 -43.27206 392
1072.40881 1878.38965 -76.55221 497
1080.59656 1894.56287 -43.24892 392
1083.90222 1872.70020 -76.40698 497
1092.40198 1888.83521 -43.40152 392
1095.43103 1866.54443 -76.60087 497
1104.68420 1882.81067 -42.84488 392
1106.90686 1860.29041 -76.31725 497
1116.13989 1877.19373 -43.22726 392
1118.78772 1854.19568 -76.87281 497
1127.82275 1871.04651 -42.95179 392
1130.06689 1848.44189 -76.93504 497
1139.73303 1865.17114 -43.31517 392
1141.61523 1842.04675 -76.43289 497
1151.51587 1859.22131 -43.55447 392
1153.20935 1836.07263 -76.67226 497
1162.94482 1853.07471 -43.24638 392
1149.70483 1834.00208 -78.78580 497
1159.79089 1851.34912 -45.40734 392
1222.69739 1959.25073 -18.72762 364
1161.24707 1828.24658 -79.24604 497
1171.33252 1845.66174 -45.51094 392
1216.65308 1922.39197 -16.56658 384
1172.46704 1821.91284 -79.22461 497
1183.10547 1839.84473 -45.45838 392
1184.57324 1815.72974 -78.80355 497
1195.63245 1833.96436 -45.77354 291
1198.00549 1813.21899 -79.61590 480
1334.11877 2033.87610 -66.20842 317
1211.96082 1810.73901 -80.09612 480
1226.59790 1808.43713 -80.68800 421
1241.21106 1807.57861 -81.24207 420
30964.41211 21138.08984 8188.09033 1000
1426.81763 663.40979 -65.62262 458
1430.80603 665.41693 -40.94734 458
1435.83044 667.86456 -16.66138 407
1427.81787 653.81445 -65.09118 499
1431.42749 655.40631 -40.75119 499
1435.35645 657.51794 -16.18975 498
1438.83972 659.15088 7.93683 499
1433.43652 646.05658 -65.22106 483
1437.64490 648.38641 -41.12092 444
1443.47034 651.28918 -16.81541 443
1445.31213 641.58795 -66.21456 386
4449.00488 448.40033 -156.45082 293
4636.31104 467.82626 -92.68112 295
4437.10352 419.68051 -155.49037 293
4625.38770 437.83337 -92.04987 304
4433.58740 391.93216 -154.14067 412
4609.93604 408.16312 -91.30856 498
4458.13574 367.83176 -156.27670 412
4759.34033 393.34647 -99.00800 470
4480.87207 342.01266 -157.50439 401
4742.43457 363.05377 -98.54858 395
4508.92969 316.68402 -158.45631 389
4573.60059 321.63226 -88.87246 418
4539.55957 292.34109 -161.15868 382
4559.87549 293.45490 -88.42647 306
4574.45654 266.65085 -163.49643 369
4551.18652 264.92245 -88.28375 375
4581.12109 238.60112 -90.14284 397
4623.07910 213.96016 -91.76639 364
4684.71191 188.09123 -94.42659 351
4752.47363 162.11624 -98.20355 349
4817.32520 135.75368 -100.76968 347
4885.14307 108.04342 -103.63664 347
4956.15186 79.93911 -108.21515 346
3122.54785 -267.86829 -67.45266 496
3131.82935 -268.93262 -18.01141 470
4018.24438 -994.64014 -67.26816 498
4033.20166 -997.96942 -0.51551 336
4945.43115 -1485.84155 -33.90659 301
4877.45850 -1497.82251 -31.80105 476
4854.17432 -1522.38025 -30.80919 489
4833.20752 -1548.15356 -31.40380 479
4811.47363 -1573.35876 -30.53428 462
4791.97168 -1599.46765 -30.70952 465
4773.29736 -1624.38452 -30.02389 466
4756.54102 -1650.78796 -29.93715 436
4738.38379 -1677.03149 -28.79829 439
4722.14111 -1703.42163 -29.80394 440
4705.92285 -1729.33228 -28.53032 441
4784.91016 -1759.76758 50.16251 310
4747.40771 -1745.10547 132.32449 426
4691.23389 -1755.72327 -29.43143 442
4717.44238 -1765.65588 51.12571 498
4732.18066 -1771.35620 132.12674 412
4675.47754 -1782.82776 -28.87244 442
4706.67773 -1795.40918 50.83984 499
4719.40283 -1799.67798 132.53001 427
4660.23291 -1808.87439 -27.99920 443
4694.40137 -1822.98853 51.68837 499
4707.06299 -1828.02063 132.67255 426
4645.80713 -1836.55518 -28.68075 444
4677.94824 -1848.71423 51.01001 499
4692.52246 -1855.31494 132.33456 426
4913.52637 -1943.83362 217.39249 350
4632.13770 -1862.67969 -27.71827 445
4666.23633 -1876.18408 51.72496 499
4679.50879 -1881.87256 131.90910 426
18728.77734 -7782.74707 -1190.32922 1000
4618.55225 -1889.53967 -27.58484 445
4653.56348 -1903.87695 51.87700 499
4665.78125 -1908.96655 133.03157 426
4606.03027 -1916.60205 -28.71414 445
4645.57080 -1934.70410 51.98731 499
4652.72363 -1936.54541 132.84816 426
4592.77734 -1944.52405 -28.66040 477
4634.40723 -1962.17700 50.83022 499
4621.15771 -1956.76440 132.91795 480
4580.59961 -1972.42102 -27.33794 477
4622.35400 -1990.04553 51.06710 499
4610.15234 -1984.01038 132.22423 481
4567.51855 -1998.78906 -27.72534 475
4609.93408 -2018.01453 50.91930 499
4598.18652 -2012.21667 132.38327 347
4701.01855 -2058.25317 214.79384 480
4555.56445 -2026.55530 -27.58159 498
4605.25391 -2049.31421 52.04721 482
4673.26758 -2079.59839 131.85594 499
4543.32764 -2054.18335 -27.34823 498
4706.52832 -2129.10742 215.35765 484
4531.48584 -2081.89258 -28.57057 498
4698.42236 -2160.56250 216.21373 468
4518.56348 -2109.07397 -27.38578 498
4506.95850 -2137.42749 -27.57990 498
4496.13770 -2165.17822 -28.78514 467
4484.54346 -2193.78589 -28.10147 452
4473.92773 -2222.02808 -28.43634 499
4459.33984 -2248.29126 -27.69125 499
4731.77051 -2388.99292 46.47598 398
4450.65381 -2276.79785 -28.70291 499
4719.68750 -2417.26294 47.50590 487
4439.09668 -2305.26782 -28.87626 499
4471.11426 -2322.84692 51.72188 487
16969.81641 -8953.03613 1385.97192 1000
4423.36182 -2332.06738 -28.89004 498
4459.19189 -2351.17993 51.06142 484
4459.52539 -2385.03149 -30.18421 498
4500.22119 -2407.06299 51.05198 492
45754.53906 -25316.09570 -4144.34521 1000
4494.28125 -2439.89673 -32.07787 458
4479.40820 -2431.36963 50.54984 492
4467.52100 -2460.17944 49.78141 489
4454.49121 -2487.55786 133.08760 443
6005.70752 -4192.15137 -223.27246 1000
3118.27539 -2346.15698 6.67639 475
2259.50439 -2126.00220 33.00468 364
2216.47729 -2109.64966 34.01156 372
2184.13086 -2103.59741 35.56662 363
2207.35132 -2126.85986 83.45688 370
2148.74634 -2093.79858 36.38391 364
2193.37744 -2139.06714 83.27311 373
2114.31714 -2083.87061 37.19239 366
2124.37598 -2093.73901 84.21477 373
2080.89966 -2074.35718 38.61996 367
2090.44800 -2084.69629 85.37444 374
2047.92651 -2064.74268 39.27437 368
2061.76074 -2079.72046 85.66626 301
2014.94543 -2055.54346 40.37367 370
2181.36255 -2233.01050 82.20976 462
1982.79773 -2045.74658 40.78450 337
2175.40356 -2255.02588 82.26517 461
1951.11865 -2036.23560 42.28333 357
1958.86292 -2045.53003 87.15244 387
1921.12512 -2027.86316 42.55901 385
1929.61206 -2038.61279 87.01130 388
13469.58203 -14862.83691 5141.99463 1000
1890.50183 -2019.69238 43.98879 338
1900.55554 -2031.00134 87.60824 389
1863.86133 -2014.28284 44.54001 412
1872.15430 -2023.50830 88.20628 411
1840.24268 -2011.95837 44.77378 423
1849.12476 -2021.78882 88.33819 426
1817.04773 -2010.02100 45.58158 435
1828.96802 -2024.09973 88.75318 489
1795.85986 -2010.31213 46.28439 440
1814.09058 -2032.02124 88.77311 485
1774.58557 -2010.25293 46.78799 450
1804.59326 -2045.32202 88.46982 438
1754.96167 -2011.17017 46.87685 451
1798.92664 -2064.35840 88.39462 438
1735.96191 -2013.11694 46.85038 457
1793.29102 -2083.75024 88.42457 437
1717.02759 -2014.95728 47.76808 467
1787.36438 -2101.93262 87.78322 436
1699.13220 -2018.11157 47.99186 468
1781.27722 -2121.65601 88.07513 435
1682.02930 -2021.62866 47.85365 473
1776.07288 -2142.02246 87.85765 330
1664.92957 -2025.46191 48.46735 473
1770.78699 -2161.83228 87.37001 388
1647.99365 -2029.11023 48.30988 392
1758.42664 -2173.29932 87.59800 490
1630.91968 -2032.58789 48.93496 392
1747.98755 -2187.34863 87.58773 490
1614.70142 -2037.07654 49.12320 394
1738.02356 -2202.01172 87.27937 302
1598.38220 -2040.68030 49.27899 483
1725.72156 -2214.14185 87.24435 260
1582.68042 -2045.53784 49.39702 484
1567.91675 -2051.56982 49.62456 306
1552.70300 -2057.06372 49.50031 461
1538.15686 -2063.49731 50.01820 416
12463.56055 -28924.95898 -361.54071 1000
11844.05566 -27463.87500 7636.67139 1000
11.98594 -3106.25488 134.26500 493
12.61712 -3105.08008 184.62050 498
12.27652 -3102.77441 235.78442 479
12.29191 -3102.18164 286.63245 437
12.26544 -3103.33301 337.81967 303
-258.52847 -2450.05615 133.78476 498
-258.08032 -2448.56689 174.04272 498
-257.90256 -2447.22559 214.71228 494
-257.77377 -2446.24609 255.27025 494
-257.75781 -2445.45166 295.92899 494
-257.50488 -2444.13770 336.00098 466
-521.73981 -1782.68323 102.21100 415
-521.27795 -1781.31018 133.10066 415
-520.71338 -1779.49963 163.94879 415
-520.21606 -1778.46533 194.55731 415
-519.87659 -1776.64526 225.77214 415
-519.35620 -1775.74854 256.06934 465
-518.70398 -1774.26294 287.13312 465
-518.53320 -1772.64380 318.16916 464
-16497.91797 -21426.41602 -1188.42041 1000
-2380.17554 -1072.00195 132.03510 409
-2388.78027 -1075.54382 176.93945 343
-2381.73145 -1054.27722 131.98262 496
-2388.55615 -1057.35071 176.38222 477
-2397.81616 -1060.78430 220.98398 373
90.12217 -2.98621 128.00951 368
90.12341 -2.98514 128.25554 368
89.66360 -3.11207 128.38698 306
88.55052 -3.42465 128.38567 302
90.22518 -2.88207 128.02884 369
90.22401 -2.88276 128.27274 370
89.69689 -3.02522 128.38519 306
88.58179 -3.33018 128.38510 302
90.32708 -2.78150 128.04721 371
90.32624 -2.78041 128.29073 371
89.73200 -2.93876 128.38544 306
88.61571 -3.23770 128.38646 302
90.42700 -2.67964 128.06602 372
90.42699 -2.68028 128.30762 372
89.76583 -2.85360 128.38708 306
88.64818 -3.14109 128.38654 302
90.52528 -2.58219 128.08380 373
90.52561 -2.58263 128.32327 374
89.79929 -2.76659 128.38647 306
88.68239 -3.04796 128.38710 302
90.62215 -2.48450 128.10037 374
90.62361 -2.48497 128.33861 375
89.83682 -2.67777 128.38683 306
88.71612 -2.95609 128.38559 302
87.41304 -3.27764 128.38647 298
90.71969 -2.38696 128.11797 376
90.72068 -2.38770 128.35393 376
89.87199 -2.59315 128.38570 306
88.75042 -2.86129 128.38710 302
87.44621 -3.17483 128.38506 298
90.81606 -2.29123 128.13321 377
90.81465 -2.29134 128.36961 377
89.90804 -2.50538 128.38734 306
88.78761 -2.76545 128.38710 302
87.48167 -3.07206 128.38716 298
90.91108 -2.19776 128.14986 378
90.90944 -2.19811 128.38422 379
89.94551 -2.41843 128.38788 306
88.82366 -2.67143 128.38651 302
87.51542 -2.96764 128.38622 298
91.00278 -2.10349 128.16328 379
90.95901 -2.11446 128.38736 310
89.98222 -2.33067 128.38695 306
88.86045 -2.57775 128.38510 302
87.55006 -2.86678 128.38542 298
91.09465 -2.01188 128.17747 381
90.99905 -2.03318 128.38724 310
90.02126 -2.24189 128.38512 306
88.89692 -2.48437 128.38718 302
87.58765 -2.76556 128.38547 298
91.18646 -1.92122 128.19199 382
91.03667 -1.95254 128.38704 310
90.05988 -2.15436 128.38786 306
88.93375 -2.38977 128.38727 302
87.62412 -2.66138 128.38544 298
91.27721 -1.83030 128.20638 383
91.07810 -1.87005 128.38634 310
90.09752 -2.06797 128.38644 306
88.97135 -2.29518 128.38663 302
87.66003 -2.55934 128.38808 298
91.35310 -1.74398 128.21721 466
91.11736 -1.78850 128.38731 310
90.13965 -1.98087 128.38577 306
89.01102 -2.20182 128.38736 302
87.69788 -2.45430 128.38687 298
91.37363 -1.66810 128.21144 467
91.15888 -1.70848 128.38727 310
90.17723 -1.89368 128.38789 306
88.16750 -2.27254 128.19121 355
87.73630 -2.35380 128.38533 298
86.18747 -2.64736 128.38521 294
91.39534 -1.59216 128.20622 468
91.20065 -1.62706 128.38544 310
90.22077 -1.80533 128.38593 306
87.96310 -2.21815 128.13925 354
87.77478 -2.25195 128.38554 298
86.22752 -2.53425 128.38589 294
91.41541 -1.51535 128.20010 468
91.24355 -1.54539 128.38753 310
90.26136 -1.71706 128.38535 306
87.74754 -2.16000 128.08308 353
87.74844 -2.15902 128.37189 353
86.26647 -2.42284 128.38652 294
91.43533 -1.43880 128.19421 469
91.28586 -1.46537 128.38628 310
90.30281 -1.63028 128.38612 306
87.52966 -2.10024 128.02495 351
87.52879 -2.10278 128.31909 352
86.30495 -2.30911 128.38835 294
91.45480 -1.36214 128.18814 470
91.32722 -1.38207 128.38670 310
90.34476 -1.54388 128.38609 306
87.30295 -2.04139 127.96915 350
87.30074 -2.04010 128.26613 350
86.34435 -2.19489 128.38559 294
91.47767 -1.28514 128.18156 470
91.37280 -1.30201 128.38681 310
90.38937 -1.45655 128.38721 306
87.12003 -1.96945 127.91864 447
87.12088 -1.96766 128.22151 448
86.38794 -2.08315 128.38800 294
91.49717 -1.20782 128.17592 471
91.41612 -1.21852 128.38541 310
90.43294 -1.36836 128.38649 306
87.02997 -1.88025 127.89140 446
87.03115 -1.88069 128.19582 447
86.42641 -1.97119 128.38684 294
91.51888 -1.12904 128.16849 471
91.45962 -1.13767 128.38734 310
90.47677 -1.28204 128.38797 306
86.94395 -1.79078 127.86066 445
86.94179 -1.79186 128.16866 446
86.46975 -1.85796 128.38522 294
91.53852 -1.05304 128.16071 472
91.50629 -1.05616 128.38655 310
90.52015 -1.19265 128.38702 306
86.85023 -1.70179 127.83258 444
86.85018 -1.70176 128.14165 445
86.51107 -1.74810 128.38596 294
91.55947 -0.97302 128.15540 473
91.55058 -0.97576 128.38687 310
90.56705 -1.10441 128.38570 306
86.75715 -1.60709 127.80246 443
86.75814 -1.60769 128.11360 444
86.55608 -1.63249 128.38754 294
91.58112 -0.89529 128.14920 473
91.58172 -0.89595 128.38313 474
90.61240 -1.01851 128.38528 306
86.72494 -1.50452 127.78609 302
86.66611 -1.51339 128.08676 443
86.60198 -1.52346 128.38811 294
91.60117 -0.81765 128.14221 474
91.60123 -0.81689 128.37534 475
90.65926 -0.93024 128.38579 306
86.76888 -1.39261 127.78614 302
86.56939 -1.41942 128.05971 442
86.56792 -1.41839 128.37383 443
91.62328 -0.73962 128.13608 474
91.62391 -0.73961 128.36955 475
90.70576 -0.84363 128.38741 306
86.81628 -1.28261 127.78574 302
86.47084 -1.32237 128.03178 441
86.47398 -1.32184 128.34625 442
91.64473 -0.66010 128.12868 475
91.64384 -0.65926 128.36151 476
90.75320 -0.75480 128.38571 306
86.85964 -1.17351 127.78880 302
86.37482 -1.22589 128.00018 440
86.37405 -1.22237 128.32091 441
91.66603 -0.58227 128.12183 475
91.66460 -0.58104 128.35555 476
90.80157 -0.66839 128.38684 306
86.90556 -1.06082 127.78709 302
86.29562 -1.12375 127.97815 492
86.29529 -1.12091 128.29602 492
91.68570 -0.50064 128.11429 476
91.68559 -0.50086 128.34995 477
90.84911 -0.57996 128.38789 306
86.95111 -0.94793 127.78711 302
86.26805 -1.01464 127.96225 491
86.26602 -1.01404 128.28143 492
91.70795 -0.42039 128.10519 476
91.70874 -0.42110 128.34100 477
90.89761 -0.49325 128.38669 306
86.99987 -0.83637 127.78697 302
86.23743 -0.90315 127.94685 491
86.23746 -0.90265 128.26933 492
91.73013 -0.34036 128.09941 477
91.72910 -0.34054 128.33461 478
90.94777 -0.40578 128.38791 306
87.04724 -0.72522 127.78663 302
86.21010 -0.79473 127.92959 491
86.20744 -0.79509 128.25331 492
85.06425 -0.88849 128.38536 290
91.75118 -0.26181 128.09123 477
91.74991 -0.26121 128.32832 478
90.99718 -0.31793 128.38683 306
87.09595 -0.61539 127.78863 302
86.18037 -0.68462 127.91535 490
86.18000 -0.68497 128.24048 491
85.11352 -0.76670 128.38503 290
91.77280 -0.17920 128.08382 478
91.77235 -0.17948 128.32143 479
91.04837 -0.23140 128.38747 306
87.14545 -0.50445 127.78809 302
86.14992 -0.57397 127.89777 490
86.14888 -0.57164 128.22510 491
85.16499 -0.64222 128.38481 290
91.79324 -0.09854 128.07602 478
91.79408 -0.10012 128.31415 479
91.10082 -0.14514 128.38751 306
87.19530 -0.39207 127.78661 302
86.06431 -0.25269 128.14313 490
86.11898 -0.46081 128.20871 491
85.21545 -0.51622 128.38617 290
91.81715 -0.01761 128.06833 479
91.81686 -0.01877 128.30647 480
91.15238 -0.05575 128.38771 306
87.24628 -0.27898 127.78571 302
86.09135 -0.34669 127.86932 490
86.08852 -0.34642 128.19742 490
85.26709 -0.39393 128.38707 290
91.80589 0.06250 128.05051 486
91.80405 0.06168 128.28935 487
91.20423 0.03213 128.38580 306
87.29765 -0.16930 127.78835 302
86.05849 -0.23373 127.85173 489
86.05733 -0.23198 128.18269 490
85.32091 -0.27310 128.38632 290
91.78258 0.14110 128.03098 485
91.78292 0.14222 128.27231 486
91.25706 0.11834 128.38725 306
87.34895 -0.05919 127.78607 302
86.02612 -0.11785 127.83419 489
86.03009 -0.11742 128.16441 490
85.37475 -0.14964 128.38521 290
91.76027 0.22348 128.01210 485
91.76234 0.22235 128.25110 486
91.31087 0.20457 128.38545 306
87.40549 0.05389 127.78590 302
85.99786 -0.00196 127.81815 489
85.99658 -0.00311 128.14998 489
85.42832 -0.02320 128.38835 290
91.73952 0.30592 127.99018 485
91.74010 0.30528 128.23294 486
91.36620 0.29276 128.38593 306
87.45602 0.16336 127.78806 302
86.02468 0.11651 127.81282 484
86.02867 0.11827 128.14703 485
85.48546 0.09695 128.38513 290
91.71681 0.38735 127.97169 484
91.71826 0.38680 128.21364 485
91.42027 0.37890 128.38782 306
87.51309 0.27345 127.78672 302
86.05941 0.23474 127.80983 485
86.05751 0.23687 128.14133 485
85.53998 0.22481 128.38518 290
91.69350 0.47090 127.94910 484
91.69505 0.47056 128.19579 485
91.47310 0.46610 128.38617 306
87.56653 0.38482 127.78909 302
86.09026 0.35470 127.80378 485
86.09093 0.35557 128.13557 486
85.59966 0.34380 128.38791 290
91.67104 0.55418 127.92979 484
91.67114 0.55462 128.17421 485
91.52862 0.55212 128.38725 306
87.62239 0.49637 127.78680 302
86.12149 0.47380 127.79902 485
86.12347 0.47247 128.13086 486
85.65526 0.46871 128.38806 290
91.64786 0.64003 127.90804 483
91.65039 0.64032 128.15474 484
91.58601 0.63978 128.38765 306
90.45361 0.63137 128.38658 302
86.15546 0.59357 127.79246 486
86.15474 0.59274 128.12845 487
85.71320 0.59350 128.38818 290
91.62668 0.72689 127.88570 483
91.62547 0.72718 128.13499 484
91.62685 0.72715 128.38300 485
90.50851 0.72471 128.38780 302
86.18829 0.71539 127.78769 486
86.18863 0.71447 128.12242 487
85.77190 0.71647 128.38550 290
