# .PCD v.7 - Point Cloud Data file format
VERSION .7
FIELDS x y z rgb
SIZE 4 4 4 4
TYPE F F F U
COUNT 1 1 1 1
WIDTH 644
HEIGHT 1
VIEWPOINT 4166.558594 -4095.626465 131.043503 -0.001179 -0.133859 -0.004187 0.990991
POINTS 644
DATA ascii
-3131.22632 192.95114 -610.09998 1000
-51841.82812 7595.47900 -1425.04480 1000
-282.00833 58.65101 32.77927 265
-273.55798 59.52947 35.00342 320
-288.13281 61.90265 37.73999 323
-268.18747 60.92714 36.33071 326
-282.79538 63.37166 39.01032 346
-266.10980 62.82542 36.71241 350
-280.79712 65.44331 39.35023 344
-297.32883 68.28124 42.00737 339
-264.16666 64.66541 37.18592 350
-278.93921 67.40243 39.67728 344
-262.27100 66.55019 37.63791 351
-278.96387 69.77654 39.63097 321
-260.70651 68.52037 37.91536 324
-280.77686 72.50761 39.08073 318
-262.42673 71.14969 37.34972 321
-264.49115 73.75332 36.64826 320
-47822.00391 15086.05371 -7994.70898 1000
-44299.60547 19246.78125 -3676.85254 1000
-38556.76172 24681.23633 6317.10107 1000
-9418.69336 36664.21484 -1667.49219 1000
-9341.66211 36384.96484 5142.25781 1000
-289.62430 1943.97461 37.86758 391
-290.68216 1948.78613 70.11671 407
-291.25964 1952.36279 102.55349 322
-276.24008 1939.98938 38.50574 498
-277.18158 1945.72168 70.65175 498
-278.63217 1952.77014 102.88921 398
-265.11734 1946.55750 37.98352 452
-438.76120 4663.55029 -795.14484 1000
1196.61743 15461.59473 143.21077 468
1191.03772 15358.07617 398.38651 473
1288.60999 15419.38770 145.98022 469
1279.40906 15320.85938 394.78049 474
1381.44299 15382.07812 145.27238 476
1373.43652 15281.29004 392.66483 488
1473.56506 15352.47266 144.52052 476
1464.60315 15251.94922 392.30704 485
228.92940 1451.72021 13.87952 438
229.60333 1457.39734 37.67310 379
1564.47144 15318.46387 142.09439 476
1554.64746 15218.78613 393.67450 485
237.26317 1446.20056 14.40899 498
237.57355 1449.45557 38.16346 479
238.31245 1453.42383 61.84864 479
238.47017 1457.01538 85.40970 448
1658.44373 15287.56836 143.65761 477
1644.97510 15188.43750 393.46616 486
246.11522 1445.76843 14.24508 492
246.86507 1449.32031 38.13120 462
247.23488 1453.37305 61.57746 454
247.57777 1457.65356 85.68589 419
1747.34863 15256.57129 143.11096 477
1737.16687 15157.40723 391.97260 486
256.02933 1451.90186 13.51521 411
1839.81763 15225.38281 142.03920 477
1830.14526 15127.80176 391.02438 486
1932.07629 15192.38281 141.58112 478
1919.36035 15095.38770 390.96399 487
2022.20520 15163.26855 140.34590 478
2010.46472 15066.09082 389.27942 487
2109.43970 15130.89941 141.17094 478
2098.29883 15037.11719 392.09198 487
2199.77954 15099.76367 142.45979 478
2186.78027 15002.70898 391.23865 488
2291.55005 15068.13770 140.48477 479
2279.23267 14971.86133 390.84048 488
2379.24902 15036.11035 142.66734 479
2366.04175 14945.38477 389.74072 488
2471.11060 15006.99023 141.80280 479
2457.65063 14912.62891 386.16525 488
2560.53027 14973.36230 142.86435 479
2545.02539 14881.12891 387.46680 489
2650.35449 14946.03027 138.74770 480
2634.90088 14853.86426 387.99622 489
2739.22583 14915.79102 140.67442 480
2722.74023 14820.14160 388.60007 489
2825.28857 14881.41211 142.03436 480
2810.19092 14792.24902 386.53586 489
2914.95654 14853.90820 140.87219 480
2898.64526 14762.18555 387.16370 490
3004.91016 14820.02246 139.04266 481
2987.14844 14732.98145 386.20758 490
3090.81372 14792.30273 140.30441 481
3076.80078 14701.19336 385.46985 490
3181.27173 14761.29492 140.97125 481
3164.52148 14672.55664 383.50864 490
3268.95483 14729.00488 138.84459 481
3248.46045 14639.72363 384.69989 490
3357.49292 14700.99023 140.51360 481
3338.68335 14613.37891 383.14658 490
3447.21533 14668.63965 140.47131 481
3423.57764 14582.06250 382.20038 491
3534.24072 14637.28906 139.95355 482
3513.99634 14550.55566 383.40479 491
3621.49341 14607.12012 139.48714 482
3601.11865 14520.81934 384.38611 491
3706.95288 14579.40820 137.78711 482
3686.85400 14494.03711 384.82974 491
3794.45654 14547.13672 136.69444 482
3773.62695 14463.22656 383.59677 491
3884.40381 14517.73535 136.48901 482
3862.44897 14430.54297 383.71463 491
3971.83862 14486.18555 140.19836 482
3947.47339 14402.01855 382.87936 491
4057.87891 14459.79004 138.97496 482
4032.05591 14371.60938 382.50031 491
4142.84131 14428.22266 136.43004 482
4120.51709 14341.66309 383.20490 492
4229.19385 14396.11719 137.65233 482
4206.38135 14314.04297 380.61691 492
4316.71484 14368.93750 137.70825 483
4292.09424 14282.10059 379.07272 492
4406.92432 14339.91211 138.25603 483
4380.79980 14255.50293 382.41534 492
4587.83887 14946.34375 648.59906 494
4589.09766 14948.95703 905.11176 413
4492.04736 14308.53027 135.38770 483
4467.84668 14226.52539 380.45517 492
4671.38135 14896.67285 647.23889 494
4675.87500 14897.21387 901.65918 414
4580.14746 14277.94336 138.08536 483
4553.15625 14194.17188 381.47006 492
4759.81348 14850.81836 648.71637 494
4759.16992 14847.90332 903.98578 414
4666.92920 14246.63281 138.04897 483
4640.77783 14163.85352 379.95410 492
4843.54639 14800.91113 646.94415 495
4845.88672 14799.69922 902.12122 494
4751.01318 14216.52051 138.45667 483
4727.67285 14134.91309 381.23730 492
4927.35352 14757.13281 642.95911 495
4929.76855 14755.63086 899.93115 495
4840.31348 14188.55371 134.74368 483
4811.33887 14106.98047 381.78375 492
5014.71924 14709.02734 646.11584 495
5012.49854 14708.20312 899.54724 495
4928.06787 14157.90625 137.70676 483
4897.29980 14076.40234 380.86417 492
5096.68848 14662.75000 643.95844 495
5097.45850 14663.02344 899.26141 495
5010.93457 14126.37305 135.53481 483
4982.71582 14048.87695 377.53625 492
5184.50684 14614.59766 641.69751 496
5181.50635 14615.49707 896.10016 496
5100.31201 14096.36914 134.17621 483
5072.63525 14017.30371 380.11636 492
5265.72559 14565.72949 642.41443 496
5265.37549 14565.38770 896.44836 496
5185.04785 14066.33594 136.66011 483
5156.60303 13986.52246 377.50397 492
5350.80762 14521.91016 641.34479 499
5351.28467 14525.05176 896.95459 499
5273.19775 14036.62598 136.15121 483
5245.82812 13958.00977 377.99255 492
5441.87207 14492.83789 640.16296 499
5440.38672 14492.79980 895.19397 499
5359.60645 14008.19531 136.08920 483
5328.84180 13930.23145 380.24774 492
5528.48047 14458.25195 639.94629 499
5528.03662 14461.62109 896.65234 499
5446.77832 13976.52051 136.86224 483
5417.46289 13899.45996 380.09988 492
5620.54346 14428.08594 639.49939 499
5618.01123 14426.56348 893.44666 499
5534.08594 13948.73926 136.17795 483
5504.18457 13871.01562 379.64581 492
5707.46973 14396.00586 642.81415 499
5706.93701 14395.00977 894.66351 499
5618.52051 13918.40625 135.11302 483
5587.70410 13837.92480 377.55707 492
5781.73438 14329.98340 640.39575 482
5797.23438 14364.62305 895.30029 499
5706.36523 13885.99023 135.03189 482
5674.93506 13811.24023 377.01602 492
5859.11914 14258.37500 637.40076 482
5885.50391 14332.39355 896.61578 499
5793.20947 13858.68164 134.86545 482
5763.72998 13779.19141 378.19083 492
5931.60400 14188.74902 637.01166 483
5974.55078 14298.76855 893.75018 499
5883.20508 13826.39551 134.85753 482
5849.23486 13749.25488 379.61282 491
6004.09570 14118.95703 636.77734 484
6068.09863 14269.06348 893.89783 499
5968.48584 13795.62109 133.71400 482
5936.10254 13719.19727 377.72238 491
6076.91260 14053.31250 632.97632 484
6157.72168 14235.57129 894.85596 499
6057.42578 13768.87598 133.11682 482
6024.22314 13689.53125 380.71591 491
6150.19873 13985.66406 634.86554 485
6245.34082 14201.29199 893.62805 499
6145.36719 13738.47852 135.86354 482
6111.46533 13662.13965 376.91415 491
6229.64209 13929.32520 632.35046 499
6313.96631 14123.65625 892.83441 328
6352.12207 14210.21582 1153.75183 498
6424.10693 14371.73535 1424.37964 482
6229.20850 13704.57324 134.34589 482
6194.96143 13632.19824 379.07260 491
6315.33496 13901.82910 634.79810 499
6406.19629 14095.10156 893.62445 328
6442.74658 14178.05371 1154.05481 498
6495.15527 14299.72754 1419.29163 482
6318.21436 13677.48340 132.95045 482
6282.37842 13599.45996 380.43488 491
6403.87451 13869.64355 631.44073 499
6494.41846 14061.73535 891.64337 328
6533.94189 14144.81348 1152.64661 498
6404.80762 13645.62305 132.34685 482
6372.72852 13569.01465 377.35669 491
6493.60938 13837.25000 632.14978 498
6601.72314 14072.48145 895.46460 469
6601.93701 14070.32324 1151.59424 469
6492.12012 13614.49512 134.64894 481
6457.84326 13541.26270 380.05173 491
6584.37695 13804.23145 635.57715 498
6669.26025 13986.02539 895.24554 470
6665.56738 13984.70703 1145.65942 470
6723.35156 14101.90820 1411.60486 372
6581.65186 13584.98340 131.95937 481
6546.17480 13509.39258 380.90674 490
6670.50293 13771.25391 634.88702 498
6730.44629 13901.53125 890.77124 471
6731.08252 13897.99414 1142.44128 470
6784.34521 14011.37402 1408.44678 372
6669.03467 13552.79688 132.95853 481
6634.69971 13480.49023 379.73749 490
6757.67773 13741.72754 633.91150 498
6793.24805 13814.36719 888.69470 471
6796.56006 13812.31055 1138.43359 471
6846.51855 13916.75098 1400.50684 373
6758.68164 13525.65625 131.90535 481
6719.46680 13451.72852 380.96454 490
6848.99854 13708.10059 632.93585 498
6867.58008 13753.50488 884.90729 498
6869.33545 13751.13477 1138.56897 497
6911.45459 13841.49121 1396.95679 389
6955.54199 13924.57910 1661.30457 488
6954.00928 13924.86816 1919.76550 488
6957.82910 13926.50586 2176.55859 487
6955.20801 13928.15234 2439.35645 487
6956.06201 13928.31055 2695.81152 486
6846.45801 13495.58594 132.97827 481
6806.87207 13421.11035 377.38571 490
6938.80518 13676.64062 635.44629 498
6960.32178 13719.58301 887.77783 497
6958.72314 13717.97852 1139.54285 497
7005.33496 13808.43750 1398.80957 389
7114.61279 14035.75488 1680.24902 484
6935.16895 13462.72656 135.11488 481
6896.00342 13388.71094 377.92667 490
7026.32471 13643.71582 632.67542 497
7035.08496 13662.45996 885.71051 497
7032.38721 13660.54590 1137.58838 497
7092.72314 13777.78027 1400.55701 389
7209.03516 14004.59570 1679.10693 484
7022.82568 13432.42090 133.78935 480
6983.10400 13358.93457 378.44858 489
7114.82568 13614.54395 636.22034 497
7122.33838 13626.67188 885.04669 497
7122.59473 13628.93457 1137.76208 497
7184.60059 13744.49121 1400.33569 389
7282.76514 13930.77246 1677.37878 453
7111.02588 13400.86816 135.24512 480
7070.97754 13327.99023 380.01355 489
7204.93213 13579.36816 637.07220 497
7211.26904 13598.79590 886.66833 497
7210.78467 13596.98535 1139.22229 497
7273.74023 13714.40918 1402.61060 389
7369.98145 13896.57129 1680.15552 466
7199.39502 13373.22363 134.72285 480
7162.19043 13300.37109 378.91287 489
7292.54443 13549.04492 633.99329 497
7301.79443 13563.89355 888.28345 497
7303.86035 13565.38477 1138.90430 496
7366.59131 13680.29883 1404.66650 389
7481.96729 13904.25586 1684.78833 483
7288.12061 13339.04102 134.98862 480
7251.12939 13267.84961 380.88345 489
7385.02246 13515.42383 635.24121 497
7391.72803 13531.50781 888.05627 496
7391.55469 13530.98730 1142.38293 496
7455.63037 13650.89258 1405.76221 389
7575.10498 13874.20020 1684.09741 483
7377.66699 13309.14062 134.07079 480
7337.06982 13239.14258 377.91278 488
7472.59521 13484.98242 638.27136 496
7483.51562 13499.05469 888.20593 496
7480.72852 13498.34668 1140.57751 496
7548.20215 13617.30566 1407.99707 388
7466.54932 13278.02148 134.44954 479
7428.18701 13206.43262 378.94238 488
7562.28711 13451.97363 635.88306 496
7574.03857 13469.45703 889.37122 496
7574.30664 13465.83789 1144.57874 496
7637.63037 13586.18750 1408.12585 388
7554.60889 13248.58008 132.97012 479
7514.97705 13178.99316 379.65125 488
7652.68945 13419.94043 636.19696 496
7679.56494 13461.86719 891.16156 496
7678.07764 13463.90527 1144.62769 495
7730.91162 13555.44531 1410.74207 388
7645.88232 13215.25195 133.05025 479
7604.17773 13147.62500 381.97299 488
7742.31201 13385.87305 637.43909 496
7766.65479 13428.85449 893.40002 495
7767.46484 13430.96582 1144.65186 495
7823.16895 13522.57812 1410.18701 388
7735.58203 13187.51172 131.09947 478
7696.37549 13115.86523 381.82642 487
7834.08447 13353.68555 638.93048 495
7859.27832 13397.14062 894.59015 495
7859.42969 13398.00488 1146.17639 495
7915.92188 13490.46973 1412.98474 388
7826.72363 13154.21973 155.51532 478
7787.74951 13082.35547 402.07059 487
7927.11426 13320.61328 661.47076 495
7878.65088 13231.42480 908.53076 424
7856.29883 13196.88184 1159.36047 386
8012.67041 13453.57227 1434.45654 388
7917.40820 13121.91895 155.81003 478
7875.73389 13053.91016 401.05502 487
8016.42090 13285.19824 661.54413 495
8045.73389 13330.01758 917.71423 495
8046.69434 13326.93164 1170.02246 494
8102.01025 13422.18848 1437.21594 387
8007.11279 13091.91992 151.61221 478
7966.18994 13019.28613 404.50522 486
8107.14697 13253.82129 660.74005 495
8135.17725 13295.48535 917.99274 494
8135.87354 13296.34277 1170.56116 494
8195.02832 13389.02637 1438.60083 379
8097.46191 13057.51855 150.97118 477
8055.40625 12990.94727 402.87180 486
8200.48340 13220.63184 662.96619 494
8225.38184 13262.47363 917.07867 494
8226.08008 13263.45508 1171.79773 429
8317.62012 13404.84570 1445.05737 342
8189.27002 13027.22070 152.99095 477
8149.27393 12956.56641 400.42725 486
8293.00293 13188.27637 661.11182 494
8356.59863 13289.43652 924.27106 428
8356.88867 13290.66113 1179.45239 428
8458.38574 13451.35840 1454.69189 341
8280.62402 12995.46973 153.14693 477
8239.09277 12928.75000 402.52719 485
8382.94922 13153.25781 663.21625 494
8485.44629 13312.58984 925.36292 456
8488.53906 13321.71094 1184.99939 427
8372.13672 12966.32910 149.93500 476
8330.45996 12896.16504 403.26361 485
8477.68262 13123.66797 660.26117 493
8597.33594 13314.28809 928.75378 455
8623.23535 13347.87891 1189.88940 426
8466.84863 12933.36035 151.92244 476
8421.73340 12863.58496 401.96545 485
8586.64648 13118.83496 661.62695 396
8713.95410 13314.51465 929.87573 454
8558.64453 12901.48145 152.07404 476
8514.84766 12831.83691 401.17722 484
8717.11621 13141.06641 664.19476 395
8828.52539 13311.42383 934.45581 453
727.67322 959.46997 20.35530 432
730.57050 963.54346 38.88557 371
8650.49121 12869.79688 149.17137 475
8604.58691 12798.79492 400.74341 484
8848.39941 13162.63477 667.45898 394
6795.09082 10068.20605 1941.60901 1000
731.38177 951.99194 20.70722 497
733.34149 954.79968 39.25604 476
735.37671 957.97296 58.12946 469
737.34583 960.75494 76.83965 433
740.15009 964.62006 95.63947 409
8743.83691 12837.92285 149.52351 475
8698.46094 12769.73730 401.49197 484
8982.31348 13189.16797 671.55792 393
736.95764 948.00580 20.65636 494
738.58105 950.29584 39.17340 494
740.66943 952.87494 58.19765 497
742.11316 955.21497 76.98756 494
744.13800 957.50085 95.77914 493
8833.28125 12803.08105 150.39265 475
8790.32227 12737.47949 404.19662 483
9107.73828 13199.33301 672.76398 389
744.38922 946.24866 20.36077 466
746.42310 949.18097 39.13640 417
749.12756 953.06079 57.81265 410
8929.55859 12770.45215 150.70459 474
8881.83301 12706.01367 402.48889 483
9020.23340 12737.78223 148.84195 472
8975.17090 12672.78613 402.36060 482
9117.09277 12705.48730 146.65776 472
9071.28418 12639.63770 402.56854 482
9211.32812 12674.47266 147.90404 472
9165.39062 12609.93945 404.80865 482
9305.47559 12641.75000 147.50519 471
9259.02441 12577.86035 402.75833 481
9398.25391 12607.93750 147.98123 471
9352.38672 12542.72852 401.72067 481
9496.31445 12575.50391 145.92389 470
9448.09863 12508.66406 401.07077 480
9590.02051 12541.65332 144.96715 470
9544.35156 12477.94336 401.37653 480
9685.61035 12507.97754 145.96912 469
9640.66113 12443.37793 403.06107 479
106.49326 21.11332 127.42321 1000
9783.46387 12477.48730 147.80795 469
9737.05859 12410.96191 403.72162 479
9883.39062 12442.12988 146.59937 469
9831.94531 12378.53613 402.01309 478
9979.35352 12407.78223 146.02087 468
9930.34082 12342.80762 405.36935 478
10075.98535 12373.69922 146.56624 468
10024.81152 12312.08008 402.49155 477
10176.73340 12342.12988 146.95807 467
10125.45312 12278.48633 403.97244 477
10275.00488 12307.07715 142.38263 467
10219.78418 12245.49512 405.88388 476
10373.02051 12272.91895 142.69121 466
10318.85449 12208.30762 403.65192 479
10469.79688 12237.26758 144.00377 466
10418.74316 12176.90332 404.69437 478
10570.54883 12205.46387 144.42320 465
10517.55859 12138.88965 404.60721 478
10671.10156 12168.65820 140.82707 465
10617.61523 12104.66113 404.54593 477
10774.03906 12131.89453 142.92424 464
10719.35645 12070.43359 405.21268 477
10875.14453 12096.60352 141.81506 463
10822.29199 12036.08203 404.77307 476
10977.63965 12064.05176 141.17653 463
10923.09961 12001.36426 408.50012 476
11078.38770 12029.12305 141.92433 462
11024.18262 11966.45703 405.63031 475
11181.26367 11992.31836 141.24731 462
11126.78711 11932.32031 407.11011 474
11287.16016 11953.91406 139.49858 461
11231.29199 11893.87695 405.44629 474
11393.12695 11920.29980 139.00787 461
11333.41699 11857.05859 407.21967 475
11494.27344 11884.22266 139.71962 460
11439.92969 11822.23828 407.07001 475
11601.81543 11851.21680 140.95395 444
11542.88672 11786.30273 407.58621 474
11724.66309 11826.02637 138.35898 444
11650.22461 11752.46094 407.31348 473
11843.21875 11801.41992 137.17273 443
11756.37891 11716.78223 409.84689 473
11962.87598 11780.31641 140.70105 443
11872.99219 11689.35645 409.65802 448
12087.56445 11754.72949 138.25320 442
11992.71387 11665.31641 409.87976 447
12208.12012 11730.36816 139.50983 441
12115.89746 11639.41016 412.00879 447
12331.49219 11704.08398 137.24103 440
12241.75293 11614.47852 413.81320 446
12483.62305 11706.00879 138.51218 393
12365.80762 11591.81641 414.87094 445
12643.05859 11710.57910 138.43147 371
12487.65234 11564.37109 412.79477 439
12815.37109 11729.66797 135.81898 370
12614.10645 11538.42383 415.43024 438
12994.26660 11744.35254 135.59406 369
12769.25781 11541.74902 415.35770 392
13255.70215 11836.36328 133.53227 277
12932.59863 11543.83496 420.29813 391
13093.65918 11547.23535 421.29919 390
13261.05664 11554.65137 422.36536 368
13476.77637 11598.33008 422.97644 341
13701.09863 11645.79297 425.54739 340
24287.93359 19178.45312 6799.96826 1000
7271.56006 2003.03955 368.71872 1000
3643.69531 898.75439 8.15911 474
3655.08716 900.81299 68.71526 359
3653.13330 877.23236 8.70903 420
66942.96094 -4387.84277 7749.95020 1000
4915.75488 -404.74295 47.15326 464
4896.69189 -433.73898 47.16962 465
4879.82520 -460.94580 47.37258 482
4867.70117 -489.74557 47.21461 482
4855.72314 -518.41205 47.48841 457
4848.01855 -546.57245 47.43457 457
4840.13037 -575.74377 47.22390 456
4833.41943 -604.35028 48.04083 458
4828.01953 -633.36884 47.34531 458
4824.61230 -662.66425 48.30147 378
4822.27051 -691.28802 47.97856 378
4819.03906 -721.73834 47.88151 378
4818.34717 -750.64832 47.19415 378
4818.32568 -780.28119 47.98513 281
4813.28271 -808.90967 48.24658 427
4812.12012 -838.44751 47.35835 439
4815.18213 -870.09320 46.82983 281
4813.20850 -899.47809 47.73754 281
4811.82715 -929.29822 47.92586 281
4802.70801 -957.85449 46.89713 423
4806.57715 -988.13074 47.41664 428
4807.48291 -1018.99957 46.80873 281
4806.31250 -1048.41492 46.46082 281
4805.64062 -1078.66296 47.01492 281
4803.51025 -1109.52454 47.25652 281
4802.43506 -1138.75879 47.06164 281
4800.81152 -1169.03625 46.16245 281
4798.40625 -1200.26575 45.96439 495
4798.01074 -1229.79297 46.14393 281
3774.34521 -1930.32788 -8.23986 483
3782.94995 -1935.66809 59.72082 387
12084.97070 -10693.41992 1175.29163 1000
4678.02148 -4740.29297 20.16686 427
4655.53760 -4776.44482 20.18489 458
4634.11084 -4811.82227 20.85545 471
4614.29199 -4851.39648 21.57064 479
6430.03613 -6881.15088 -178.30908 1000
4596.00537 -4891.73291 19.55002 469
4580.77197 -4936.15771 20.96629 462
3560.06177 -3861.02075 45.70471 314
4562.42725 -5037.30664 18.52924 420
4563.25928 -5100.32520 17.65426 410
4565.13965 -5166.46484 16.83331 409
4565.92188 -5231.97314 16.98829 408
4565.94141 -5297.91895 15.87477 406
4567.03320 -5367.32568 15.18190 405
763.65454 -1032.48755 10.62774 476
763.51422 -1032.47693 30.86173 477
763.66504 -1032.34668 51.25432 477
763.53290 -1032.54639 71.38792 477
763.56555 -1032.41199 91.70409 477
763.78021 -1032.45337 111.77151 498
763.65851 -1032.53040 132.17522 498
763.90131 -1032.76099 152.21471 498
763.68506 -1032.65820 172.48373 498
764.01953 -1033.02051 192.61989 498
763.99500 -1033.03333 213.05232 497
757.83972 -1037.20325 10.56228 416
757.87292 -1037.60168 30.88766 416
758.21167 -1037.96960 51.20764 416
758.63641 -1038.79175 71.57761 351
759.16351 -1039.35669 91.47564 351
759.45422 -1040.21826 111.78709 351
3241.33594 -4954.86670 35.80800 293
3128.34424 -5916.34424 0.29500 268
3067.37671 -5887.87305 3.17778 427
3016.27734 -5875.04004 2.60279 438
2962.67896 -5857.69580 3.55465 440
2913.68091 -5847.16699 5.46143 434
2865.20703 -5840.00830 5.24797 438
2819.79761 -5835.67529 6.52785 419
2844.11108 -5888.59033 111.80263 288
2775.98901 -5834.44482 7.03126 397
2790.63818 -5865.90234 112.19338 477
2730.87988 -5831.57129 7.41559 400
2746.35913 -5865.79785 111.87025 478
2687.44604 -5831.69189 7.78677 403
2701.22217 -5860.82666 112.45042 478
2645.46460 -5831.74072 8.51775 405
2658.63525 -5861.96338 112.06676 479
2603.32031 -5832.51172 8.86303 405
2618.80981 -5866.80664 111.26311 480
2560.55566 -5831.93408 7.94368 405
2576.12988 -5867.84912 112.86321 480
1404.05823 -3156.65015 9.62937 282
2519.50073 -5831.58203 8.65794 406
2532.59106 -5865.94775 111.58686 486
1346.08411 -3070.98486 13.47278 303
1442.72644 -3306.40991 62.91955 467
2508.00977 -5907.70605 112.06368 343
2534.76465 -5973.73438 217.60498 479
1323.68579 -3070.16626 13.70786 424
1419.55945 -3307.20435 63.02551 466
2509.42969 -6013.79346 111.45921 342
2497.59277 -5986.35791 217.05623 482
1310.60034 -3092.17017 13.56406 425
1396.21338 -3308.84717 63.39069 466
2454.46631 -5985.01416 216.89839 283
1298.28235 -3115.10986 12.37417 426
1373.82605 -3310.50000 63.63758 467
1285.13269 -3139.81079 12.35996 421
1350.56335 -3311.42358 63.76499 467
1273.43982 -3166.61133 11.31560 415
1328.37219 -3312.66016 63.53419 467
1261.11829 -3193.18091 10.32894 420
1305.75830 -3314.00049 63.92881 468
1248.86890 -3221.17725 9.86430 412
1282.50256 -3314.79785 64.23277 468
1237.57190 -3253.57593 9.42612 392
1260.34387 -3316.67676 64.00887 469
1225.75598 -3284.14575 8.16383 347
1240.29834 -3325.80835 63.89635 467
1217.60217 -3324.29126 7.03184 367
1226.09460 -3349.76196 64.26591 363
1213.23254 -3380.10864 4.71404 326
1224.53967 -3414.15210 62.89710 320
1220.08618 -3470.58203 2.33572 300
2053.76294 -6027.56885 9.40056 355
1225.70044 -3563.48096 -1.13600 306
2032.92224 -6091.74854 113.36164 283
1233.08008 -3662.08887 -4.77180 304
5807.06348 -18692.99219 3631.43311 1000
14774.39258 -59672.49219 -4062.11401 1000
242.95827 -1533.28040 2.52893 490
242.86905 -1533.03528 27.69940 491
243.26628 -1533.35803 52.76707 499
243.07104 -1533.58997 78.18226 499
243.22020 -1533.72461 103.47092 499
243.43304 -1533.65845 128.48393 499
243.50385 -1534.13147 153.70842 499
243.22525 -1534.08423 179.26245 499
243.24342 -1534.37183 204.27634 499
243.53546 -1534.43958 229.67314 482
-260.39310 -2036.05542 -6.06077 486
-260.32394 -2035.66638 27.59387 486
-259.90005 -2035.59961 61.62093 486
-259.99426 -2035.54492 95.11206 450
-260.09192 -2035.65710 129.00546 450
-260.17749 -2035.75134 162.73265 450
-259.88245 -2035.91382 196.47972 450
-11887.28613 -63061.83594 15002.70215 1000
-5784.47266 -28005.37500 -3199.37158 1000
-8421.30859 -12290.87207 -2341.93848 1000
46.92962 -28.35806 128.87193 1000
-40636.88281 -23181.34570 -3701.59497 1000
-40723.43359 -23232.14453 -2166.29150 1000
-262.40247 -74.90104 36.01974 321
-260.41345 -72.24425 36.73154 321
-258.48904 -69.58520 37.30388 322
-278.62531 -73.72618 38.39266 318
-258.57349 -67.47173 37.39977 349
-276.56927 -70.92033 38.99566 321
-260.48959 -65.57144 36.99532 351
-275.02612 -68.33685 39.53929 345
-262.39087 -63.70906 36.60825 351
-276.75327 -66.35855 39.23156 345
-294.47141 -69.53890 41.46225 319
-264.24033 -61.78490 36.21749 350
-278.71155 -64.36745 38.76738 347
-294.75287 -67.23244 41.42204 340
-267.36993 -60.13512 35.50215 326
-281.41302 -62.49355 38.23133 324
-297.75244 -65.27169 40.83023 315
-273.09030 -58.76847 34.04062 320
-287.14572 -61.09258 36.81143 323
