# .PCD v.7 - Point Cloud Data file format
VERSION .7
FIELDS x y z rgb
SIZE 4 4 4 4
TYPE F F F U
COUNT 1 1 1 1
WIDTH 1105
HEIGHT 1
VIEWPOINT 6836.031250 -2880.701660 142.782562 -0.590325 -0.118548 -0.087056 0.793652
POINTS 1105
DATA ascii
-196.20677 0.86266 53.35858 325
-196.19273 2.65814 53.28957 325
-196.17297 4.47603 53.33067 325
-196.24210 6.22840 53.29970 324
-196.25620 8.03653 53.35467 324
-25096.79688 665.74432 2178.39722 1000
-67133.65625 1767.30518 11180.57715 1000
-196.22812 9.86815 53.34040 324
-196.23296 11.64728 53.31612 324
-269.63828 57.75061 32.66000 319
-283.90588 60.01002 35.48948 317
-263.42435 59.05613 34.28657 320
-277.84485 61.41006 36.97922 323
-293.98703 63.93930 39.77107 313
-259.51477 60.58591 35.19439 350
-274.12372 63.11132 37.84398 347
-290.14172 65.81180 40.51641 341
-257.63269 62.57682 35.68946 351
-272.06433 65.12219 38.29406 347
-288.26721 67.95317 40.88115 341
-255.71892 64.44985 36.08074 351
-270.21875 67.03436 38.69147 345
-289.22495 70.52678 40.61041 319
-253.88487 66.33907 36.53986 351
-269.59573 69.33370 38.74645 322
-252.01923 68.17968 36.91943 350
-271.48395 71.99918 38.08822 319
-253.51077 70.73582 36.34152 322
-273.79071 74.81467 37.39774 318
-255.53683 73.37196 35.74615 321
-16162.85254 3372.01807 941.63959 458
-257.51538 76.05870 35.03299 321
-16212.22070 3488.51294 671.49957 453
-16087.39160 3461.64087 935.87769 469
-16135.52832 3575.55127 668.94745 463
-16021.42090 3549.62646 937.43506 474
-16069.57129 3666.14624 666.56317 463
-15954.26074 3640.25903 935.47906 475
-16002.86328 3754.31885 667.01587 464
-15888.80078 3728.22778 930.69678 475
-15936.47656 3845.59351 666.06958 464
-15826.09277 3816.87354 929.67462 476
-15871.33301 3932.50806 665.19373 465
-15761.11523 3907.02734 928.14551 477
-15808.42676 4021.35864 663.59955 466
-15695.82812 3993.26807 926.71832 477
-15743.09082 4106.70850 660.69116 466
-15632.16895 4079.86035 924.00061 478
-15679.46680 4193.18701 659.52106 467
-15567.80664 4165.17139 921.01410 478
-15614.20605 4282.77637 658.39215 467
-15507.66895 4252.43652 918.83441 479
-15551.83105 4368.61768 659.39014 468
-15442.46582 4336.41309 921.32330 480
-15487.06641 4453.34619 659.50958 468
-15383.92480 4421.09375 918.79559 480
-15422.89648 4539.23584 657.39423 469
-15318.90723 4508.89600 915.98901 481
-15358.14258 4623.59131 655.84460 469
-15258.49219 4591.36572 913.60510 481
-15296.61426 4704.77979 656.63611 470
-15196.28320 4676.68701 912.47034 482
-15237.32031 4790.11914 655.51105 470
-15134.25195 4761.18994 913.22888 482
-15172.33789 4872.74756 651.95569 471
-15073.91504 4843.29492 911.40344 483
-15111.10156 4955.78955 650.05750 471
-15014.58398 4924.36426 907.57324 483
-15049.11621 5041.43066 649.00354 471
-14952.53809 5007.42090 908.78430 484
-14985.07910 5125.15820 651.43726 472
-14893.74805 5089.66797 905.26648 484
-14928.06543 5205.78174 646.83563 472
-14832.61035 5173.57227 903.76776 484
-14864.58105 5288.20898 646.75763 473
-14772.22461 5253.35107 901.62299 485
-14805.80078 5369.45508 647.27704 473
-14712.48242 5334.95654 902.65948 485
-14742.42383 5449.88086 646.31213 474
-14651.65430 5417.71826 902.07916 486
-14684.55371 5533.49316 645.68591 474
-14590.85645 5497.81592 899.33502 486
-14623.71777 5614.44580 646.28790 474
-14534.26562 5579.52393 899.16260 487
-14562.90723 5693.42627 643.87000 475
-14477.47559 5658.46436 896.70691 487
-14504.87402 5771.58301 644.10229 475
-14415.27734 5735.93359 894.31677 487
-14441.58398 5855.01514 642.02655 476
-14355.26953 5819.28223 896.37891 488
-14386.52539 5932.68115 640.48401 476
-14298.16016 5898.62061 894.95135 488
-14325.72363 6014.46826 641.11005 476
-14239.40918 5976.82520 894.54553 488
-14268.53516 6091.43799 639.81812 477
-14183.81836 6058.30664 892.88782 489
-14209.22461 6170.78125 641.29016 477
-14127.73145 6134.37207 891.65234 489
-26298.48828 11382.39746 3912.96899 1000
-14149.23242 6247.47070 640.51013 477
-14065.56348 6213.39941 890.15875 489
-14751.69824 6512.72021 1191.70935 480
-14090.89648 6328.80029 638.84729 478
-14011.88965 6291.57227 887.94440 490
-14672.69922 6584.46680 1188.30811 481
-14033.61230 6407.38379 640.89459 478
-13954.82031 6368.40625 890.06757 490
-14596.47754 6662.63232 1189.25586 481
-13972.37207 6485.91895 639.56830 478
-13898.00000 6446.74268 888.20093 490
-14518.25000 6734.35693 1185.23767 482
-13913.91699 6562.59570 639.38153 479
-13837.68750 6527.36768 888.41272 491
-14440.91602 6806.20557 1184.42871 483
-13856.37695 6641.56592 636.02979 479
-13780.43262 6602.09326 885.76251 491
-14365.22949 6880.22119 1179.86108 483
-1798.40637 869.36108 65.28667 479
-13726.22559 6680.00732 886.08838 491
-14290.76270 6954.93555 1176.55457 484
-13742.01562 6794.32129 637.66534 479
-13665.92578 6758.94385 882.90106 492
-14216.80371 7027.53125 1175.89233 484
-13684.82031 6873.43213 637.96277 480
-13610.33984 6833.80225 885.93353 492
-14139.22070 7095.78027 1172.60925 485
-13625.26367 6949.24463 635.52795 480
-13556.75195 6910.73291 882.39209 492
-14076.95605 7176.13721 1171.06519 495
-13568.39844 7024.50586 634.44165 480
-13496.28711 6986.99121 882.31854 492
-14017.14746 7254.09912 1173.67273 496
-13513.66602 7102.78271 634.23602 480
-13443.80078 7062.82715 882.10645 493
-13959.12500 7332.06885 1171.73511 496
-13453.37500 7178.94727 635.71869 481
-13387.03711 7142.40625 881.24072 493
-13901.00684 7413.25928 1168.52795 496
-13399.19629 7256.60303 634.26105 481
-13328.18750 7216.27686 881.24951 493
-13842.13867 7493.47949 1169.85095 496
-13344.60059 7329.75586 631.64191 481
-13275.03027 7292.64893 880.06512 493
-13782.57031 7569.47168 1170.39929 497
-13284.05469 7404.41309 632.16400 481
-13219.48633 7369.50342 882.01300 493
-13722.23340 7649.20557 1166.62219 497
-13228.19824 7482.64160 633.62891 481
-13162.66504 7443.30908 880.09436 494
-13585.12012 7684.32178 1161.14453 445
-13171.83984 7556.62402 633.45801 482
-13106.38574 7519.55908 878.00568 494
-13515.02148 7750.70605 1158.55493 496
-13637.23438 7824.48633 1430.61914 497
-13115.09668 7635.67822 632.02838 482
-13051.67871 7597.07178 877.06592 494
-13455.53418 7831.24951 1160.83691 496
-13580.71484 7900.30469 1426.05078 497
-13058.77637 7709.92041 633.94391 482
-12996.12012 7672.70996 878.92590 497
-13399.84180 7909.44873 1159.94031 490
-13520.49805 7979.74902 1425.28784 497
-13002.61328 7783.37744 631.87323 482
-12940.09961 7746.33643 878.12280 497
-13344.77930 7987.41992 1155.95654 490
-13462.91895 8058.91211 1428.62012 498
-13574.57031 8124.64941 1700.43408 445
-12947.79004 7861.20459 631.58191 482
-12882.89844 7823.24756 877.73041 497
-13283.65820 8062.05322 1155.07373 438
-13401.15430 8133.96582 1425.38342 498
-13534.20312 8210.48145 1701.63135 491
-12889.45605 7935.26367 633.23840 482
-12829.15332 7899.24023 876.72650 497
-13305.96094 8189.36621 1161.45618 444
-13303.98047 8189.86572 1423.01721 443
-13302.61816 8186.83691 1678.26294 443
-12834.41211 8011.32129 629.38995 482
-12772.21484 7972.44775 876.63776 497
-13191.42871 8231.14453 1158.55310 445
-13187.87012 8226.79980 1414.39697 444
-13184.41602 8225.62598 1671.22290 444
-12777.55469 8085.74170 631.91211 483
-12719.91797 8049.15137 878.13263 497
-13075.28223 8270.51270 1152.63635 446
-13071.81738 8268.83594 1409.98145 445
-13069.39160 8268.58789 1666.11401 445
-12722.02344 8162.72559 633.28796 483
-12663.70996 8124.72363 878.49457 497
-12963.32031 8312.57422 1150.22717 447
-12961.15234 8309.81055 1404.36853 446
-12958.08398 8311.18652 1659.95471 446
-12665.46094 8233.82227 629.94440 483
-12610.59570 8197.12793 875.28839 497
-12903.19727 8387.65723 1145.80811 499
-12896.96289 8384.40820 1403.75781 498
-12891.00098 8377.35840 1656.45117 498
-13048.99609 8479.19336 1935.24329 439
-13046.72656 8481.54590 2193.12329 439
-12610.70898 8309.69141 631.63739 483
-12555.28906 8272.87305 876.06763 498
-12819.00391 8445.33203 1144.92224 499
-12814.61816 8442.49512 1397.72437 499
-12833.62109 8455.70215 1656.00232 498
-13085.69922 8619.26562 1944.23926 480
-12554.08301 8384.58691 630.14679 483
-12499.13965 8346.98242 875.38928 498
-12760.95410 8521.25195 1145.26746 499
-12754.63184 8516.91699 1396.92297 499
-12775.82910 8530.17480 1655.76868 498
-13027.94727 8699.89453 1947.60547 480
-13432.35449 8966.56641 2272.88062 402
-13429.39355 8962.53223 2540.90503 487
-12495.91211 8458.81055 629.72260 483
-12444.36133 8424.14160 876.11053 498
-12703.44043 8600.01758 1145.31677 499
-12699.85547 8594.59863 1400.29602 499
-12717.42090 8605.93652 1655.68616 499
-12971.32227 8773.28418 1944.72522 480
-12440.71484 8535.84961 631.23645 483
-12388.88379 8496.63477 876.06763 498
-12646.55762 8675.42188 1144.86963 499
-12643.72949 8668.51172 1399.01318 499
-12664.18457 8681.64648 1652.59167 499
-12911.12012 8854.05664 1945.57471 480
-12386.49219 8609.06836 629.01550 491
-12334.53711 8571.12598 875.59686 498
-12589.54297 8751.30273 1142.72437 499
-12583.92773 8746.08301 1396.21362 499
-12605.55176 8760.07422 1655.35779 499
-12851.44238 8929.27930 1942.28076 480
-12331.09668 8682.89355 630.74469 491
-12281.02051 8647.51758 874.52136 498
-12536.08301 8828.00195 1142.44421 499
-12530.62500 8822.66113 1395.73621 499
-12549.19043 8834.75488 1653.92688 499
-12792.42383 9005.16309 1945.36548 480
-12357.68457 8819.95117 385.88156 480
-12276.71387 8759.54395 632.03290 491
-12223.17285 8722.37598 877.17206 498
-12478.46289 8904.20410 1145.92883 499
-12474.02637 8899.56152 1398.55542 499
-12492.74512 8909.41016 1651.96936 499
-12736.71680 9084.47461 1941.87000 480
-12302.26953 8893.09570 385.68033 480
-12220.20605 8835.94434 630.69287 491
-12170.80078 8797.77832 875.84009 498
-12421.00000 8977.67188 1144.47888 499
-12417.61621 8971.91309 1395.49927 499
-12347.07422 8922.54004 1644.67041 348
-12678.68164 9162.95410 1943.26331 472
-38358.95703 27574.25781 7952.90039 1000
-12245.50488 8968.05371 385.03717 480
-12164.28418 8909.66113 631.73712 491
-12115.54395 8870.92871 877.23389 498
-12386.87305 9069.07812 1146.73254 499
-12383.63672 9065.65918 1400.51453 499
-12119.77637 8876.23926 1622.32788 349
-12621.35645 9240.43750 1943.71533 472
-12188.33203 9044.10156 382.75513 480
-12109.10254 8983.48242 630.39276 491
-12062.11621 8946.12891 876.27014 498
-12331.92773 9146.59375 1146.62854 499
-12324.29199 9140.80859 1401.38403 499
-12051.42676 8941.66504 1621.16113 499
-12562.79199 9313.63574 1945.32214 472
-12135.26758 9120.56250 383.64966 480
-12053.74707 9058.82422 629.40204 491
-12005.74512 9020.98145 876.11292 498
-12169.88281 9142.12305 1138.05261 427
-12087.03906 9082.24902 1379.25879 490
-11997.61719 9012.98438 1622.39514 499
-12508.97266 9392.36035 1943.57202 475
-12078.61230 9194.51562 385.98349 480
-11999.53418 9131.39746 631.32123 491
-11950.59375 9095.34180 875.96570 498
-12217.49902 9295.45117 1148.17188 499
-12061.86426 9181.18457 1385.12354 296
-11941.63965 9086.16309 1621.62415 499
-12449.57227 9472.26855 1944.21753 475
-12024.13574 9266.92578 385.82468 480
-11944.70801 9206.08887 633.69800 491
-11897.22656 9170.49512 875.95618 498
-12158.59375 9374.49805 1148.63855 499
-12156.83301 9367.22852 1400.43713 499
-11884.78125 9159.76953 1618.94678 499
-12393.44141 9549.69531 1943.84680 475
-11964.00000 9342.40625 385.68433 480
-11887.81152 9280.34668 630.20911 491
-11838.88672 9244.89355 876.70215 498
-12104.02148 9447.36133 1147.49060 499
-12097.76758 9442.81543 1401.72559 499
-11883.57812 9276.56250 1628.32556 341
-12334.52930 9629.50684 1943.05383 475
-11910.87988 9419.73145 386.86765 480
-11830.55664 9355.65137 631.12744 491
-11784.16113 9318.36230 876.27673 498
-12064.70508 9536.24902 1149.03394 458
-12055.00879 9532.76367 1400.34045 458
-12078.54688 9548.64844 1660.43164 454
-12282.85547 9710.69531 1944.52710 457
-11853.31641 9491.87988 385.49957 480
-11775.93750 9433.34863 631.25049 491
-11730.77832 9395.58203 876.45294 498
-12053.31250 9649.32812 1154.45215 477
-12045.86426 9643.82324 1407.79883 457
-12071.49805 9666.61230 1665.17371 453
-12252.33008 9807.44531 1949.15613 462
-11798.12402 9567.58496 384.15906 480
-11720.74805 9505.34180 634.31952 491
-11675.18848 9470.73047 876.77899 498
-12021.98828 9748.76270 1153.01941 476
-12037.10156 9757.93066 1414.08667 456
-12052.09570 9769.93652 1672.98584 356
-11740.51172 9642.05957 384.39822 480
-11667.43457 9581.17188 630.50677 491
-11620.37793 9545.62109 878.63470 498
-11987.81543 9846.89746 1157.43359 476
-12024.24707 9875.44043 1419.73621 456
-12032.05078 9876.98633 1677.12769 363
-11682.21680 9717.29102 383.65976 480
-11607.32422 9656.61426 633.74054 491
-11567.57910 9619.09180 877.99518 377
-11958.93750 9943.02441 1160.81628 475
-11993.91602 9972.30859 1422.66272 474
-11628.02246 9794.14062 387.66269 480
-11553.20508 9731.73730 631.86719 491
-11515.64844 9698.60742 878.10925 377
-11928.11621 10043.01367 1164.86804 475
-11570.93555 9867.49512 385.72269 480
-11499.94238 9806.32422 634.59094 491
-11465.63477 9777.29688 880.99872 377
-11894.63184 10144.12891 1165.06677 474
-1632.05029 1479.39746 58.49845 382
-11512.13965 9944.64355 387.52359 480
-11444.87402 9880.37988 634.40179 491
-11407.61816 9851.72266 878.37720 446
-1617.55640 1484.88428 58.76982 498
-1621.55005 1488.39771 95.66882 497
-1625.22119 1491.35168 133.07062 496
-11459.86816 10017.20703 387.34311 480
-11386.71582 9957.26074 632.84784 491
-11352.85840 9927.84180 880.69672 446
-1613.57043 1500.01575 58.58697 408
-11401.99609 10096.23242 387.61838 480
-11332.33301 10032.05957 634.32526 491
-11297.23047 9999.08301 880.73193 446
-11347.15430 10169.61426 385.53723 480
-11275.18457 10107.02734 633.61676 490
-11237.94336 10076.39160 881.60327 446
-13199.81445 11817.04004 1303.09766 1000
-11286.52539 10246.43750 387.87204 479
-11220.92773 10183.06250 634.91858 490
-11184.07812 10149.81348 880.04974 446
-11231.07129 10318.54785 387.23651 479
-11161.81641 10259.30762 636.21320 490
-11127.82227 10224.09961 882.62775 446
-11174.10547 10396.92676 387.11237 479
-11106.55664 10334.79590 637.50562 490
-11071.67773 10300.37598 882.23199 463
-11117.43555 10470.14648 388.11078 479
-11048.81152 10410.01367 636.85583 490
-11018.29102 10379.57129 883.17902 423
-11060.80859 10545.34668 387.83990 479
-10994.12891 10486.49121 636.02551 490
-10964.27734 10455.62891 882.97803 301
-11001.68262 10622.63574 389.56512 479
-10937.33496 10562.24609 637.64252 489
-10918.06543 10541.03223 886.18213 296
-10944.95898 10700.26758 387.29260 479
-10882.48340 10634.27539 636.61755 489
-10871.66992 10625.92188 885.75476 296
-10887.99316 10774.15137 389.43085 478
-10825.80469 10714.17188 640.02582 489
-10825.80371 10714.57520 888.40680 296
-10833.51465 10850.60449 390.00018 478
-10767.72363 10790.28613 637.95648 489
-11880.14551 11891.93750 967.47186 423
-10774.56543 10930.16113 388.83392 478
-10713.09863 10866.74316 640.20563 489
-11814.91016 11971.11621 965.88342 423
-10718.58789 11004.50781 387.84042 478
-10654.12695 10940.96484 639.75677 488
-11747.97461 12053.65625 967.42377 423
-10658.13477 11080.53418 392.14548 478
-10598.57812 11017.43945 640.95081 488
-11682.19434 12137.28613 967.06128 419
-10599.50781 11158.21680 389.79941 477
-10541.02832 11093.02734 639.69281 488
-11622.84473 12224.37891 972.19037 419
-10544.69824 11235.71484 392.28461 477
-10485.39941 11173.59082 643.46283 488
-11558.36914 12308.90918 971.88544 419
-10483.98633 11312.18457 390.80521 477
-10425.93848 11248.64648 640.10382 487
-11500.05078 12393.07910 973.43732 413
-10426.90527 11388.15527 391.00803 477
-10367.96094 11326.29004 644.54681 487
-10369.76074 11466.32910 393.20187 476
-10310.61719 11404.12695 644.25677 487
-10313.27441 11542.65234 390.63345 476
-10254.91309 11481.14355 644.63855 487
-10252.14453 11623.65723 390.70450 476
-10194.84961 11556.87500 646.04584 486
-10195.96680 11699.41895 395.05630 476
-10136.99219 11635.89941 644.30438 486
-10136.37500 11780.60938 395.29745 475
-10079.88184 11715.01953 647.82825 486
-10078.16016 11855.58789 395.46790 475
-10022.91602 11791.40039 646.42194 485
-10016.21582 11936.76758 395.03116 475
-9963.86230 11871.39453 646.95984 485
-9973.90918 11883.70996 901.53656 422
-9956.39746 12014.51953 392.75031 474
-9903.25488 11950.19629 649.66644 485
-9915.70117 11963.63574 905.25684 436
-9895.89746 12094.46094 394.18454 474
-9844.58594 12029.00195 651.15460 484
-9857.21191 12039.76758 906.26038 436
-9837.74121 12170.05664 396.39252 474
-9786.28613 12110.10645 648.92651 484
-9777.22754 12252.26074 394.61261 473
-9729.50586 12187.75684 650.38458 484
-9724.44238 12337.33496 395.56375 464
-9666.78516 12266.07520 652.97162 483
-9671.73047 12427.31543 398.48285 463
-9609.40039 12348.63477 654.04059 488
-9623.59570 12522.29395 397.91107 463
-9551.04395 12427.79492 654.09698 486
-9570.98047 12615.12500 398.41223 462
-9499.73438 12520.59277 654.65906 468
-9518.61426 12708.45312 398.86975 461
-9447.62598 12612.61133 656.88007 468
-9469.42285 12802.59668 399.68704 461
-9396.34766 12707.73535 656.39844 467
-9416.52930 12896.87109 400.13147 460
-9345.51172 12800.16016 658.51196 467
-9363.65137 12995.23633 401.15833 460
-9291.81543 12894.44727 660.26263 466
-9322.50488 13111.03223 404.53949 418
-9237.05176 12991.88965 664.50415 465
-9287.57617 13229.96680 403.14035 417
-9187.49414 13086.11133 666.58844 465
-9255.10254 13358.44043 406.84094 394
-9135.37793 13183.73633 666.19556 465
-9224.93066 13488.00977 405.63788 394
-9089.68652 13293.97949 668.09009 408
-9194.07422 13625.23633 409.98233 393
-9056.01953 13416.15137 673.56805 407
-9178.18457 13783.45020 411.78781 366
-9017.56934 13537.59668 675.60425 416
-9203.68945 14002.04492 415.27628 298
-8980.08691 13662.16309 676.61456 415
-8940.63281 13785.91016 680.47876 414
-8914.29102 13932.28027 681.39215 366
-8897.55566 14097.68945 687.42242 366
-8880.99121 14265.70117 692.67548 365
-8924.78223 14532.00781 698.46973 272
-23742.31445 49215.96875 159.82321 1000
-5180.62500 20275.67383 -2615.10034 1000
-0.49376 2310.81104 57.80596 349
14.75309 2293.07178 58.42305 399
27.36405 2321.25952 19.26265 365
28.90233 2278.15942 58.87116 400
43.39389 2258.64795 22.10705 345
43.00315 2264.42627 58.87752 401
56.18108 2297.53931 -17.38344 319
57.51977 2239.68774 23.34307 369
57.18694 2255.17212 59.06104 374
70.53717 2270.27393 -15.53511 416
71.23679 2225.72266 23.96825 425
71.15871 2247.41626 59.52514 373
84.68822 2255.24512 -14.38866 415
84.64723 2212.25024 24.69997 426
85.07543 2242.70386 59.88653 312
-55.80863 55288.97266 154.89021 1000
98.78523 2240.16089 -13.49231 416
98.28950 2200.95312 25.17112 448
98.42004 2234.53760 59.77632 332
112.50666 2228.13330 -12.81286 444
111.75512 2191.51343 25.22125 453
113.48232 2361.84375 56.01026 476
125.83112 2217.17676 -12.00445 445
125.22677 2181.74780 25.73100 454
128.13557 2365.35083 55.48642 377
138.78064 2207.09717 -11.35545 446
138.41187 2173.02734 26.31785 455
142.30933 2368.74927 55.62598 382
152.20848 2197.14307 -11.05751 447
151.17154 2164.49390 26.71492 465
157.12645 2374.93115 55.50590 327
165.42355 2187.61499 -10.14718 453
164.60359 2156.38892 26.86087 466
178.30742 2174.28711 -9.22501 309
177.17363 2149.27930 27.35348 445
191.20892 2158.31641 -8.72175 310
190.34877 2141.88281 27.45116 446
203.22752 2142.71094 -7.70032 310
202.71349 2135.34424 27.99439 446
215.74655 2130.21118 -6.61908 406
215.63498 2128.68457 28.22282 447
228.32504 2121.80835 -6.17864 414
228.28157 2122.66455 28.39065 452
233.44948 2200.59766 60.98460 486
240.73590 2113.92969 -5.53650 415
240.85999 2116.91016 28.56642 452
246.83551 2194.54541 61.01837 487
253.52171 2105.59937 -5.10886 415
253.65616 2110.79834 29.11997 453
259.71133 2189.30981 61.11824 487
265.37494 2098.29688 -4.94998 420
265.97797 2105.48022 29.37297 387
273.01935 2184.22266 61.08798 488
277.69592 2090.95239 -4.46935 420
278.74524 2101.61841 29.51857 389
288.66187 2209.00854 60.66596 311
290.56860 2084.81909 -4.38532 482
291.62625 2097.20190 29.64693 389
302.02353 2207.11694 60.53886 361
302.21362 2078.66772 -3.76813 483
303.92438 2093.34839 29.82518 389
322.44806 2275.20801 58.49889 489
314.92609 2073.45386 -3.88221 487
316.58411 2089.26685 29.52335 388
327.18790 2068.33521 -3.67558 488
329.24887 2084.87451 29.60176 389
339.52176 2062.98657 -3.10593 488
341.18295 2080.72607 30.18107 389
351.49615 2058.10864 -2.71527 488
353.91672 2076.34692 30.12654 389
363.56821 2150.36646 62.11576 326
363.56000 2052.82959 -2.82891 489
365.78745 2069.74927 30.66488 430
375.56696 2140.56396 62.44375 491
376.02942 2047.95911 -2.35802 489
378.25769 2066.08911 30.69358 430
389.15717 2144.63721 62.32584 311
394.17093 2179.04614 169.16647 376
387.95279 2043.25708 -2.62511 490
390.72290 2062.24023 30.38401 430
409.63217 2189.97046 96.75326 422
409.50500 2190.11084 132.94133 492
406.27823 2168.50317 169.07744 497
399.74890 2037.82202 -2.07248 490
402.74924 2058.34106 30.40647 431
420.38998 2174.16528 97.22923 492
419.50241 2166.89111 168.84860 497
412.10019 2032.80457 -2.00215 490
415.56213 2054.69971 30.59350 444
434.54462 2175.22461 168.92514 367
423.80234 2028.27515 -1.51755 491
427.64816 2050.67871 30.58711 449
435.75974 2023.14355 -1.82742 491
440.26501 2050.38843 30.89861 448
465.01367 2194.99951 242.55359 493
447.54855 2018.19824 -1.52091 491
453.12079 2049.32446 30.55537 448
457.18149 2070.56152 63.79573 494
459.49231 2013.67651 -1.29516 492
465.33078 2043.65112 30.85468 313
469.14087 2066.02930 63.98410 494
491.09158 2186.34106 96.63271 493
471.40720 2008.60400 -1.33216 492
483.45068 2070.90991 29.33215 494
483.04788 2069.45654 64.01022 292
483.30261 2003.24927 -1.03104 492
496.97031 2071.91919 29.37264 330
509.40164 2137.19434 61.40569 298
495.04187 1998.97437 -0.60547 493
545.76550 2247.83496 20.48379 380
536.08215 2202.10278 59.36264 303
2777.15137 13255.42285 1244.99463 1000
507.11548 1994.00476 -0.68231 493
559.06531 2243.59546 20.55128 381
518.45416 1989.15198 -0.76136 494
566.59943 2211.58203 21.68269 406
530.38940 1984.35144 -0.33868 494
585.96783 2234.13379 20.38576 381
541.83337 1979.69250 -0.01609 494
557.97137 2048.50098 29.34936 400
557.51227 2047.92981 64.06608 496
561.29407 2006.71777 -36.07674 454
553.41083 1975.04504 -0.40583 494
590.28113 2131.22949 25.08353 280
575.34094 2066.18066 167.76393 499
576.60687 2073.23071 202.68057 496
572.66278 2001.70691 -35.74729 454
565.25073 1970.60278 -0.04293 495
625.77094 2220.44312 20.32985 381
618.66895 2191.16699 59.03579 398
615.85803 2179.27515 96.29831 390
615.64282 2178.10864 133.01833 497
607.57520 2145.77686 169.04910 423
584.59052 1996.56616 -35.80928 454
576.87146 1965.60205 0.18801 495
639.15497 2215.44629 20.53054 381
596.40356 1991.74756 -35.62477 455
588.58563 1961.14514 0.37219 495
652.11322 2210.79517 20.73221 381
607.97449 1986.46460 -35.45483 455
600.18683 1956.54065 0.18509 495
665.44647 2206.35107 20.63949 326
619.54675 1981.48486 -35.49794 455
611.97467 1951.83276 0.15077 495
678.81702 2202.31299 20.89970 326
631.11755 1976.28699 -35.53447 455
623.64752 1947.15149 0.26257 496
692.09363 2198.34644 20.58996 326
642.89313 1971.32654 -35.06243 455
634.91394 1942.26709 0.39474 496
705.93915 2194.73999 21.05840 326
654.39966 1966.17505 -34.74755 455
646.49390 1937.69983 0.47464 496
719.07581 2190.68604 21.10235 326
666.11951 1961.61047 -35.08117 456
657.75507 1933.19263 0.61298 496
732.18652 2186.68042 21.05337 326
677.42053 1954.59839 -34.86507 327
669.19641 1928.33167 0.79204 496
745.57294 2182.58008 21.03531 326
688.81744 1948.59277 -34.39243 327
680.73578 1924.00598 0.85212 496
759.51941 2178.68921 20.93707 326
699.63928 1942.78833 -34.18755 327
692.12292 1919.02710 0.57902 496
710.92114 1936.62732 -33.80428 328
703.74200 1914.94397 0.72796 497
785.06775 2166.78638 20.91855 418
721.99243 1930.92627 -33.85257 328
715.16077 1910.14551 1.19128 497
759.43768 2044.32812 27.15218 499
758.87225 2043.34143 62.22670 473
733.28143 1925.16907 -33.51486 328
726.56171 1905.65784 0.88690 497
810.43762 2154.90015 20.84962 375
744.71124 1919.63525 -33.64401 328
738.08551 1900.58789 1.06889 497
799.04382 2079.21069 60.96009 383
757.65369 1918.81970 -34.14589 329
750.23071 1897.85168 1.00524 490
762.90820 1897.36548 0.72349 463
776.16516 1896.52966 0.38195 462
788.80109 1896.05054 0.36061 462
801.83337 1895.75769 -0.35975 391
898.79462 2113.44360 -15.84625 468
913.88361 2113.28516 -16.37129 330
35677.42578 37223.23438 -3164.28394 1000
1075.12061 790.87714 -32.68728 314
1071.35535 778.14270 -31.39697 482
1074.77356 780.66595 -10.95750 443
1078.32971 783.19330 9.58471 445
1082.27246 786.68109 29.81638 312
49180.88672 38613.79297 2260.82422 1000
1074.73694 770.82104 -31.00957 499
1077.61108 772.73474 -10.59086 499
1080.44128 775.01599 9.76728 498
1083.12952 777.05249 30.41248 498
1080.51538 765.44891 -31.49525 459
1083.94153 768.29803 -10.88012 458
1087.99536 770.88593 9.49707 405
1091.74011 764.19611 -32.38886 338
4082.89478 834.23486 -132.40501 295
4072.96655 807.56592 -131.81328 295
4268.17432 846.94757 -74.88803 305
4076.09033 782.09161 -130.99193 414
4262.41406 818.99310 -73.36839 498
4100.81934 761.80737 -132.20392 414
4267.12744 792.84082 -73.52853 353
4124.45020 740.63031 -133.89058 410
4408.97363 793.05139 -80.42495 469
4148.20459 719.46515 -134.89110 403
4391.96973 762.30841 -79.71758 444
4176.09619 697.65509 -136.89761 383
4224.71533 706.12701 -71.40271 415
4206.89258 677.64948 -138.90877 380
4215.87012 678.19733 -71.20603 306
4240.77490 656.71429 -140.37756 370
4220.44043 652.94708 -70.52831 388
4282.55469 636.61121 -143.35893 343
4251.08838 631.73407 -71.87186 401
4337.35059 618.31360 -146.48532 342
4292.75977 612.17096 -73.70559 367
4394.50928 599.38330 -149.74307 350
4350.52002 593.58832 -77.18174 355
4447.88623 580.55426 -153.06181 349
4411.31445 574.98016 -79.57668 376
4509.46875 560.53955 -157.52097 351
4473.98877 556.00433 -82.57897 351
4571.05518 540.94745 -160.51216 349
4536.52588 535.93463 -85.86066 351
4639.41113 520.32904 -165.26306 342
4602.02783 515.53351 -88.05751 349
2845.82642 9.25715 -92.27224 493
2853.50269 8.90282 -47.52173 495
2850.68262 -7.78744 -93.38437 432
3800.09790 -632.29535 -113.63046 492
3810.07178 -633.47137 -52.79745 498
34981.25781 -6832.44824 -442.44489 1000
4721.70947 -1054.54834 -99.90485 357
4692.16211 -1078.89490 -99.37729 473
4674.17822 -1103.39844 -98.45111 480
4654.55225 -1128.21240 -97.58118 481
4637.47998 -1154.25171 -97.01774 486
4621.22217 -1179.33752 -97.36550 469
4606.59082 -1205.08630 -97.36263 469
4592.41357 -1230.83826 -96.83055 472
4578.97754 -1257.18445 -96.09698 442
4567.27734 -1284.29968 -95.39582 442
4666.78418 -1312.68848 55.07880 289
4554.64746 -1310.10132 -96.04089 419
4647.31689 -1337.21912 -22.32232 313
4589.43457 -1320.51404 55.49953 428
4544.40234 -1336.41956 -95.69768 419
4570.84375 -1343.99854 -19.85971 499
4579.74268 -1347.83679 56.51196 428
4532.49365 -1362.46558 -95.45884 419
4562.17920 -1371.68823 -20.32000 499
4569.56738 -1374.94397 55.63378 428
4522.19727 -1389.36157 -94.81742 420
4553.00146 -1398.91724 -20.55694 499
4560.68848 -1402.20703 56.70176 428
4511.58740 -1416.37732 -95.00289 420
4538.49707 -1424.16040 -19.85985 499
4551.33008 -1429.08875 56.31171 428
4500.52295 -1442.28748 -94.69373 421
4530.34814 -1452.67224 -20.60528 499
4540.87402 -1456.23413 56.47256 428
4491.14014 -1469.70996 -94.78017 421
4521.10107 -1478.99170 -20.44615 499
4514.01758 -1477.29736 56.40648 345
4481.67432 -1495.54260 -95.81548 421
4512.52734 -1506.66785 -20.61287 499
4504.35303 -1503.81689 56.53622 480
4471.61084 -1522.20374 -95.15849 421
4509.08643 -1535.48047 -20.07006 499
4495.28418 -1531.10242 56.00802 480
4462.18066 -1549.00342 -95.83308 421
4500.26270 -1562.85999 -20.14741 499
4486.90186 -1558.41345 56.34378 480
4452.46631 -1576.29907 -95.33395 447
4490.66064 -1589.72656 -20.03829 499
4478.10791 -1586.24292 55.78738 480
4591.77148 -1626.24573 132.00366 434
4442.98096 -1603.39270 -94.95371 447
4482.52441 -1617.28723 -21.22718 499
4468.96973 -1612.27429 56.39635 480
4575.05566 -1652.58423 132.29561 469
4434.83496 -1630.50513 -95.27071 447
4465.83643 -1642.15869 55.63588 440
4424.42090 -1657.06604 -95.45342 447
4590.40918 -1720.64917 133.12340 462
4415.07617 -1683.62939 -95.78343 446
4581.77881 -1749.51587 132.02979 408
4406.52979 -1710.54590 -95.58016 446
4667.25684 -1847.92078 -110.10368 499
4658.24072 -1876.36841 -110.38687 499
4649.08203 -1904.63293 -110.21983 499
4368.37939 -1818.68896 -95.54164 479
4359.63867 -1846.62061 -96.09624 479
4350.20703 -1873.35156 -96.13629 479
4340.98193 -1899.99365 -96.85173 479
4331.90918 -1927.24548 -96.51337 479
4521.90967 -2013.59204 -26.45590 428
4327.43164 -1956.85486 -96.48406 437
4419.98242 -2000.22302 -23.52014 482
4359.52734 -2003.93298 -99.00778 497
4402.19336 -2023.03809 -23.71924 460
4387.06055 -2048.39014 -101.11672 437
4388.22949 -2050.10669 -23.16007 487
3030.07397 -2056.60010 -103.32980 290
3037.02124 -2061.14331 -44.22030 494
3028.93091 -2082.74390 -103.99128 296
2158.03394 -1930.95007 -53.22110 372
2131.98584 -1929.17004 -52.11222 377
2120.18384 -1918.37219 -5.46449 388
14740.76562 -13877.12207 2451.71338 1000
2100.54443 -1923.63318 -50.01199 377
2090.22046 -1913.43994 -3.99267 389
2070.86475 -1918.55701 -48.54490 379
2060.68848 -1908.13086 -2.31429 391
2040.81470 -1912.40747 -47.17516 378
2031.54663 -1903.58508 -1.12794 392
2011.14941 -1907.13318 -45.24662 379
2003.06714 -1899.01672 -0.37192 393
1982.66577 -1901.25500 -44.07871 380
1975.40308 -1893.76660 0.92029 395
1954.89624 -1896.68799 -41.94495 376
1948.06274 -1889.21228 2.13394 395
1928.19849 -1892.05066 -41.08241 377
1920.46204 -1885.03711 3.30399 395
1902.15112 -1888.67773 -39.46124 378
1894.49097 -1880.18274 4.21806 397
1876.08936 -1884.43579 -37.83525 379
1867.89075 -1875.62244 5.03339 397
1850.06946 -1879.27637 -36.76434 372
1841.66833 -1870.87158 6.11538 401
1823.33752 -1873.69104 -35.11926 373
1816.64966 -1866.52466 6.83764 402
1798.35559 -1869.15454 -33.88925 373
1791.44604 -1862.42249 8.02506 403
1773.71436 -1865.51001 -32.63528 376
1768.03064 -1858.65051 9.09243 414
1773.05200 -1865.10461 49.82863 406
1750.80371 -1862.90417 -31.16806 388
1746.48828 -1857.34900 10.05153 433
1751.37158 -1863.54077 50.25574 435
1729.20105 -1861.58289 -30.73439 399
1726.63647 -1857.99585 10.67150 444
1730.72974 -1863.22266 50.49458 440
1709.44287 -1861.48682 -29.38287 401
1707.34753 -1859.31750 11.28018 452
1718.31702 -1872.09497 50.71508 491
1690.21387 -1862.88367 -28.58899 405
1689.36182 -1861.49854 11.47227 457
1706.02710 -1881.12390 50.64211 488
1672.16260 -1864.81702 -28.16977 410
1671.76526 -1863.44006 11.97698 455
1702.07300 -1899.61316 50.63403 426
1654.56348 -1866.68140 -27.35353 416
1654.34009 -1866.21631 12.47829 439
1698.45190 -1918.91028 49.76271 426
1637.52026 -1869.72009 -26.80983 417
1637.20276 -1868.90234 13.05109 426
1694.77466 -1938.39856 49.44699 425
1620.88086 -1872.72998 -26.40634 421
1621.00525 -1872.62573 13.54362 470
1691.18652 -1958.58154 49.51849 424
1604.96521 -1875.52087 -25.63336 422
1605.65747 -1877.29126 13.89981 475
1686.60791 -1978.33887 48.48178 423
1588.92200 -1879.52368 -25.60697 431
1590.48889 -1881.99146 14.03617 468
1683.28186 -1998.72302 48.05052 422
1573.50867 -1884.03577 -24.70227 435
1575.60388 -1887.06018 13.85911 457
1678.84851 -2018.81030 48.04417 421
1558.71582 -1888.78503 -24.42788 435
1561.08252 -1892.01904 14.51408 457
1674.73389 -2039.00684 47.43146 420
1544.23267 -1893.52771 -24.05003 436
1546.52869 -1896.94385 14.90588 458
1670.89026 -2059.67700 46.97924 419
1529.43372 -1898.52234 -23.69769 436
1532.74170 -1902.38953 14.86020 461
1514.52417 -1903.11267 -23.37049 436
1518.04004 -1908.02942 15.17304 445
1499.97839 -1907.90686 -23.46011 440
1504.32385 -1914.06421 15.25186 423
1485.70471 -1912.60132 -22.93792 445
1491.05212 -1920.11475 15.35158 423
1471.40979 -1917.33472 -22.96605 453
1477.46960 -1925.76428 15.70411 453
1457.01294 -1922.98840 -22.22063 467
1464.25537 -1932.50537 15.82018 453
1443.52075 -1928.67517 -22.28422 472
1452.65039 -1941.32288 15.80095 332
29685.45703 -55617.93359 -10341.50098 1000
4500.37598 -12180.50391 1606.69727 1000
9.04722 -3113.40576 128.39676 431
9.12136 -3112.09448 179.65810 475
9.03212 -3112.01221 230.31255 497
-215.74922 -4053.09424 -681.61249 1000
-327.86121 -2481.95337 46.80884 452
-327.82788 -2481.24170 88.28327 488
-327.66461 -2480.52393 129.01822 488
-327.06763 -2479.60522 170.64645 499
-327.23071 -2479.28540 211.75728 499
-327.01328 -2479.05054 252.99655 487
-9705.08301 -47086.03516 -3076.90356 1000
-643.94415 -1835.39136 97.41648 306
-642.75366 -1832.22168 129.93941 379
-641.88098 -1830.52612 162.10420 439
-641.12744 -1828.27441 194.52045 480
-640.44812 -1827.00073 226.87987 480
-654.96661 -1830.49292 32.81363 411
-655.05145 -1830.63611 65.17469 411
-655.73145 -1831.79175 97.72571 269
-8340.21387 -16638.52344 3824.12500 1000
-10931.61523 -20186.68164 -4075.83740 1000
-108.41964 -298.64987 197.85040 1000
-49618.03906 -25957.57617 -8207.26367 1000
-3815.54688 -1954.47571 131.03830 490
-3826.78369 -1959.88965 202.42958 335
-3177.50928 -1611.27966 131.02242 488
-3184.28809 -1613.68359 190.60780 400
-2566.55688 -1290.55566 131.45387 432
-2572.03955 -1293.22693 179.29521 369
-2575.85303 -1275.08936 131.34184 418
-62523.62891 -19163.43750 1192.08374 1000
89.56187 -3.18034 127.84464 257
89.55999 -3.18115 128.10599 257
89.55817 -3.18065 128.36575 257
88.47903 -3.43039 128.38774 302
90.14471 -2.96401 127.99492 378
90.14268 -2.96413 128.24615 379
89.67841 -3.06865 128.38544 306
88.51705 -3.33370 128.38713 302
90.24588 -2.85975 128.01140 379
90.24805 -2.86053 128.26460 380
89.71676 -2.97948 128.38629 306
88.55242 -3.23403 128.38791 302
90.34758 -2.76028 128.02986 381
90.34786 -2.75912 128.27917 381
89.75474 -2.88512 128.38683 306
88.59122 -3.13743 128.38498 302
90.44703 -2.65975 128.04549 382
90.44695 -2.66006 128.29402 383
89.79576 -2.79668 128.38507 306
88.63113 -3.03812 128.38739 302
90.54660 -2.56121 128.06232 383
90.54647 -2.56058 128.30920 384
89.83338 -2.70388 128.38640 306
88.66771 -2.93804 128.38730 302
87.31181 -3.21039 128.38646 298
90.64565 -2.46081 128.07701 384
90.64609 -2.46288 128.32442 385
89.87462 -2.61266 128.38696 306
88.70940 -2.83816 128.38687 302
87.35203 -3.10526 128.38567 298
90.74227 -2.36485 128.09189 386
90.74307 -2.36390 128.33727 386
89.91634 -2.52028 128.38672 306
88.74931 -2.74097 128.38654 302
87.39070 -2.99750 128.38687 298
90.83990 -2.26993 128.10814 387
90.83821 -2.26836 128.35173 387
89.95985 -2.43064 128.38710 306
88.79066 -2.64218 128.38608 302
87.43265 -2.88896 128.38640 298
90.93381 -2.17411 128.12047 388
90.93529 -2.17219 128.36583 389
90.00291 -2.33759 128.38675 306
88.83282 -2.54318 128.38702 302
87.47332 -2.78098 128.38571 298
91.03018 -2.07894 128.13614 389
91.02915 -2.07856 128.37750 390
90.04556 -2.24727 128.38608 306
88.87407 -2.44298 128.38628 302
87.51186 -2.67406 128.38519 298
91.12156 -1.98438 128.14955 391
91.10538 -1.98709 128.38713 310
90.08909 -2.15569 128.38654 306
88.91622 -2.34600 128.38728 302
87.55436 -2.56559 128.38747 298
91.21535 -1.89312 128.16167 392
91.14996 -1.90112 128.38602 310
90.13226 -2.06098 128.38618 306
88.96239 -2.24768 128.38757 302
87.59917 -2.46116 128.38573 298
91.30746 -1.80048 128.17381 393
91.19465 -1.81688 128.38654 310
90.17710 -1.96943 128.38557 306
89.00647 -2.14664 128.38721 302
87.64164 -2.35134 128.38618 298
91.36125 -1.71386 128.17812 471
91.24029 -1.73257 128.38739 310
90.22186 -1.87949 128.38524 306
87.93248 -2.20929 128.14241 346
87.68503 -2.24412 128.38560 298
86.07822 -2.47807 128.38785 294
91.38281 -1.63325 128.16991 472
91.28874 -1.64775 128.38574 310
90.26762 -1.78834 128.38649 306
87.68642 -2.14537 128.07899 344
87.68533 -2.14516 128.37740 345
86.12218 -2.36211 128.38547 294
91.40517 -1.55172 128.16399 473
91.33592 -1.56038 128.38585 310
90.31694 -1.69503 128.38774 306
87.43118 -2.07669 128.01466 343
87.43404 -2.07496 128.31926 343
86.16563 -2.24448 128.38654 294
91.42688 -1.47015 128.15764 473
91.38161 -1.47531 128.38698 310
90.36292 -1.60515 128.38542 306
87.16929 -2.00513 127.94630 342
87.17001 -2.00592 128.25494 342
86.21310 -2.12710 128.38600 294
91.44901 -1.38787 128.15102 474
91.43057 -1.39033 128.38672 310
90.41117 -1.51303 128.38722 306
87.06184 -1.91245 127.91418 442
87.06126 -1.91230 128.22386 442
86.25621 -2.00898 128.38509 294
91.47200 -1.30591 128.14404 474
91.47092 -1.30514 128.38521 475
90.45695 -1.42109 128.38571 306
86.96559 -1.81450 127.88461 441
86.96506 -1.81728 128.19679 441
86.30389 -1.89123 128.38730 294
91.49305 -1.22326 128.13496 475
91.49216 -1.22323 128.37785 476
90.50757 -1.32916 128.38614 306
86.86795 -1.71826 127.85202 440
86.86817 -1.71788 128.16611 440
86.35085 -1.77440 128.38565 294
91.51586 -1.14133 128.12856 475
91.51604 -1.14247 128.37199 476
90.55508 -1.23833 128.38528 306
86.77071 -1.62119 127.81760 439
86.77114 -1.62035 128.13753 439
86.39901 -1.65717 128.38474 294
91.53782 -1.05783 128.12170 476
91.53848 -1.05904 128.36363 477
90.60608 -1.14483 128.38759 306
86.67178 -1.51651 127.78587 302
86.67081 -1.51769 128.10919 438
86.45085 -1.53981 128.38608 294
91.55873 -0.97421 128.11427 476
91.55996 -0.97409 128.35732 477
90.65678 -1.05384 128.38582 306
86.71955 -1.40355 127.78607 302
86.56443 -1.41586 128.07941 437
86.49871 -1.42239 128.38669 294
91.58248 -0.89068 128.10559 477
91.58141 -0.89024 128.35007 478
90.70866 -0.96278 128.38559 306
86.76953 -1.28600 127.78874 302
86.46270 -1.31272 128.04822 436
86.46191 -1.30953 128.36964 437
91.60535 -0.80609 128.09868 477
91.60342 -0.80721 128.34206 478
90.75943 -0.87061 128.38663 306
86.81965 -1.16874 127.78612 302
86.35681 -1.20748 128.01567 436
86.35404 -1.20739 128.34280 436
91.62765 -0.72309 128.09081 478
91.62758 -0.72419 128.33507 479
90.81208 -0.77996 128.38553 306
86.87126 -1.05417 127.78732 302
86.29119 -1.09664 127.99207 490
86.29095 -1.09674 128.32127 491
91.65033 -0.63761 128.08145 478
91.64910 -0.63934 128.32668 479
90.86471 -0.68957 128.38802 306
86.92326 -0.94120 127.78879 302
86.25962 -0.98020 127.97387 490
86.26069 -0.98211 128.30486 491
91.67346 -0.55454 128.07408 479
91.67246 -0.55509 128.31900 480
90.91708 -0.59765 128.38548 306
86.97568 -0.82231 127.78680 302
86.22623 -0.86808 127.95731 490
86.22672 -0.86425 128.28802 490
91.69452 -0.46875 128.06622 479
91.69460 -0.46949 128.31303 480
90.97166 -0.50452 128.38542 306
87.03018 -0.70754 127.78947 302
86.19748 -0.75051 127.94117 489
86.19691 -0.75119 128.27336 490
91.71770 -0.38274 128.05841 480
91.71757 -0.38394 128.30333 481
91.02752 -0.41420 128.38716 306
87.08184 -0.59132 127.78866 302
86.16493 -0.63301 127.92350 489
86.16377 -0.63459 128.25916 490
91.74023 -0.29729 128.04991 480
91.74075 -0.29739 128.29504 481
91.08193 -0.32421 128.38612 306
87.13710 -0.47736 127.78699 302
86.13253 -0.51803 127.90562 489
86.13354 -0.51426 128.24123 489
84.99682 -0.56346 128.38556 290
91.76411 -0.21258 128.03999 481
91.76316 -0.21170 128.28824 482
91.13895 -0.23190 128.38658 306
87.19223 -0.36104 127.78812 302
86.10458 -0.39769 127.88935 488
86.10164 -0.39944 128.22472 489
85.05475 -0.43450 128.38823 290
91.78782 -0.12614 128.03200 481
91.78628 -0.12506 128.27956 482
91.19510 -0.14195 128.38548 306
87.24760 -0.24683 127.78635 302
86.06937 -0.27796 127.87273 488
86.06848 -0.27948 128.21046 489
85.11234 -0.30435 128.38522 290
91.81163 -0.03797 128.02325 481
91.80910 -0.03981 128.27122 482
91.24922 -0.05099 128.38748 306
87.30382 -0.13210 127.78600 302
86.03779 -0.15665 127.85337 488
86.03930 -0.15730 128.19173 488
85.16737 -0.17566 128.38672 290
91.80666 0.04701 128.00737 484
91.80932 0.04750 128.25554 485
91.30885 0.03920 128.38722 306
87.36366 -0.01614 127.78698 302
86.00517 -0.03423 127.83736 487
86.00567 -0.03667 128.17732 488
85.22714 -0.04444 128.38719 290
91.78580 0.13556 127.98497 483
91.78592 0.13447 128.23592 484
91.36552 0.13208 128.38716 306
87.42063 0.09991 127.78888 302
86.01799 0.08707 127.82918 486
86.01905 0.08914 128.16943 487
85.28784 0.08028 128.38689 290
91.76180 0.22140 127.96472 483
91.76175 0.22270 128.21628 484
91.42500 0.22293 128.38667 306
87.47990 0.21410 127.78889 302
86.05347 0.21051 127.82431 486
86.05129 0.20868 128.16562 487
85.34769 0.20804 128.38698 290
