# .PCD v.7 - Point Cloud Data file format
VERSION .7
FIELDS x y z rgb
SIZE 4 4 4 4
TYPE F F F U
COUNT 1 1 1 1
WIDTH 1297
HEIGHT 1
VIEWPOINT 6916.437012 -2588.521484 130.497742 -0.613342 -0.118670 -0.085337 0.776174
POINTS 1297
DATA ascii
85.82469 1.30717 128.38640 314
85.79044 1.37504 128.38731 314
85.75671 1.44412 128.38696 314
85.72379 1.51096 128.38620 314
85.69154 1.58020 128.38699 314
85.65833 1.64773 128.38658 314
85.62840 1.71566 128.38712 314
85.59624 1.78533 128.38678 314
85.56536 1.85266 128.38705 314
85.53487 1.92061 128.38753 314
85.50568 1.99053 128.38707 314
-16671.08398 2532.96997 686.56085 453
-16599.68750 2625.14893 688.58179 463
-16503.01367 2612.06519 960.00513 474
-16537.91406 2721.86279 686.82635 464
-16442.45117 2706.52661 957.18829 475
-16477.78711 2814.61987 682.32214 464
-16378.16602 2801.05981 953.75946 476
-16412.00781 2908.54321 683.27588 465
-16315.18848 2891.57617 953.26697 476
-16354.04297 3002.19312 680.19958 465
-16256.70605 2985.67432 948.83197 477
-16290.86523 3096.91089 677.05920 466
-16196.68457 3078.30298 944.93451 478
-16230.52637 3188.09082 674.99652 466
-16136.87793 3168.96411 944.52209 478
-16170.33984 3278.81714 673.41046 467
-16074.53516 3262.44019 940.75153 479
-16108.16992 3372.51343 673.64777 467
-16018.53613 3351.12427 940.21429 479
-16048.55469 3463.76221 672.50409 468
-15959.14551 3443.29468 939.77167 480
-15991.19434 3551.68262 672.51678 468
-15900.02734 3532.01831 937.67749 481
-15931.85352 3644.33398 668.95599 469
-15841.40723 3624.59399 936.01788 481
-15871.21484 3731.01831 667.19366 469
-15784.75586 3714.69385 933.34589 482
-15812.58398 3823.26245 668.83258 470
-15725.43164 3801.80811 930.24445 482
-15753.85840 3912.35742 664.58331 470
-15666.89453 3891.42603 928.55194 483
-15696.90527 3999.12256 665.39630 471
-15609.51172 3980.42407 927.99567 483
-15638.81738 4088.16650 664.91913 471
-15553.37305 4064.71094 924.70264 484
-15580.84375 4174.67676 660.43536 472
-15495.79785 4156.13086 921.94397 484
-15520.77344 4264.97900 661.61603 472
-15442.41797 4242.91943 920.63702 485
-15465.43555 4350.64941 661.88660 473
-15381.86914 4330.29785 921.79089 485
-15406.37207 4438.26709 659.66791 473
-15328.67188 4415.47363 918.21008 488
-15351.94629 4526.92627 657.67847 474
-15272.96191 4502.18311 917.55200 488
-15295.27539 4611.60059 657.91443 474
-15214.62695 4587.95068 917.82941 489
-15239.72168 4699.24072 656.60217 474
-15162.16406 4672.52832 915.95544 489
-15183.29102 4783.04639 652.73792 475
-15104.42578 4757.17285 914.99860 490
-15124.83594 4866.15918 654.11688 475
-15049.62891 4841.79639 913.33716 490
-15070.90137 4954.32178 650.96442 476
-14994.23340 4928.46484 909.62354 490
-15011.94629 5038.44482 650.74463 476
-14940.59082 5013.21875 907.49359 491
-14957.35156 5121.75586 649.61609 476
-14887.99805 5095.95703 909.65930 491
-14901.58691 5203.55420 650.30499 477
-14833.29492 5182.69043 908.25452 492
-14847.68066 5290.23730 648.25732 477
-14777.71387 5263.08740 905.72040 492
-14793.62598 5373.11816 649.99701 477
-14725.36719 5346.38525 901.94769 492
-15452.63086 5613.51514 1212.98547 479
-14736.16211 5455.09912 647.72070 478
-14669.23535 5430.98975 903.14679 493
-15376.08789 5693.21240 1208.94263 480
-14682.10254 5538.99512 645.77771 478
-14618.10059 5514.17529 900.48877 493
-15299.19043 5772.87598 1209.24573 480
-14628.93066 5623.96240 643.90112 478
-14562.08789 5595.32764 898.34943 493
-15227.01367 5853.44727 1203.19531 481
-14572.52246 5702.64258 644.49786 479
-14510.56836 5679.83838 898.14758 494
-15153.13281 5928.56055 1202.00195 482
-14517.29102 5788.33301 642.44122 479
-14457.02246 5762.95264 897.58228 494
-15078.58691 6011.06152 1198.97205 482
-14464.25781 5867.51367 642.65491 479
-14403.70801 5843.72998 898.13831 494
-15006.51758 6086.13916 1196.08997 483
-14412.55762 5953.18066 641.72339 480
-14350.57715 5924.64258 895.60321 460
-14934.22363 6168.92188 1193.18701 483
-14454.57715 6074.15479 385.62259 477
-14355.66309 6032.06006 640.83472 480
-14298.83691 6009.03955 896.68500 461
-14860.32617 6245.00732 1191.12793 484
-14402.63184 6155.40771 386.35101 477
-14302.57812 6115.53027 642.43079 480
-14247.22559 6091.41553 892.58972 461
-14797.60742 6324.30566 1188.61621 495
-14348.93066 6238.93457 386.72006 477
-14247.12793 6195.76758 641.24774 480
-14192.92773 6172.11084 892.18011 461
-14743.23633 6409.79883 1190.16443 495
-14293.83496 6318.45020 386.06760 478
-14194.20215 6275.16602 639.19977 481
-14140.41992 6252.53613 891.89337 422
-14683.71973 6494.54932 1188.48828 495
-14238.98926 6400.53760 384.17963 478
-14141.08398 6359.57520 637.14679 481
-14089.11523 6335.28760 890.50861 422
-14629.03125 6574.37305 1184.57190 496
-14184.40918 6483.59961 385.20264 478
-14090.65332 6439.13428 637.77057 481
-14040.43945 6415.55127 889.14716 422
-14575.69141 6659.17480 1186.59570 496
-14131.11328 6562.68555 386.16318 478
-14036.43750 6522.05029 638.81213 481
-13987.26270 6499.55127 889.74048 422
-14521.08301 6744.26904 1185.21460 496
-14077.14648 6642.88916 383.28079 479
-4809.37354 2254.59595 172.82524 489
-13934.64453 6577.26904 889.91693 422
-14464.56543 6825.64111 1182.00342 496
-14021.83594 6725.70996 385.75717 479
-13928.27148 6682.20947 636.05444 490
-13882.74902 6661.64746 888.68701 422
-14408.68457 6910.03125 1179.44153 497
-13969.66016 6807.56299 382.88013 479
-13875.30762 6759.12305 636.85089 490
-13833.92969 6742.91016 887.01233 423
-14255.50488 6945.37256 1174.60144 495
-13917.10352 6887.48926 381.94092 479
-13824.57715 6843.37305 636.32605 490
-13782.42285 6823.64258 885.93591 423
-14202.92871 7030.80859 1172.79858 490
-14333.21289 7093.91895 1444.44055 497
-13861.29883 6969.09668 383.46155 479
-13770.45117 6919.63867 637.18878 490
-13732.57031 6902.51318 886.95837 423
-14145.62598 7107.94092 1172.95056 491
-14277.81641 7176.53418 1444.28198 497
-13808.72461 7050.00000 383.80917 480
-13721.41602 7001.58594 635.89050 490
-13685.45312 6986.87451 888.35706 301
-14089.60742 7193.03662 1168.97876 491
-14223.81738 7257.21484 1444.25745 497
-14355.05176 7325.28223 1722.05493 462
-13756.26270 7126.13281 382.49786 480
-13667.68750 7083.90967 635.30835 490
-13637.99512 7066.42236 887.86176 301
-14035.67188 7271.51855 1167.48132 491
-14166.51855 7342.30371 1441.00110 497
-14289.44531 7403.45947 1723.61194 391
-13701.57129 7208.51611 380.64948 480
-13612.31738 7162.44580 635.81830 491
-13594.54492 7150.37402 888.60522 301
-14077.01465 7406.79150 1175.02844 442
-14073.87500 7405.31396 1439.52588 442
-13650.19531 7290.00000 380.84042 480
-13561.97461 7243.64453 633.19373 491
-13545.59668 7231.77490 886.84827 301
-13961.10254 7453.51855 1169.70081 443
-13960.13770 7452.07422 1433.01208 443
-14018.74805 7487.64893 1699.78186 356
-13596.25781 7368.60449 382.69223 480
-13509.51465 7321.80273 632.70642 491
-13501.87988 7315.65771 886.02106 295
-13844.19043 7501.74268 1163.51733 444
-13843.01465 7503.54150 1426.75110 444
-13898.29102 7530.02783 1691.31299 356
-13543.40918 7445.86230 381.48428 480
-13460.01270 7399.61133 632.78406 491
-13456.40820 7401.45850 887.98254 295
-13730.92578 7552.60205 1161.85034 445
-13729.01660 7550.85156 1419.46204 445
-13777.70703 7578.18848 1685.13843 357
-13490.63965 7527.09277 383.68100 480
-13404.48145 7482.46582 633.53326 491
-13636.84961 7608.96045 898.50934 499
-13671.18848 7628.41455 1158.74585 498
-13668.80273 7628.35303 1416.93896 498
-13701.42090 7646.57568 1678.86926 390
-13834.47070 7718.02393 1959.89282 437
-13830.61426 7717.84863 2221.79785 437
-13440.48242 7607.03223 382.74243 480
-13352.66895 7561.42725 632.40668 491
-13580.82422 7686.13135 899.35205 499
-13591.51270 7694.81543 1156.29529 499
-13589.30371 7692.97119 1416.80115 498
-13646.72754 7726.45215 1680.31714 390
-13906.29785 7870.23096 1973.54126 485
-13385.52539 7684.92969 381.83865 481
-13299.32129 7639.94043 632.26038 491
-13528.20703 7770.96143 898.86469 499
-13539.19629 7777.68457 1154.73267 499
-13532.47559 7771.80566 1414.11389 498
-13596.70801 7807.79980 1679.45715 390
-13849.53809 7955.33496 1975.91724 485
-14244.82715 8176.97217 2301.35913 487
-14244.39062 8176.42432 2576.56177 486
-13333.26562 7768.59814 381.81146 481
-13251.14551 7716.98877 633.38251 491
-13474.00488 7848.42090 895.62225 499
-13484.87891 7855.20361 1155.06335 499
-13479.20898 7852.54199 1412.01196 499
-13545.46777 7891.53369 1677.55310 390
-13750.43457 8011.76904 1965.64587 453
-13281.02051 7845.84717 379.28238 481
-13199.69531 7799.19189 630.48590 491
-13421.60547 7928.09180 898.08539 499
-13431.72461 7934.00879 1153.19385 499
-13426.24805 7934.85449 1414.39771 499
-13491.75684 7973.84424 1680.76013 390
-13698.90234 8091.41064 1968.74536 478
-13225.27930 7925.33252 382.75989 481
-13145.79492 7875.56641 631.45740 492
-13368.82715 8008.16211 894.84564 499
-13379.26660 8017.71826 1152.94666 499
-13376.67090 8012.96436 1411.37427 499
-13439.16992 8053.60742 1679.30103 391
-13687.85742 8199.61523 1970.50256 485
-13172.92188 8002.27686 380.87122 481
-13095.89355 7955.54492 630.14178 492
-13313.84668 8090.47803 897.99518 499
-13327.48730 8099.16357 1152.42517 499
-13321.98340 8094.22900 1412.74084 499
-13388.37988 8135.17383 1679.73999 391
-13631.73633 8284.46289 1973.71179 485
-13120.91602 8083.91016 378.84930 481
-13044.58594 8034.24463 630.02289 492
-13263.31641 8168.42822 897.25781 499
-13273.37598 8175.52002 1155.59558 499
-13269.77637 8173.41504 1413.11462 499
-13335.97070 8215.85254 1677.06323 391
-13577.26758 8366.33594 1969.60144 485
-13068.96484 8165.41162 382.28534 481
-12991.82031 8113.98096 632.50568 492
-13206.90625 8249.51074 898.28046 499
-13218.51855 8258.97070 1154.90210 499
-13215.76270 8254.98828 1412.33228 499
-13284.86914 8300.04395 1678.53247 391
-13017.69922 8243.22559 382.03702 481
-12939.07324 8194.36816 632.71405 492
-13154.31445 8330.20020 898.10266 499
-13189.70703 8351.70801 1154.62708 499
-13187.75488 8349.56348 1414.60083 499
-13232.75488 8382.25293 1678.99707 391
-12963.48633 8321.99316 382.12399 481
-12884.88965 8271.84375 630.25812 492
-13099.70020 8410.24219 893.75598 499
-13137.13867 8434.23926 1153.72180 499
-13127.96387 8424.92383 1413.20325 479
-13183.33789 8463.12207 1676.45862 391
-12913.28418 8399.83496 381.05145 481
-12833.27441 8350.82324 632.55530 492
-13045.92676 8491.31836 896.76385 499
-12940.45020 8421.87598 1142.09070 477
-12883.64258 8384.07910 1393.19580 463
-13130.18066 8543.58789 1676.26147 382
-2010.00964 1378.49707 89.86127 497
-2014.08508 1381.67627 130.76259 476
-12860.14355 8479.46680 380.79739 481
-12781.15332 8428.35840 631.58075 492
-12994.30664 8570.69238 894.51459 499
-13028.69043 8591.27637 1157.18640 499
-13024.94141 8590.78516 1413.46191 499
-13076.39453 8624.63965 1675.42432 382
-4747.42285 3212.30786 -829.43359 1000
-2009.82288 1397.17297 89.76994 277
-12808.25586 8558.41602 380.96246 481
-12732.42578 8508.51074 630.14233 492
-12942.90625 8648.54785 897.17712 499
-12977.74316 8674.68164 1153.64661 499
-12972.84473 8670.10840 1413.43652 499
-13023.17578 8704.11230 1676.61792 382
-12751.43262 8639.62695 378.48270 481
-12679.96387 8587.18262 630.04907 492
-12887.73438 8730.15527 897.05743 499
-12922.45605 8755.36328 1154.96509 499
-12919.98047 8749.67871 1413.71313 499
-12969.52148 8786.35938 1676.84729 382
-12699.41016 8716.15430 380.69080 481
-12626.69434 8668.98828 630.34839 492
-12833.96582 8809.77637 896.04358 499
-12901.04004 8853.21680 1155.53857 460
-12894.68848 8847.91211 1413.78955 460
-12963.00000 8896.98730 1683.58276 362
-12647.34961 8795.59766 378.72806 481
-12576.29883 8746.88965 630.81946 492
-12780.33691 8888.32227 894.86096 499
-12896.91895 8970.81445 1160.12500 459
-12889.35742 8965.59277 1419.20203 459
-12974.54785 9023.17480 1692.44104 361
-12596.82031 8877.71191 380.98441 481
-12522.03809 8825.59375 628.82471 492
-12728.74121 8969.82031 893.22302 499
-12879.87305 9073.26953 1163.52344 477
-12884.91797 9080.77344 1423.70105 458
-12986.81641 9151.44727 1700.41174 362
-12544.06641 8955.75977 381.11401 481
-12472.60938 8906.26074 632.43610 492
-12673.83008 9047.19434 893.72296 499
-12849.68652 9173.85449 1168.64282 476
-12883.97852 9196.04785 1430.72278 457
-12488.68945 9036.14062 379.34830 481
-12418.98535 8983.68555 631.53888 492
-12660.24805 9155.05762 899.61395 420
-12827.93164 9277.95117 1168.05383 476
-12868.72754 9303.72168 1436.20166 475
-12435.03516 9114.75586 377.83981 481
-12365.55273 9062.69434 630.03113 492
-12651.23926 9268.41309 898.69458 419
-12800.37793 9377.31348 1170.02295 475
-12385.62402 9192.29004 382.26630 481
-12314.01660 9143.32324 632.72107 491
-12646.03516 9387.08496 905.62610 419
-12332.17773 9273.45410 381.80582 481
-12261.58105 9221.11914 629.80096 491
-12273.62402 9232.52539 883.67316 431
-12277.75977 9352.09375 381.96866 481
-12213.36914 9301.50879 631.25598 491
-12223.54004 9311.07812 884.06146 431
-12225.96484 9432.90527 378.06998 481
-12159.60547 9379.68555 630.47510 491
-12168.99414 9386.44629 884.54248 431
-12170.91504 9511.23145 381.02957 481
-12108.26465 9460.35254 632.95886 491
-12117.64746 9465.59766 886.13794 431
-12118.39746 9592.01465 379.36676 480
-12054.66211 9538.68945 630.39215 491
-12062.34961 9545.84961 883.59760 437
-12067.17383 9668.01465 379.00760 480
-12000.24414 9618.73438 631.66968 491
-12012.28223 9629.22070 887.05853 437
-12013.35938 9751.15723 380.10828 480
-11948.77246 9698.87305 631.36774 491
-11962.73047 9709.73633 885.39075 437
-11959.93945 9828.40430 381.19278 480
-11897.24219 9779.48438 634.11829 491
-11911.39551 9789.76758 885.35706 386
-11909.52441 9907.54590 378.93051 480
-11845.51172 9858.37109 632.84460 490
-11853.81348 9987.13379 380.26181 480
-11790.34570 9938.64258 632.35541 490
-11802.57129 10071.15234 382.24075 480
-11739.51758 10019.74512 632.81421 490
-11746.59668 10148.71875 383.04797 481
-11687.58594 10098.30371 633.07227 493
-11695.65039 10232.24805 381.58664 481
-11633.90625 10179.82031 634.38013 493
-11641.33301 10309.90918 382.93219 480
-11583.64062 10260.62402 632.83850 493
-6994.62305 6304.39990 -1758.91089 1000
-11585.44727 10392.70996 380.38571 480
-11527.50293 10339.83984 636.61652 492
-11531.87109 10470.54297 381.07373 480
-11477.35547 10419.13965 634.55591 492
-11477.67871 10554.19824 382.18124 480
-11422.74805 10500.38086 633.89508 492
-11426.39941 10632.17285 384.35947 480
-11369.06250 10580.35449 635.30084 492
-11372.14062 10717.43359 384.15985 479
-11317.64160 10664.63965 638.62903 494
-11319.12207 10795.04395 381.14191 479
-11263.82812 10744.07617 638.79718 494
-11263.43555 10879.08105 380.95172 479
-11208.67090 10827.27930 636.56152 493
-11206.99902 10958.96973 381.42776 479
-11155.70215 10907.17676 637.88971 493
-11152.39258 11039.39551 383.82846 486
-11102.93359 10991.47852 640.57617 493
-11101.53320 11124.91699 385.72394 486
-11048.65723 11072.28223 638.73907 492
-23391.66602 23623.27930 -3162.64014 1000
-11046.18750 11208.88770 383.72815 486
-10996.34863 11156.46973 640.41797 492
-10989.72168 11291.62891 386.19772 485
-10941.35254 11241.40332 642.08447 492
-10934.97363 11372.63867 385.25006 485
-10886.18750 11323.18262 643.62708 491
-10879.64551 11456.28613 385.55765 485
-10834.81934 11404.67969 640.92035 491
-10828.49414 11540.27930 385.80832 484
-10780.60840 11490.33398 643.38501 491
-10770.08301 11621.98633 384.64319 484
-10723.46289 11573.77246 643.04059 490
-10715.37305 11707.97363 384.39606 484
-10670.41797 11657.84473 646.51080 490
-10669.53418 11801.74121 385.30154 464
-10612.29297 11740.82324 644.31635 490
-21482.17188 23946.68164 -4125.43799 1000
-10622.46777 11898.51270 385.00922 465
-10559.18457 11828.01367 645.34406 487
-10577.25000 11991.53223 389.53842 464
-10509.09473 11918.02246 649.47906 487
-10530.47852 12087.77930 390.59738 464
-10458.50488 12008.03125 649.94128 486
-10483.92383 12185.64453 389.28278 463
-10408.04199 12104.06055 649.25116 469
-10435.67773 12283.94434 387.61136 462
-10363.22559 12200.57715 649.89008 469
-10391.55566 12383.15527 389.22556 462
-10315.94434 12294.81250 651.67035 468
-10341.85449 12480.22461 392.19989 461
-10270.41797 12396.64453 652.74188 468
-10314.98438 12603.27441 393.51785 420
-10227.61816 12498.49414 656.59918 468
-10286.01855 12723.18848 393.67740 419
-10183.68066 12604.20117 655.72467 467
-10255.77344 12849.15430 392.49802 397
-10139.22559 12708.07031 661.03278 466
-10234.44531 12984.45215 394.27094 396
-10096.37988 12812.91699 659.27985 466
-10207.90918 13118.26953 395.15604 395
-10054.84668 12922.10547 660.98108 409
-10204.13770 13278.09375 397.74850 369
-10023.66309 13046.35352 663.84961 409
-6352.83252 8419.35547 -219.93382 1000
-10203.17285 13447.90918 402.65271 301
-9995.47266 13174.92383 669.46014 408
-9968.79590 13311.61621 669.86694 408
-9952.66797 13462.97461 674.06561 406
-9937.86133 13615.11523 675.66833 405
-9931.74023 13784.75781 680.07526 368
-9981.52051 14032.82324 692.07666 319
-7214.20654 30391.13477 -2959.08496 1000
-453.80258 2270.89990 54.52374 301
-432.15985 2240.50659 55.45762 372
-413.52582 2220.95312 56.28893 375
-408.38553 2262.96533 17.41103 336
-395.18054 2203.75171 57.12479 405
-385.74811 2226.09058 19.24269 274
-378.28159 2192.09790 58.05153 396
-362.63480 2181.66138 21.60378 353
-362.15424 2180.77173 58.19157 396
-345.24954 2164.78418 22.44047 377
-346.37784 2170.40747 58.43744 411
-328.58701 2151.60718 23.31874 378
-331.22760 2163.11621 59.33080 361
-312.25348 2139.07104 24.40782 379
-316.08255 2156.95654 59.01256 361
-297.18317 2128.94604 25.04546 429
-301.12527 2150.99951 59.34306 361
-282.45734 2119.55566 25.20695 442
-286.61948 2145.52783 59.88876 361
-273.51895 2149.57129 -11.58260 434
-267.35507 2111.39160 25.95097 443
-272.92801 2146.15649 60.04090 294
-258.79358 2140.92896 -10.96830 435
-252.79044 2103.28369 26.71953 444
-259.04016 2142.30713 60.35049 416
-243.89380 2131.84546 -10.42100 436
-238.06316 2094.73755 27.35703 445
-274.26907 2325.55957 53.75875 375
-229.11243 2123.38623 -9.37684 437
-223.80292 2087.16382 27.55356 448
-260.09695 2327.11011 53.91495 376
-214.71796 2115.05200 -8.50991 438
-209.64873 2081.11719 27.73380 458
-245.92407 2329.70410 53.93384 319
-200.86185 2107.85986 -8.27415 451
-195.81233 2075.02710 28.35808 459
-209.02957 2166.23096 59.43640 472
-186.80618 2101.43262 -7.39203 452
-181.97556 2069.04199 28.54423 459
-194.31410 2161.36548 59.69038 473
-194.52943 2162.96631 95.57614 473
-172.83356 2094.88940 -6.90057 453
-168.85150 2063.33521 28.99416 467
-180.43347 2156.42407 60.08156 474
-179.66103 2152.03857 96.00226 474
-158.24426 2083.11255 -6.46852 319
-155.35982 2058.35791 29.34262 467
-166.70483 2151.78345 60.27338 475
-171.29474 2189.78003 95.35654 332
-144.15178 2072.65771 -5.58095 320
-142.14423 2053.05298 29.93900 468
-153.51273 2154.75732 60.08577 334
-160.93915 2221.16943 94.42619 331
-130.35112 2063.27686 -4.90642 321
-128.37177 2048.56592 29.89048 443
-143.17296 2184.57861 59.19209 332
-116.86533 2054.48511 -4.28691 328
-115.57201 2044.03296 30.40873 445
-132.76270 2215.63159 58.07199 331
-138.78241 2275.90381 93.97108 409
-103.05061 2048.45605 -3.23988 328
-102.36353 2039.76611 30.66044 445
-122.22503 2247.76733 57.67844 330
-90.23342 2041.66284 -2.92116 328
-89.46283 2036.16589 30.72742 446
-98.40698 2132.51636 61.54543 478
-77.16489 2035.29834 -2.57359 329
-76.61028 2031.70483 31.14845 446
-84.48820 2128.08911 61.49534 478
-63.85520 2030.25806 -1.87813 423
-64.13965 2027.78235 31.67853 447
-70.65820 2117.22925 61.79406 479
-51.03208 2025.34937 -1.52222 423
-50.93254 2023.66138 31.73555 447
-57.01733 2112.71411 61.74007 480
-38.31097 2020.53931 -1.43312 424
-38.49349 2019.82251 31.91353 448
-45.50025 2135.00830 61.45810 346
-25.58399 2015.78748 -0.91496 424
-25.45371 2016.02454 31.97919 448
-35.78555 2189.09253 59.63074 481
-34.23735 2167.78296 95.92195 481
-34.57735 2169.27661 131.60750 481
-34.22165 2157.59058 166.51726 334
-12.90862 2010.94824 -0.77629 425
-12.92340 2011.58191 32.23076 449
-20.53601 2156.33350 166.75966 346
-0.44699 2005.74988 -0.43425 425
-0.80205 2007.76086 32.82577 449
-7.51709 2165.15674 166.86717 316
-2090.34546 47876.10156 6425.75537 1000
12.24250 2001.21985 0.05276 426
11.69324 2004.05408 32.65701 450
24.14507 1996.13867 0.59874 426
24.39959 2000.09570 33.12988 450
22.79561 2049.69824 64.28825 483
18.30407 2182.27368 238.42473 443
36.72713 1991.38916 0.71044 427
36.83038 1996.15662 33.26049 451
35.27652 2045.75391 64.21926 484
49.27895 1987.02454 1.50200 427
49.06949 1992.37866 33.68156 451
47.69759 2051.55420 64.22590 329
61.36756 1982.13818 1.55684 428
61.23731 1988.28455 33.64090 451
59.84466 2090.23828 62.96439 334
-269.64804 24294.79297 919.95715 1000
73.59489 1977.44446 1.92927 428
73.34814 1984.66284 33.85649 452
72.26437 2126.15869 61.90950 333
85.90981 1972.92798 2.08272 429
85.50221 1980.45422 34.19654 452
85.42773 2163.95044 60.45703 331
97.72359 1968.47949 2.68241 429
97.91645 1976.68579 34.39003 453
98.65334 2200.49902 59.17259 337
109.84222 1963.40161 3.08101 429
109.85807 1973.32312 34.58528 381
121.43637 1959.03894 3.11465 486
121.96637 1969.78857 34.58463 381
122.67119 2033.24487 65.05334 487
133.60094 1954.83984 3.11825 486
133.72958 1966.20300 35.12284 381
135.65514 2047.41467 164.82837 429
145.27298 1951.03613 3.60401 487
146.04741 1963.13940 35.27797 381
148.38834 2061.89404 165.05125 313
157.59860 1946.90295 3.86820 487
157.76494 1959.63928 35.19224 381
163.70024 2137.27344 166.46863 495
169.30743 1942.81250 4.03911 487
169.48126 1956.36169 35.58509 382
177.02847 2142.37866 166.43822 321
180.89272 1938.83728 4.24731 488
181.46655 1952.85681 35.35801 382
192.38257 1934.46863 4.39088 488
193.53311 1949.72229 35.82689 382
204.41319 1930.32239 5.07036 489
205.22212 1946.13477 35.73736 382
215.70256 1926.82532 5.26798 489
217.09390 1942.73145 36.18293 382
227.36861 1922.58215 5.52343 490
228.58232 1939.42334 36.30411 383
238.85179 1918.68762 5.49087 490
240.05399 1936.14380 36.30760 383
250.21613 1914.46948 5.56215 490
251.69342 1932.70935 36.31007 383
261.71140 1910.55383 5.70200 491
263.40613 1929.25549 36.59617 383
273.20938 1906.49390 5.90617 491
275.30011 1925.87244 36.33172 383
284.51248 1902.71155 6.17706 491
286.67538 1922.64880 36.52706 383
296.13705 1898.76477 6.70323 492
298.42352 1918.40405 36.98804 289
307.53061 1894.85571 6.82594 492
309.68878 1917.48572 36.69183 291
324.33710 2045.27271 64.26019 325
318.95792 1891.72827 6.65442 497
321.49731 1916.07568 36.84655 291
332.20413 2001.64746 65.46093 324
330.67554 1891.06689 6.85931 497
362.99399 2146.64038 25.21408 373
342.38464 1890.96094 6.85483 497
375.63956 2142.80225 25.57787 374
354.18738 1890.50439 6.58774 497
388.58344 2139.65210 25.53894 318
365.58246 1889.92957 6.58802 497
401.87952 2136.72559 25.43867 328
377.64291 1889.62085 6.21022 496
389.13242 1889.15063 6.20511 496
400.79303 1888.33765 6.22698 498
412.68198 1887.87695 6.00939 340
466.15942 2120.13696 -9.23148 345
13623.97559 48194.95312 4229.20801 1000
718.63037 823.97662 -22.58378 397
721.38300 827.17828 -5.54938 397
720.99780 816.13373 -21.75199 487
722.50409 818.32806 -4.85433 452
724.39838 820.85590 12.27346 452
726.62634 823.68732 29.16897 392
728.63550 826.22632 46.14577 388
725.03699 811.09625 -21.43494 499
726.37915 812.94696 -4.62852 499
727.84229 814.84009 12.30883 499
729.56647 817.01416 29.22839 499
731.49695 819.58459 46.32736 495
732.30054 820.39020 63.48140 487
730.38324 807.63055 -21.63390 487
732.04132 809.51440 -4.51760 487
733.55792 811.66504 12.47124 487
735.17749 813.70001 29.13979 458
736.73615 815.56061 46.28910 450
738.48859 817.66302 63.27332 449
737.40253 806.40326 -22.10045 450
739.41315 808.35815 -5.17766 450
741.75964 811.34204 11.73765 397
748.60229 809.87982 -23.50774 325
29238.39453 8946.45508 1123.64417 1000
3738.97437 1047.62048 -54.78465 263
3739.23804 1024.11768 -117.14542 290
3881.80811 1064.20703 -62.16590 336
3727.51050 997.02582 -116.16967 290
3733.45898 998.21527 -53.75022 259
3744.53345 977.42273 -116.97815 419
3742.46948 976.76343 -54.24208 378
3765.96167 958.45337 -117.68380 415
3759.93530 957.01892 -55.24394 374
3788.07642 939.90814 -119.11765 407
3777.79004 938.28546 -55.10468 402
3812.13403 922.08759 -120.24652 396
3797.81934 918.10645 -55.81963 414
3838.60229 903.54590 -121.45457 389
3820.03979 899.07373 -57.00612 413
3866.87744 886.55426 -122.42283 385
3845.15967 881.27643 -57.74019 409
3898.20654 869.17542 -124.20203 375
3872.41943 863.61456 -58.68880 424
3936.69287 852.45581 -127.17916 348
3903.66089 845.11829 -59.95712 410
3983.88062 838.02594 -129.76172 348
3940.92700 828.51331 -61.81273 375
4034.86963 823.18695 -132.49678 347
3991.63330 814.67499 -63.64734 362
4044.93457 800.56610 -66.35411 358
4099.00488 785.59943 -69.43090 360
4153.55029 770.67059 -71.67223 358
4211.48389 755.27289 -74.02542 357
18291.31445 3334.68823 3185.08740 1000
4269.63232 739.53479 -77.16430 356
2545.31470 174.14290 -69.51730 400
2540.04199 158.85513 -69.23042 499
2544.96777 158.70638 -29.04113 499
2550.64453 159.47775 10.59826 499
2550.10815 143.75819 -69.81276 393
37041.56250 -1481.70618 -5974.43359 1000
3547.82812 -416.36282 -96.43887 268
3527.57129 -434.56946 -94.82453 498
3538.37061 -436.00366 -38.21869 459
4473.18164 -802.26422 -87.10088 384
4530.86621 -813.37970 -15.79908 290
4450.22119 -826.42328 -85.96341 407
4496.85303 -834.75592 -14.38995 430
4432.70898 -850.02344 -85.41541 456
4473.49707 -858.90979 -14.38485 473
4414.16113 -874.29218 -84.90750 456
4527.97510 -896.92816 -15.91080 265
4398.01221 -899.12244 -83.88725 485
4384.14258 -923.48969 -83.48209 486
4370.19678 -947.51862 -82.74234 486
4356.18262 -972.81604 -82.64919 489
4343.48096 -997.60791 -82.72372 489
4334.86572 -1022.82312 -82.70090 493
4379.99170 -1033.13184 -12.38445 489
4464.28516 -1054.03723 58.95224 316
4323.14551 -1047.75891 -81.56990 497
4364.92090 -1057.97961 -12.32356 490
4369.94336 -1059.15430 60.22293 344
4310.31104 -1071.68274 -81.94324 497
4350.95068 -1082.19775 -11.13989 490
4347.44287 -1081.55481 61.11208 499
4302.93750 -1096.95032 -81.09259 498
4339.45703 -1106.94727 -11.66733 499
4341.24561 -1106.62561 60.63204 499
4292.91602 -1122.02966 -81.55081 498
4331.94580 -1132.10120 -11.20778 499
4334.40967 -1132.75159 60.47931 499
4281.88477 -1146.79883 -80.68890 499
4324.69434 -1158.37793 -11.92930 499
4325.80566 -1158.52502 60.41212 499
4275.29688 -1172.20398 -81.48784 499
4305.74805 -1181.23975 -11.40183 455
4313.47119 -1184.02173 60.44952 499
4266.19873 -1197.49573 -80.52702 499
4306.01758 -1209.76404 -10.74645 499
4307.36572 -1209.49756 60.15821 499
4257.29980 -1223.37073 -80.83257 499
4299.47705 -1235.16663 -11.54070 499
4300.30469 -1236.11877 60.54103 499
4253.11816 -1249.89380 -81.11617 499
4297.40381 -1262.22375 -11.43322 499
4298.81299 -1263.88086 59.87776 499
4246.10693 -1275.00110 -81.03874 465
4290.62256 -1288.76599 -11.71598 499
4291.43066 -1288.86145 61.10527 499
4454.86475 -1339.07678 132.80701 385
4237.37305 -1300.23010 -81.33976 499
4283.43994 -1315.09033 -11.33441 499
4284.32764 -1315.16956 61.00558 499
4424.05664 -1359.19165 132.79465 420
4232.17334 -1326.73132 -80.98523 499
4276.50146 -1340.93164 -10.91511 499
4277.97852 -1340.95239 60.53706 499
4335.25391 -1360.22961 132.66847 499
4226.04248 -1353.15454 -81.24724 499
4268.91748 -1366.72705 -12.07894 499
4270.38965 -1367.56042 60.45903 499
4282.75635 -1371.28735 132.97318 487
4215.63184 -1377.91406 -81.15187 499
4359.45117 -1426.02539 132.29747 266
4211.47021 -1404.69043 -81.94636 499
4334.48779 -1446.77832 132.29991 495
4204.77979 -1430.61243 -81.61024 499
4370.62012 -1487.95850 206.17807 478
4195.38867 -1454.99976 -81.99361 499
4191.50928 -1481.87146 -81.94595 498
4183.43408 -1508.55078 -81.97701 498
4174.00244 -1532.62366 -81.33997 496
4166.41113 -1558.59229 -81.70819 496
4327.14209 -1619.95874 -16.51047 498
4159.48145 -1585.11572 -81.63050 495
4152.67383 -1610.81372 -81.85934 495
4145.08350 -1637.35779 -82.01970 495
4138.89307 -1663.40125 -83.10378 495
4192.58887 -1685.88965 -12.57543 497
4132.40039 -1689.29846 -82.47684 495
4235.79883 -1733.13196 -15.21478 494
4129.89697 -1717.89954 -83.33166 449
4219.32373 -1756.41418 -14.69583 495
4219.97803 -1785.67517 -89.21288 456
4203.44873 -1779.64062 -14.35717 495
4215.62158 -1814.70874 -88.87199 381
4159.92676 -1789.59180 -12.49100 497
61042.29297 -30479.40625 3486.59668 1000
2836.41382 -1896.42212 -31.25712 492
2845.67261 -1901.82239 22.81026 354
12256.56055 -8744.95605 -357.04617 1000
2000.78992 -1849.79004 1.47240 377
1971.27515 -1843.70569 2.35795 378
1940.57129 -1836.04419 3.74884 378
1939.12170 -1835.06702 46.99599 368
1911.95105 -1830.47522 5.04958 379
1911.60571 -1829.53857 47.40264 369
1884.26733 -1824.24744 6.62927 378
1883.97668 -1823.73621 48.22970 370
1856.44470 -1818.25134 7.86035 379
1856.75549 -1818.60779 48.83158 371
1829.31079 -1812.00842 8.42496 380
1831.00781 -1814.27869 49.37637 327
1802.57825 -1806.70789 9.98339 381
1805.13623 -1809.05737 50.08631 328
1776.40247 -1801.16895 11.16437 382
1780.23889 -1804.81311 50.97360 328
1750.86438 -1795.21655 11.96922 384
1754.92749 -1799.95581 51.85717 329
1750.06787 -1816.09888 -29.06753 382
1726.72009 -1790.51538 13.04654 379
1730.49451 -1795.21399 52.20009 330
1726.59631 -1813.22754 -27.88045 383
1702.34253 -1786.28845 13.70020 372
1701.61487 -1785.05200 53.16563 398
1704.56250 -1810.41614 -26.68074 384
1678.27417 -1780.55652 14.99407 374
1677.15198 -1779.79504 53.69159 399
1681.26221 -1806.47241 -25.52746 376
1653.83142 -1775.35474 15.72558 375
1653.62329 -1774.91589 54.74415 400
1657.98987 -1802.27856 -24.54571 377
1630.16675 -1770.36011 16.60569 376
1630.35913 -1770.86316 55.05791 398
1635.43726 -1798.83984 -23.06411 376
1607.99304 -1765.86206 17.28808 378
1608.37317 -1766.58887 55.43535 409
1614.49463 -1796.00562 -22.22659 377
1586.80176 -1762.85913 18.48538 390
1587.66199 -1764.01318 55.91787 428
1592.35034 -1769.79736 93.69137 434
1593.04749 -1792.67053 -21.12523 379
1566.99121 -1761.84668 19.01821 401
1568.88196 -1763.72571 56.62818 439
1573.16687 -1769.16736 93.82276 435
1573.05212 -1790.35889 -20.39082 380
1548.85132 -1761.02954 19.83850 404
1550.76196 -1764.22388 57.03204 440
1559.31714 -1774.06738 94.30548 490
1554.05750 -1789.87415 -19.45445 393
1530.48462 -1761.68628 20.20914 407
1534.27930 -1765.39697 57.15465 436
1548.05334 -1782.33423 94.00090 490
1536.03003 -1790.53516 -18.57110 395
1513.88171 -1762.77563 20.84669 413
1517.77185 -1767.90881 57.57023 403
1540.12256 -1795.44409 93.86621 425
1518.88989 -1791.16406 -18.19738 408
1497.41919 -1764.12231 21.00214 413
1501.63757 -1769.89587 58.09823 404
1536.00488 -1812.72302 93.64474 424
1502.42419 -1792.69202 -17.63008 409
1481.35754 -1766.27380 21.71189 419
1485.71631 -1771.66602 57.89580 431
1532.11865 -1831.19397 93.64992 423
1486.41479 -1794.87927 -17.23564 409
1465.35876 -1768.36304 21.84240 420
1470.46497 -1774.34595 58.00586 436
1527.69153 -1848.82007 93.40405 425
1470.41211 -1796.98645 -16.90010 410
1450.13904 -1770.97131 22.27083 425
1455.16370 -1777.55896 58.32978 437
1524.06531 -1867.27258 93.01111 421
1454.63794 -1799.24927 -15.91272 416
1435.38806 -1773.80310 22.69205 433
1440.75281 -1780.55115 58.90504 433
1519.88379 -1886.04431 93.39626 420
1439.62732 -1802.11206 -15.50916 416
1421.03711 -1777.34497 23.00560 434
1426.64368 -1785.03088 58.83494 415
1515.93665 -1904.80164 92.69190 419
1424.60986 -1805.21387 -15.41894 426
1406.82910 -1780.87512 22.85650 438
1412.81189 -1788.86438 59.09390 418
1511.66394 -1923.53979 92.76275 419
1410.40991 -1808.38635 -14.75124 426
1393.00940 -1785.01855 23.16738 438
1399.32275 -1793.25757 59.22440 386
1507.52429 -1942.87695 92.17447 418
1396.01807 -1812.17358 -14.66534 437
1379.65125 -1789.19897 23.32647 439
1385.44556 -1797.72668 59.35071 387
1503.36829 -1961.83508 92.40729 417
1397.92188 -1838.59412 -15.67688 277
1366.12830 -1793.09680 23.93233 439
1372.48193 -1802.08179 59.44014 367
1513.02808 -2001.39465 91.68530 271
1401.52893 -1868.06689 -17.82734 273
1352.42395 -1797.59973 23.78077 439
1358.62463 -1806.72937 59.25375 368
1338.73425 -1801.54260 24.02084 443
1345.84167 -1811.12561 59.92411 438
1325.32092 -1805.84314 24.13600 444
1333.21936 -1817.07983 59.63180 438
1311.95520 -1809.90234 24.81159 453
1320.23096 -1821.92078 59.65838 409
1299.43726 -1814.84155 24.65348 461
1307.75867 -1827.71802 59.59840 391
1286.86157 -1819.45923 24.69632 481
1295.29187 -1832.96924 59.78119 392
1273.79773 -1824.79346 24.69580 464
1280.74756 -1834.73633 59.88268 372
1264.60461 -1834.65491 24.90976 371
4230.84912 -13183.56152 1503.16199 1000
-107.02696 -3120.06982 235.86435 387
-107.17126 -3118.02173 287.42395 445
-476.12537 -2505.34180 259.37555 416
-493.52921 -2510.80249 90.63494 302
-847.08313 -1888.63281 63.29900 490
-846.91455 -1887.95288 97.71237 499
-846.61365 -1887.28430 132.27327 499
-846.40076 -1887.26099 166.99944 499
-846.37750 -1886.84790 201.68796 484
-254.96338 -510.32935 28.27728 484
-845.87073 -1886.32678 270.63501 484
-30534.13281 -38496.82422 952.38776 1000
-22113.83008 -19749.39648 -2299.04663 1000
-3995.64307 -2201.80273 207.99150 412
-3393.57178 -1796.46216 196.14113 485
-2789.06592 -1440.80042 131.34172 347
-2787.41577 -1418.52332 131.91550 479
-2789.77271 -1419.43616 184.58324 498
-39750.70312 -13816.09863 4986.28662 1000
90.11300 -2.99439 127.30520 363
90.11255 -2.99524 127.54897 363
90.11286 -2.99347 127.78946 364
90.11201 -2.99553 128.03053 364
90.11360 -2.99444 128.26823 365
89.48808 -3.18673 128.38683 294
90.22155 -2.88706 127.32291 364
90.22013 -2.88656 127.56584 365
90.22092 -2.88668 127.80522 365
90.22079 -2.88821 128.04497 365
90.21964 -2.88778 128.28209 366
89.53447 -3.09178 128.38707 294
90.32712 -2.78117 127.34055 365
90.32633 -2.78180 127.58303 366
90.32615 -2.78055 127.82188 366
90.32561 -2.78087 128.05960 367
90.32638 -2.78107 128.29370 367
89.58012 -2.99954 128.38591 294
88.14850 -3.41820 128.38647 290
90.42950 -2.67825 127.35803 367
90.43107 -2.67800 127.59714 367
90.43097 -2.67758 127.83670 368
90.43088 -2.67699 128.07263 368
90.43153 -2.67697 128.30571 369
89.62447 -2.90684 128.38548 294
88.19701 -3.31695 128.38625 290
90.53290 -2.57390 127.37495 368
90.53374 -2.57523 127.61303 369
90.53443 -2.57443 127.85035 369
90.53364 -2.57335 128.08557 369
90.53400 -2.57512 128.31703 370
89.67343 -2.81488 128.38559 294
88.24183 -3.21510 128.38564 290
90.63364 -2.47352 127.39120 369
90.63425 -2.47191 127.62867 370
90.63602 -2.47355 127.86317 370
90.63582 -2.47245 128.09775 371
90.63490 -2.47139 128.32896 371
89.71909 -2.72196 128.38786 294
88.28840 -3.11107 128.38515 290
90.73612 -2.37224 127.40730 371
90.73655 -2.37152 127.64221 371
90.73421 -2.37229 127.87663 372
90.73538 -2.37131 128.11040 372
90.73495 -2.37098 128.33929 372
89.76762 -2.63054 128.38547 294
88.33613 -3.01141 128.38637 290
90.83369 -2.27303 127.42200 372
90.83435 -2.27316 127.65704 372
90.83363 -2.27263 127.89004 373
90.83357 -2.27229 128.12077 373
90.83559 -2.27245 128.35115 374
89.81782 -2.53716 128.38545 294
88.38734 -2.90876 128.38638 290
90.93176 -2.17428 127.43715 373
90.93150 -2.17441 127.67139 374
90.93248 -2.17555 127.90243 374
90.93114 -2.17608 128.13158 375
90.93142 -2.17531 128.35881 375
89.86526 -2.44579 128.38593 294
88.43410 -2.80680 128.38760 290
91.03023 -2.07785 127.45122 374
91.03015 -2.07786 127.68308 375
91.02819 -2.07887 127.91467 375
91.03017 -2.07898 128.14227 376
91.02960 -2.07916 128.37070 376
89.91633 -2.35205 128.38525 294
88.48396 -2.70691 128.38611 290
91.12437 -1.98359 127.46614 376
91.12542 -1.98216 127.69694 376
91.12584 -1.98280 127.92593 377
91.12456 -1.98388 128.15404 377
91.12388 -1.98317 128.37866 378
89.96622 -2.25937 128.38586 294
88.53476 -2.60389 128.38556 290
86.78757 -3.02379 128.38741 286
91.21896 -1.88821 127.47965 377
91.21825 -1.88878 127.70842 377
91.21819 -1.88789 127.93582 378
91.21930 -1.88888 128.16202 378
91.21496 -1.88912 128.38754 298
90.01820 -2.16840 128.38681 294
88.58801 -2.50264 128.38676 290
86.83926 -2.90892 128.38531 286
91.31351 -1.79613 127.49173 378
91.31152 -1.79598 127.72121 379
91.31220 -1.79408 127.94721 379
91.31180 -1.79597 128.17273 380
91.26643 -1.80528 128.38588 298
90.06866 -2.07741 128.38542 294
88.63860 -2.40109 128.38806 290
86.89102 -2.79669 128.38750 286
91.36330 -1.71238 127.49133 464
91.36210 -1.71203 127.72151 465
91.36151 -1.71268 127.94822 466
91.36121 -1.71209 128.17163 466
91.31695 -1.72247 128.38734 298
90.12301 -1.98649 128.38640 294
88.68997 -2.30123 128.38527 290
86.94581 -2.68636 128.38777 286
91.38388 -1.63486 127.48540 464
91.38338 -1.63558 127.71311 465
91.38276 -1.63442 127.94028 466
91.38210 -1.63562 128.16666 467
91.37132 -1.63734 128.38577 298
90.17523 -1.89301 128.38737 294
88.74387 -2.20156 128.38564 290
86.99649 -2.57227 128.38583 286
91.40350 -1.55933 127.47748 465
91.40377 -1.56007 127.70535 466
91.40236 -1.55958 127.93382 467
91.40277 -1.55743 128.15874 468
91.40201 -1.55957 128.38321 468
90.22980 -1.80399 128.38559 294
88.07982 -2.24764 128.26396 360
87.05374 -2.46107 128.38553 286
91.42448 -1.48315 127.46935 466
91.42354 -1.48118 127.69792 467
91.42484 -1.48153 127.92686 468
91.42285 -1.48205 128.15155 468
91.42463 -1.48257 128.37666 469
90.28252 -1.71208 128.38643 294
87.87869 -2.19357 128.22232 359
87.10535 -2.34957 128.38716 286
91.44387 -1.40560 127.46218 466
91.44571 -1.40392 127.69175 467
91.44573 -1.40360 127.91924 468
91.44602 -1.40369 128.14485 469
91.44424 -1.40505 128.36856 470
90.33691 -1.62133 128.38655 294
87.67384 -2.13872 128.17780 358
87.16239 -2.24119 128.38669 286
91.46520 -1.32721 127.45407 467
91.46536 -1.32695 127.68411 468
91.46635 -1.32637 127.91172 469
91.46664 -1.32682 128.13783 470
91.46581 -1.32645 128.36113 470
90.39334 -1.52882 128.38588 294
87.45855 -2.08090 128.13492 356
87.21751 -2.12906 128.38503 286
91.48561 -1.25060 127.44651 468
91.48672 -1.25044 127.67484 469
91.48467 -1.25041 127.90345 470
91.48694 -1.25023 128.13011 470
91.48596 -1.24835 128.35545 471
90.44942 -1.43934 128.38649 294
87.23749 -2.02201 128.08730 355
87.23857 -2.02242 128.38008 355
91.50629 -1.17140 127.43829 468
91.50783 -1.17284 127.66655 469
91.50657 -1.17105 127.89732 470
91.50674 -1.17240 128.12386 471
91.50752 -1.17114 128.34717 472
90.50560 -1.34715 128.38553 294
87.09648 -1.94518 128.05452 451
87.09709 -1.94802 128.34949 452
91.52792 -1.09416 127.42986 469
91.52916 -1.09348 127.66000 470
91.52716 -1.09308 127.88849 471
91.52769 -1.09323 128.11583 472
91.52914 -1.09291 128.34055 472
90.56063 -1.25776 128.38651 294
87.01018 -1.85980 128.03052 451
87.01111 -1.85920 128.32797 451
91.54916 -1.01524 127.42068 470
91.54934 -1.01473 127.65201 471
91.55000 -1.01589 127.88146 471
91.54826 -1.01608 128.10756 472
91.54808 -1.01604 128.33368 473
90.62009 -1.16719 128.38675 294
86.92181 -1.77093 128.00801 450
86.92118 -1.77212 128.30699 450
91.56950 -0.93745 127.41296 470
91.57034 -0.93828 127.64398 471
91.57013 -0.93635 127.87151 472
91.56859 -0.93795 128.09924 473
91.56874 -0.93658 128.32658 474
90.67798 -1.07815 128.38635 294
86.83262 -1.68118 127.98341 449
86.83031 -1.68066 128.28638 449
91.58997 -0.85887 127.40388 471
91.59225 -0.85746 127.63438 472
91.59061 -0.85873 127.86360 473
91.59013 -0.85845 128.09358 473
91.59058 -0.85788 128.31831 474
90.73663 -0.98704 128.38525 294
86.73822 -1.59077 127.95590 448
86.74123 -1.59029 128.26242 448
85.39638 -1.79302 128.38481 282
91.61284 -0.78071 127.39539 471
91.61297 -0.78081 127.62550 472
91.61267 -0.78063 127.85654 473
91.61100 -0.77961 128.08479 474
91.61320 -0.77845 128.31178 475
90.79487 -0.89838 128.38661 294
86.64771 -1.49665 127.93406 447
86.64839 -1.49570 128.23816 448
85.46162 -1.66988 128.38458 282
91.63307 -0.70057 127.38511 472
91.63293 -0.70083 127.61943 473
91.63370 -0.70157 127.84899 474
91.63261 -0.69966 128.07819 475
91.63213 -0.69998 128.30287 475
90.85435 -0.80828 128.38675 294
86.55363 -1.40375 127.90813 446
86.55256 -1.40141 128.21451 447
85.52130 -1.54360 128.38618 282
91.65385 -0.61961 127.37784 473
91.65445 -0.62190 127.60979 474
91.65464 -0.62149 127.83901 474
91.65458 -0.62085 128.06883 475
91.65466 -0.62145 128.29562 476
90.91608 -0.71857 128.38568 294
86.45636 -1.30754 127.88168 445
86.45801 -1.30660 128.19106 446
85.58602 -1.41857 128.38669 282
91.67538 -0.54128 127.36882 473
91.67642 -0.54100 127.60049 474
91.67503 -0.54016 127.83161 475
91.67688 -0.54236 128.06050 476
91.67679 -0.54029 128.28874 477
90.97504 -0.62762 128.38704 294
86.36083 -1.20937 127.85620 444
86.35948 -1.20795 128.17033 445
91.69642 -0.46075 127.35876 474
91.69680 -0.46027 127.59132 475
91.69785 -0.46032 127.82269 476
91.69742 -0.46154 128.05328 476
91.69874 -0.46039 128.28044 477
91.03671 -0.53923 128.38652 294
86.29088 -1.10441 127.83312 494
86.29399 -1.10585 128.14856 494
85.71867 -1.17564 128.38835 282
91.71857 -0.37999 127.34942 474
91.71772 -0.38148 127.58345 475
91.71853 -0.37972 127.81459 476
91.72005 -0.38037 128.04472 477
91.71888 -0.38115 128.27214 478
91.09842 -0.45210 128.38658 294
86.26317 -0.99982 127.81819 493
86.26311 -0.99897 128.13573 494
85.78251 -1.05092 128.38609 282
91.74024 -0.30170 127.34102 475
91.74125 -0.29998 127.57508 476
91.74110 -0.30016 127.80610 477
91.73933 -0.29999 128.03679 477
91.74044 -0.29993 128.26608 478
91.16191 -0.36345 128.38580 294
86.23332 -0.88720 127.80278 493
86.23576 -0.88886 128.11951 494
85.84749 -0.93132 128.38834 282
91.76292 -0.22015 127.33179 475
91.76125 -0.21856 127.56514 476
91.76171 -0.22043 127.79676 477
91.76221 -0.21864 128.02792 478
91.76176 -0.22039 128.25781 479
91.22625 -0.27370 128.38647 294
86.20496 -0.77767 127.79008 493
86.20390 -0.77890 128.10744 494
85.91698 -0.80819 128.38802 282
91.78390 -0.13883 127.32178 476
91.78426 -0.14019 127.55541 477
91.78385 -0.13933 127.78761 478
91.78388 -0.13944 128.01958 479
91.78385 -0.13930 128.24806 479
91.28905 -0.18548 128.38608 294
86.25918 -0.65915 127.78885 290
86.17433 -0.66854 128.09393 493
85.98437 -0.68805 128.38515 282
91.80650 -0.05881 127.31107 476
91.80500 -0.05738 127.54748 477
91.80614 -0.05670 127.78098 478
91.80498 -0.05826 128.01128 479
91.80521 -0.05869 128.23999 480
91.35213 -0.09828 128.38664 294
86.32291 -0.54015 127.78879 290
86.14639 -0.55785 128.07704 493
86.05318 -0.56611 128.38690 282
91.81541 0.02189 127.29724 487
91.81622 0.02356 127.53455 488
91.81480 0.02219 127.76745 489
91.81403 0.02184 127.99928 490
91.81526 0.02351 128.23143 491
91.41673 -0.01015 128.38673 294
86.38906 -0.42169 127.78942 290
86.11384 -0.44436 128.06573 493
86.11680 -0.44458 128.38681 493
91.79384 0.10281 127.27715 487
91.79395 0.10112 127.51482 488
91.79351 0.10067 127.74979 489
91.79394 0.10127 127.98119 490
91.79343 0.10067 128.21219 490
91.48195 0.07844 128.38763 294
86.45155 -0.30248 127.78759 290
86.08557 -0.33387 128.04880 493
86.08617 -0.33457 128.37033 493
91.77126 0.18042 127.25399 487
91.77260 0.18191 127.49316 488
91.77261 0.18188 127.72806 488
91.77226 0.18126 127.96246 489
91.77119 0.18129 128.19568 490
91.54829 0.16430 128.38762 294
86.51646 -0.18340 127.78919 290
86.05603 -0.21911 128.03487 492
86.05306 -0.21986 128.35924 493
91.74978 0.26079 127.23458 486
91.75169 0.26109 127.47143 487
91.75134 0.26012 127.71113 488
91.75069 0.26083 127.94596 489
91.75137 0.26060 128.17989 490
91.61536 0.25320 128.38655 294
86.58341 -0.06746 127.78848 290
86.02396 -0.10195 128.01970 492
86.02518 -0.10219 128.34422 493
91.72868 0.34118 127.21106 486
91.72942 0.34262 127.45214 487
91.72935 0.34198 127.68958 488
91.72817 0.34239 127.92729 489
91.72937 0.34200 128.16199 490
91.68027 0.33920 128.38715 294
86.65222 0.05080 127.78674 290
85.99858 0.01258 128.00684 484
86.00064 0.01334 128.33228 485
91.70809 0.42506 127.18922 486
91.70757 0.42390 127.43130 487
91.70642 0.42531 127.66974 488
91.70729 0.42476 127.90898 488
91.70815 0.42295 128.14516 489
91.70738 0.42347 128.37848 490
86.72047 0.16723 127.78619 290
86.03132 0.13158 128.00044 485
86.03191 0.13267 128.32547 485
91.68507 0.50758 127.16603 485
91.68565 0.50607 127.40911 486
91.68504 0.50693 127.65015 487
91.68552 0.50554 127.88950 488
91.68513 0.50728 128.12675 489
91.68639 0.50743 128.36337 490
86.78661 0.28760 127.78767 290
86.06485 0.25395 127.99509 485
86.06178 0.25174 128.32108 486
91.66237 0.59119 127.14320 485
91.66329 0.59107 127.38739 486
91.66366 0.59105 127.62946 487
91.66309 0.59093 127.87102 488
91.66203 0.59154 128.10791 489
91.66196 0.58941 128.34489 489
90.48250 0.54530 128.38673 290
86.09496 0.37567 127.99081 486
86.09377 0.37222 128.31532 486
91.64008 0.67503 127.12236 485
91.64094 0.67555 127.36604 486
91.64076 0.67354 127.61124 487
91.63882 0.67401 127.85184 487
91.64074 0.67356 128.09196 488
91.63905 0.67443 128.33067 489
90.55435 0.63908 128.38693 290
86.12691 0.49301 127.98459 486
86.12951 0.49246 128.30846 487
91.61594 0.76053 127.09884 484
91.61765 0.75981 127.34427 485
91.61846 0.75997 127.59074 486
91.61839 0.76055 127.83218 487
91.61626 0.75915 128.07306 488
91.61835 0.76069 128.31238 489
90.62479 0.73235 128.38644 290
86.16198 0.61385 127.97852 487
86.16196 0.61200 128.30446 487
91.59282 0.84599 127.07489 484
91.59380 0.84769 127.32346 485
91.59462 0.84733 127.57023 486
91.59335 0.84580 127.81411 487
91.59461 0.84733 128.05615 488
91.59435 0.84641 128.29436 488
90.69575 0.82707 128.38596 290
86.19194 0.73434 127.97096 487
86.19477 0.73430 128.30023 488
91.57130 0.93227 127.05169 484
91.57012 0.93260 127.30030 485
91.57121 0.93274 127.54786 486
91.57127 0.93218 127.79243 486
91.57142 0.93407 128.03789 487
91.56958 0.93253 128.27977 488
90.76854 0.92345 128.38623 290
86.22634 0.85718 127.96688 487
86.22704 0.85615 128.29218 488
-22735.30859 -328.37128 3902.38501 1000
91.54725 1.02028 127.02947 483
91.54662 1.02249 127.27937 484
91.54845 1.02228 127.52643 485
91.54559 1.02061 127.77258 486
91.54851 1.02256 128.01753 487
91.54589 1.02051 128.26192 488
90.84276 1.01434 128.38716 290
86.25933 0.97949 127.95869 488
86.25663 0.97654 128.28601 488
91.52381 1.11160 127.00463 483
91.52304 1.10929 127.25661 484
91.52337 1.11126 127.50538 485
91.52398 1.11167 127.75301 486
91.52392 1.10983 127.99838 486
91.52299 1.11062 128.24399 487
90.91595 1.11034 128.38646 290
86.28970 1.09946 127.95405 488
86.29104 1.09737 128.27817 489
