# .PCD v.7 - Point Cloud Data file format
VERSION .7
FIELDS x y z rgb
SIZE 4 4 4 4
TYPE F F F U
COUNT 1 1 1 1
WIDTH 1039
HEIGHT 1
VIEWPOINT 5839.907715 -4035.624023 137.653351 -0.141179 -0.146145 -0.003938 0.979129
POINTS 1039
DATA ascii
-195.79564 1.24831 53.33448 325
-195.82748 3.10145 53.31076 325
-195.79604 4.84872 53.33399 325
-195.77455 6.65323 53.32174 325
-195.82080 8.50835 53.26908 325
-195.74872 10.25117 53.30667 325
-195.71957 12.10211 53.33595 325
-283.35739 59.96482 35.48029 316
-262.66617 59.00937 34.27098 320
-277.23062 61.35817 36.91693 322
-293.34488 63.96035 39.69526 312
-258.97168 60.68927 35.13793 350
-273.63776 63.10690 37.73021 346
-289.52667 65.74120 40.48193 341
-63345.05859 10526.29688 -5203.44287 1000
-257.11960 62.60337 35.60731 350
-271.49637 65.04711 38.12807 347
-287.64017 67.89704 40.81618 341
-255.21840 64.47887 36.06395 351
-269.63220 67.06574 38.60061 345
-288.53195 70.46902 40.55635 319
-253.32341 66.38308 36.44621 351
-268.96100 69.29784 38.63180 322
-251.41251 68.25620 36.80751 349
-270.88242 71.89590 38.10212 319
-252.99088 70.77455 36.32221 322
-273.11050 74.76833 37.34661 319
-254.92924 73.33646 35.69637 322
-256.93127 75.99010 34.99778 321
-12582.12109 6278.88672 -344.94223 1000
-35782.46875 19160.62305 -5941.87305 1000
-2373.96973 1399.56409 36.46463 461
-2381.71802 1403.34985 83.06265 331
-1131.76843 705.92273 14.82632 430
-1732.51172 1050.82227 26.73092 458
-2363.37109 1413.08240 36.20752 447
-2366.28125 1414.62036 82.82362 483
-2371.20264 1417.98865 129.18217 483
-1122.06653 710.35193 15.46786 475
-1125.31177 712.25824 38.15432 474
-1129.42786 714.62921 61.02749 430
-1725.84680 1062.03003 61.22557 490
-1730.99438 1065.02319 95.63476 479
-1116.94617 717.49719 15.46062 495
-1119.15894 718.71027 38.42314 495
-1121.35657 720.20392 61.30598 497
-1125.32104 722.34998 84.55704 488
-1127.56165 723.51538 107.34846 434
-1115.22803 726.33221 15.13934 469
-1117.44934 727.64594 38.14231 469
-1119.70508 729.27362 61.09306 421
-1121.84363 730.69702 84.34835 418
-1125.57324 732.58398 107.51521 330
-27409.46484 18375.33203 -3704.97388 1000
-4757.63770 3243.39673 509.06430 1000
-40124.72656 40255.81641 -14173.33398 1000
-32886.75000 43980.69531 10090.94629 1000
-4463.23828 14784.28809 -129.28273 460
-4438.76074 14704.22461 124.24347 478
-4360.42285 14768.07617 -129.15659 464
-4334.49707 14693.30957 125.05148 479
-4256.97803 14763.03711 -125.29206 469
-4233.52686 14682.47461 123.50939 479
-4157.37842 14753.91406 -125.75385 469
-4133.55615 14675.24121 123.45521 481
-4057.22681 14745.54785 -125.54512 470
-4035.12866 14669.53418 123.26900 481
-3955.71924 14737.54688 -124.35067 470
-3937.42456 14661.23340 127.13280 482
-3855.09204 14728.30859 -125.02660 471
-3836.16602 14656.15527 126.79086 482
-3759.57153 14718.54102 -124.05967 471
-3741.36914 14649.28906 124.73454 483
-3657.47534 14713.17383 -122.88363 472
-3643.06372 14641.56250 124.15166 483
-3560.47974 14705.86523 -123.71400 472
-3546.37476 14636.88184 125.69881 485
-3462.30615 14698.19824 -120.43293 473
-3445.28540 14628.48633 123.83432 485
-3364.91284 14689.16309 -121.96578 473
-3352.75244 14622.49609 127.48245 485
-3268.10010 14684.72266 -119.45940 474
-3253.18774 14615.00293 123.91734 486
-3174.08887 14675.62891 -120.60080 474
-3159.32764 14607.22168 124.24744 486
-3077.73218 14666.31152 -119.92063 474
-3060.84277 14603.01074 124.01580 487
-2981.88037 14660.86133 -120.69716 475
-2965.95410 14595.24023 127.78649 487
-2906.29517 14749.35352 -366.76733 454
-2883.97095 14653.22559 -118.30362 475
-2873.48511 14589.32812 127.29378 488
-2809.78296 14738.35938 -366.75912 454
-2790.98560 14644.79883 -116.21557 476
-2778.29956 14583.88867 124.31788 488
-2711.63672 14729.88965 -364.94992 455
-2695.27173 14635.46484 -119.77048 476
-2684.37598 14577.48145 126.77544 491
-2616.54053 14722.75879 -362.90689 455
-2601.14233 14630.08594 -115.87406 476
-2587.83447 14570.31348 124.86879 491
-2521.50366 14713.62598 -364.13702 455
-2505.70020 14621.19434 -118.20847 477
-2496.65918 14562.65039 126.48682 492
-2427.75464 14704.74805 -360.48575 456
-2411.64917 14614.44336 -116.45607 477
-2404.61182 14557.45898 126.70026 458
-2331.35352 14696.51074 -362.01251 456
-2318.85571 14606.24219 -117.00864 477
-2312.33325 14555.06445 126.70649 420
-2240.47412 14686.39746 -361.80948 456
-2223.64673 14599.10840 -115.79866 478
-2219.86499 14551.62695 127.67744 420
-2147.10645 14680.24805 -357.55725 475
-2132.08667 14594.13672 -115.74988 478
-2125.95142 14547.17383 124.78937 420
-2052.53809 14672.50488 -358.08023 476
-2039.66882 14586.78027 -115.37266 478
-2033.30176 14542.46875 128.47557 420
-1959.95459 14662.66797 -358.64963 476
-1945.16980 14578.26758 -114.75488 479
-1941.49451 14540.81152 127.73035 420
-1867.82092 14656.02930 -358.95139 476
-1854.73376 14569.94238 -114.90305 479
-1850.02087 14536.89258 125.39374 421
-1773.14612 14651.21582 -354.87473 477
-1762.71313 14562.43457 -111.50117 479
-1760.13501 14535.78320 128.46790 300
-1680.96301 14639.99902 -354.75464 477
-1670.23010 14555.41992 -112.48809 480
-1667.81677 14540.30566 128.32816 300
-1588.26453 14636.82910 -354.55908 477
-1578.71375 14550.35742 -114.16961 480
-1576.79102 14546.24023 127.81367 300
-1498.30579 14625.30371 -356.47394 477
-1487.48669 14543.26758 -111.83657 480
-1488.69641 14552.59082 126.51087 300
-1407.00098 14621.04688 -355.97003 478
-1398.12598 14535.50781 -110.95711 481
-1575.46765 16276.50000 128.47180 424
-1313.72400 14613.71094 -354.48895 478
-1306.68982 14526.33301 -109.73805 481
-1474.24426 16270.37402 126.70183 431
-1221.87183 14603.64258 -351.69119 478
-1213.79089 14518.83984 -112.66829 481
-1370.11865 16264.15625 128.56981 432
-1130.90137 14598.00977 -354.12402 478
-1125.58374 14511.36621 -111.16206 481
-1270.04016 16258.55566 128.99986 432
-1041.07397 14590.93750 -352.89490 479
-1034.42395 14504.81738 -110.20159 489
-1090.77917 15224.60645 125.88184 487
-1092.05469 15230.38086 375.34991 487
-949.12305 14585.31738 -349.68109 479
-944.31732 14500.22852 -111.50663 490
-994.69769 15198.84668 128.97916 487
-995.22150 15207.77344 376.16510 487
-858.74695 14575.73535 -351.13165 479
-853.61407 14494.92090 -109.28313 490
-898.56549 15178.31445 128.75078 488
-899.31604 15187.63086 376.47903 488
-768.15997 14567.45020 -348.82736 479
-763.59888 14488.77734 -108.04233 490
-802.55359 15154.42773 129.37170 488
-802.39111 15165.10938 376.11377 488
-678.14435 14563.73828 -348.68491 479
-674.99530 14482.35449 -108.35783 490
-708.64795 15131.96680 126.36683 489
-710.66455 15139.07715 376.05838 489
-589.68756 14554.46094 -350.98541 480
-586.27795 14475.21680 -110.02203 490
-614.67877 15105.93262 125.93655 489
-614.10712 15118.10840 377.19360 489
-497.29837 14549.72168 -348.00729 481
-495.28015 14466.37305 -109.93770 490
-521.59137 15082.19531 126.40233 490
-519.35834 15093.46094 374.40240 489
-408.30243 14542.19824 -348.11823 481
-405.74948 14462.81250 -110.52489 491
-425.85812 15060.35938 128.04576 490
-426.19183 15069.83203 376.13785 490
-316.91965 14533.27930 -349.02698 482
-316.61584 14455.68555 -108.55737 491
-332.82492 15039.23340 127.69551 491
-333.83356 15047.59668 375.74417 490
-231.03458 14526.85547 -346.70526 482
-229.01384 14447.86816 -110.14374 491
-241.94279 15022.89941 128.70183 498
-242.18242 15029.36133 373.34906 498
-331.75861 19142.60742 3610.45654 1000
-138.65318 14520.72949 -346.04532 482
-136.71432 14443.32324 -108.50726 491
-148.33942 15013.92383 126.99978 498
-147.72321 15023.28516 375.07281 498
-48.62268 14510.65137 -346.14755 482
-50.19368 14437.33594 -108.21542 491
-57.52941 15008.11133 127.39890 498
-55.59191 15017.58203 374.21771 498
37.03399 14505.42969 -348.44852 482
41.14690 14428.05273 -109.58801 491
35.97208 14999.77051 128.28445 499
36.82243 15008.96875 374.86490 498
128.38371 14499.03320 -345.68759 482
129.76740 14421.82617 -105.82793 491
127.50893 14452.86621 126.86430 431
130.19714 14999.67383 372.19153 499
215.91637 14488.94629 -345.93546 482
215.67705 14418.17285 -106.20921 492
216.86555 14445.99707 127.03891 431
223.04225 14995.54004 375.31830 499
306.21512 14484.64160 -344.74789 482
304.95959 14408.59375 -107.53358 492
306.53479 14436.54785 126.60476 431
314.88840 14989.78809 375.45566 499
394.70813 14476.76074 -343.99017 482
393.04440 14402.61914 -107.19781 492
394.02072 14428.21973 127.01892 432
404.53113 14981.32324 374.40729 499
483.45776 14468.04688 -346.37326 483
482.99158 14396.30957 -106.90170 492
482.73019 14421.50195 127.23978 438
496.41718 14973.79199 371.52478 499
572.01575 14461.98047 -343.02130 483
570.36346 14393.37207 -107.58677 492
571.17920 14419.10059 128.24162 387
587.35980 14878.51074 370.64917 361
663.30585 14457.47852 -345.37515 483
660.75848 14386.27246 -105.45154 492
660.08240 14416.89844 130.51935 387
678.53107 14871.50684 370.94241 361
750.63055 14450.44922 -343.50333 483
747.28577 14377.33105 -105.82618 492
748.38239 14416.16699 127.24824 387
767.12305 14867.71973 372.43146 361
774.65631 15003.13965 619.01447 499
839.65656 14441.93262 -343.18237 483
836.50079 14374.63965 -107.06505 492
853.27545 14674.52539 129.55717 499
860.67871 14862.76562 371.19348 328
867.29834 14994.26074 619.66083 499
875.65216 15162.56738 875.01581 473
927.72968 14434.84668 -344.59732 483
922.57532 14367.85352 -106.95498 492
942.56677 14671.02832 127.73524 499
953.51117 14863.21875 370.51636 328
961.29932 14987.71582 622.27454 499
968.22479 15132.65234 874.50317 485
1016.62177 14430.75195 -343.18149 483
1012.45862 14360.74805 -106.87185 492
1030.32300 14661.18750 129.84187 499
1047.16626 14929.69238 374.77325 499
1051.47729 14962.40234 618.47852 456
1106.48328 14422.35352 -345.85147 483
1099.82764 14352.34863 -106.83590 495
1122.39868 14654.69531 129.31981 499
1138.07898 14883.57031 375.11301 457
1136.46753 14893.84570 616.99103 456
1145.96313 15015.16602 867.82605 363
1193.04968 14414.73242 -342.96017 483
1187.67029 14348.42188 -105.58971 495
1211.14685 14647.83301 127.58451 499
1223.59265 14815.56641 372.40347 458
1223.79480 14827.32617 616.94586 457
1233.14099 14940.57812 865.17920 364
1280.23291 14409.51758 -344.85651 483
1276.11719 14340.35938 -104.52117 495
1301.00513 14639.97754 131.17943 499
1312.13306 14746.03516 372.62411 458
1311.57605 14760.94824 612.84497 458
1320.13147 14867.82129 862.85638 364
1369.94727 14400.01660 -344.90186 483
1366.33459 14334.26074 -104.94833 495
1393.02246 14633.77734 130.27313 499
1397.27441 14688.16992 370.14630 499
1399.28748 14696.99121 613.75165 499
1406.89954 14799.51855 857.24420 365
1458.65332 14396.15723 -345.87497 483
1453.25586 14330.68945 -106.46495 495
1481.84326 14626.24414 127.63077 499
1486.43286 14681.01270 371.49280 499
1489.87659 14691.26562 610.27295 499
1496.33313 14781.49707 858.21002 390
1507.94397 14926.28809 1604.80090 424
1511.32129 14925.38965 1854.76184 424
1509.05969 14939.76172 2106.32617 478
1550.25208 14388.85742 -344.55194 483
1541.93457 14321.37402 -105.04321 495
1571.86304 14618.73438 127.44370 499
1576.91833 14644.37207 371.00049 499
1577.45728 14652.69336 610.27374 499
1589.00537 14776.07715 857.76050 390
1615.35999 15047.35059 1118.85852 485
1663.31726 15515.74316 1407.98535 456
1636.81091 14381.27051 -343.78021 483
1629.59326 14316.88770 -106.38998 495
1662.51953 14613.25000 128.23349 499
1663.75940 14640.11719 369.65488 499
1667.14844 14646.19043 611.42004 499
1679.93640 14773.42773 858.56104 390
1708.66248 15039.42285 1122.18408 485
1727.65698 14376.08105 -345.26193 483
1718.28821 14312.16406 -104.77375 495
1754.61169 14604.34082 127.68891 499
1754.47009 14630.34570 369.29022 499
1757.92334 14637.99414 612.98724 499
1771.84131 14769.45215 861.18079 390
1794.32751 14982.71973 1119.53906 453
1813.07385 14366.37988 -344.89304 483
1806.77820 14302.75293 -107.88413 495
1844.30420 14597.40625 129.51448 499
1846.78455 14626.09961 370.42584 499
1847.56018 14631.35059 610.95142 499
1863.04016 14765.76270 858.13611 390
1888.44153 14979.30762 1116.19250 472
1902.93604 14360.15625 -344.13498 483
1898.03699 14298.53613 -107.28085 495
1932.61169 14592.12109 131.33215 499
1937.10425 14619.24121 370.02905 499
1937.30444 14623.56055 614.12915 499
1955.22485 14761.54395 860.54047 389
1986.16321 15019.24902 1122.59045 485
1991.28589 14353.64160 -344.06274 483
1983.87878 14290.57129 -105.29303 495
2027.79456 14633.30176 128.07314 499
2028.22656 14610.70801 371.89102 499
2028.95776 14620.21680 612.54681 499
2045.88501 14758.91504 861.81122 389
2078.50562 15013.53223 1122.06628 485
2080.89014 14348.40625 -342.75830 482
2073.69800 14285.98633 -106.77056 495
2120.32300 14626.34863 128.28079 499
2119.23145 14605.56055 372.48901 499
2118.89380 14610.71191 613.26215 499
2136.52759 14753.78027 863.11487 389
2174.08862 15008.14746 1122.52307 485
2172.23535 14340.91504 -344.12018 482
2164.08569 14280.03613 -108.38349 495
2210.56885 14617.21289 129.93372 499
2207.92920 14599.59277 370.09152 499
2210.88525 14604.12891 612.18854 498
2229.97437 14749.94141 861.58789 389
2260.12500 14334.43164 -345.43622 482
2249.77954 14275.45117 -107.63090 494
2300.85840 14612.18066 129.87396 499
2304.76685 14622.09668 373.65854 499
2302.52734 14627.54883 613.49493 498
2321.58862 14749.43945 864.42419 389
2350.56958 14324.89648 -345.00204 482
2342.18164 14266.74512 -105.66595 494
2394.15088 14607.33008 131.37109 499
2395.66162 14613.63086 373.81238 498
2397.04297 14622.26172 614.58044 498
2414.00513 14746.56055 861.31335 389
2436.87939 14317.04297 -343.79010 482
2427.40112 14262.60547 -106.50797 494
2482.52148 14598.16016 132.00018 498
2485.80786 14607.78613 371.84305 498
2486.29663 14612.38379 615.34491 498
2507.86865 14741.92188 861.91003 389
2528.58398 14312.77539 -346.54791 482
2518.10376 14257.19531 -107.36246 494
2573.79712 14589.62207 130.24187 498
2574.92358 14598.68164 372.63736 498
2576.10938 14605.83105 615.79419 498
2599.44922 14737.11426 866.13409 389
2618.41797 14305.23047 -344.69022 482
2606.36938 14248.91016 -108.03737 494
2666.40210 14583.65430 130.69170 498
2667.99487 14593.07422 371.43848 498
2667.50000 14601.95215 616.83374 498
2693.40918 14734.35352 863.85559 389
2707.54126 14297.93848 -347.13806 482
2696.19019 14243.47461 -108.55521 494
2756.66333 14575.14258 128.33417 498
2760.56787 14584.61914 374.41299 498
2759.08301 14590.88672 614.15833 498
2784.18262 14732.86426 865.46118 389
2795.11157 14293.08594 -345.67142 481
2786.54639 14238.19629 -106.55087 493
2850.43848 14570.14160 129.12592 498
2851.26440 14578.94141 373.32709 498
2852.89551 14584.77637 615.78107 497
2885.75806 14757.25586 868.68890 351
2886.78467 14286.24902 -347.58563 481
2875.99414 14229.73730 -105.61954 496
2948.41748 14608.70703 129.69170 469
2954.79004 14626.26074 373.96719 444
2952.40576 14630.23730 619.25922 444
3005.02490 14880.10645 875.84772 441
2976.03540 14276.68652 -347.52551 481
2963.05762 14226.61133 -108.02281 496
3047.77417 14636.38770 129.75502 468
3059.23511 14681.08984 373.77655 443
3058.90259 14688.17285 621.68054 443
3102.06934 14907.75879 876.26843 440
3066.36206 14271.91406 -348.07211 481
3055.72461 14220.42090 -106.03004 495
3147.03101 14662.01758 132.21132 467
3160.07788 14721.41797 376.16940 466
3163.34033 14743.65723 621.86737 442
3154.80664 14264.57617 -349.21866 481
3146.44800 14211.71484 -107.02161 495
3249.76978 14691.15039 129.56725 466
3261.41602 14749.36426 378.44958 466
3245.34521 14258.32812 -346.10275 481
3235.26855 14209.28418 -107.19160 495
3348.06665 14717.58203 132.07951 466
3364.26099 14777.25684 377.58630 465
3338.41382 14252.27051 -349.14423 488
3328.54248 14200.05859 -109.43005 495
3449.35278 14745.90820 128.62442 465
7632.67529 32178.75586 -7010.04102 1000
3428.28589 14246.62109 -348.61362 488
3415.93872 14196.93457 -108.56194 494
3552.62549 14770.93945 131.38074 464
3517.86060 14239.26367 -350.41946 488
3507.47803 14189.15723 -106.85886 494
3609.68408 14232.90723 -348.55106 487
3598.75586 14185.08105 -109.04444 494
3703.23438 14224.15430 -351.68341 487
3688.86475 14177.03613 -110.72517 494
3795.23560 14220.53613 -352.23849 487
3780.27515 14173.03125 -107.84406 493
3884.15991 14211.26660 -351.50021 487
3874.40918 14164.01074 -109.39648 493
3978.23584 14206.58789 -350.76877 486
3962.77588 14159.50586 -111.21283 493
4071.14673 14199.18066 -352.87546 486
4057.06372 14153.20898 -108.50904 492
303.85706 1058.91284 -36.16622 486
4147.00391 14148.05664 -111.59344 492
4253.87012 14186.56836 -352.17352 485
4243.06885 14140.39453 -108.28670 492
4348.12988 14181.60547 -355.16168 485
4332.61963 14136.22559 -109.46909 491
4441.64453 14175.64355 -355.59116 485
4425.61768 14128.45410 -112.32590 491
4533.37695 14169.01465 -356.00351 484
4519.33252 14124.39062 -113.12450 491
4628.93311 14161.98340 -357.53534 484
4613.49463 14118.33496 -110.92865 490
4724.64209 14154.94434 -357.20172 484
4709.55078 14112.25195 -112.63129 490
4844.85693 14229.01367 -605.62115 473
4818.30176 14150.03711 -358.28763 483
4802.12061 14106.07129 -112.03846 490
4938.00732 14221.42969 -605.35748 473
4909.77246 14141.80957 -357.03076 483
4896.45068 14098.19336 -114.03902 489
5034.54736 14211.60449 -608.19043 472
5007.63135 14134.41797 -357.99094 483
4993.13477 14094.30469 -111.28781 489
5129.90576 14206.61035 -610.50977 472
5102.54004 14128.09082 -358.16937 482
5085.86377 14083.54199 -112.35445 488
5225.09082 14198.14453 -609.19611 471
5198.48975 14119.86816 -361.57419 482
5183.26221 14081.70898 -112.32002 488
5320.76123 14193.38867 -611.47015 471
5295.11279 14116.26562 -362.51016 481
5278.18066 14074.64355 -113.98923 488
5420.58887 14184.61230 -613.56909 471
5390.63037 14110.38965 -361.83966 481
5374.53320 14065.62695 -112.41665 487
5514.59326 14179.09473 -615.26038 470
5488.31445 14102.70898 -362.43280 480
5471.89160 14059.17578 -114.07690 487
5612.75439 14169.79395 -615.68634 470
5581.77100 14095.69141 -363.41742 480
5567.66309 14053.94824 -113.49894 486
5710.50537 14163.13867 -617.71295 469
5681.02637 14087.58203 -364.12723 480
5667.55029 14047.09180 -114.91924 486
5811.25830 14157.42090 -616.75085 469
5781.25732 14080.46094 -364.98825 479
5764.80127 14040.43945 -114.36148 485
5907.09229 14149.72852 -619.27972 469
5879.69629 14074.33789 -365.20187 479
5863.20703 14033.41602 -117.01997 485
6007.58984 14141.45996 -620.83905 468
5977.95166 14066.33105 -367.86459 478
5959.85205 14028.61523 -116.30117 484
6106.36426 14136.05371 -624.70923 468
6076.37354 14062.39258 -369.93823 478
6058.51807 14021.42871 -118.05646 484
6206.12793 14128.31934 -625.07733 467
6173.42383 14053.59082 -369.53333 477
6156.65283 14017.45508 -119.64497 483
6306.91602 14121.00098 -627.20886 467
6275.72021 14046.28223 -369.44635 477
6260.34668 14011.94531 -116.98815 369
6406.73877 14115.58789 -629.41779 452
6376.85596 14040.87012 -373.14841 476
6361.90430 14012.42188 -121.57677 368
6515.98047 14117.74316 -628.28247 452
6475.87256 14033.53516 -372.82565 476
6462.15674 14009.49707 -121.76878 368
6620.96973 14124.98340 -630.68317 451
6574.79395 14028.16406 -373.55649 475
6567.47559 14006.78809 -121.84159 368
6732.40283 14127.91016 -634.80090 452
6684.53418 14034.38184 -376.63867 452
6671.00635 14005.43066 -121.00909 367
6838.36621 14136.61426 -639.24146 451
6794.75537 14042.28613 -379.17892 451
6773.92041 14000.18652 -120.49981 367
6950.82275 14143.35254 -641.03644 451
6906.54395 14050.33691 -377.53818 451
6876.71289 13995.95605 -122.64287 432
7064.97949 14153.03125 -644.42188 450
7016.90771 14058.89258 -380.58755 450
6982.39160 13987.36035 -121.93649 399
7178.75781 14169.38086 -645.56598 405
7129.57617 14065.21387 -384.70569 451
7089.42627 13991.63672 -123.35591 399
7310.68115 14213.07520 -651.34088 383
7238.92285 14074.45703 -385.72122 450
7202.66357 14000.26953 -122.73946 447
7449.03662 14265.64746 -656.37738 382
7354.01172 14082.25586 -386.10968 449
7318.07715 14017.19922 -127.03598 447
7586.79834 14317.39160 -662.20404 381
7470.55469 14095.15137 -389.70755 405
7437.95703 14030.43066 -128.83904 446
7726.86719 14370.50098 -665.82098 380
7602.92188 14134.25977 -390.50497 404
7559.08691 14048.17578 -128.56323 445
7924.73975 14523.19043 -678.00366 286
7732.88623 14173.47266 -395.19153 403
7674.59229 14065.91113 -127.28813 447
7868.37646 14211.67383 -399.14764 402
7798.28076 14080.65820 -131.47572 446
8013.77539 14262.81543 -403.46103 380
7918.34229 14094.15527 -132.72260 445
8171.47656 14338.12402 -408.90439 352
8045.83398 14116.22070 -134.19643 382
8333.38477 14426.69238 -409.62939 351
8200.19824 14188.75586 -134.68585 306
35131.47656 33416.35156 -11148.33105 1000
1673.75281 1427.91321 -77.48795 494
1679.79456 1433.52942 -42.83440 496
1686.78027 1439.69897 -8.19451 418
1685.10339 1419.94263 -77.45750 425
1007.23224 780.03528 73.54086 1000
18089.15625 12690.40234 -4995.86523 1000
63049.61719 24736.80469 13622.58203 1000
3271.81348 510.57919 -76.84503 282
3269.22656 510.58969 -24.45589 319
3245.17798 486.50037 -75.64780 412
3332.47729 500.35440 -27.20441 267
3235.15332 465.51404 -74.60110 412
3224.81079 444.01355 -73.50093 413
3219.48413 423.30414 -72.74088 483
3215.19312 403.18552 -72.27610 484
3211.29077 383.00275 -72.39227 484
3210.27930 363.60495 -72.24917 493
3208.56787 344.63641 -71.34773 493
3206.82910 324.75412 -71.28798 494
3205.94360 305.21948 -71.39607 496
3206.82227 286.11087 -71.49749 496
3206.90308 266.65234 -70.81133 496
3390.44409 282.29572 -29.03491 275
3207.13794 246.99898 -71.31956 496
3283.66577 253.44344 -23.52282 498
3207.82153 227.53712 -70.59560 496
3287.35864 233.87621 -23.05995 498
3209.44214 208.92206 -71.30750 497
3291.27515 214.23041 -23.16146 413
3210.71240 189.02771 -71.36592 497
3212.67358 170.24458 -71.01968 496
3215.31860 151.35529 -70.80758 496
3218.46973 131.97038 -71.59248 495
3310.21875 135.94357 -24.49680 371
3221.21191 112.73973 -71.46778 494
3307.09302 116.07864 -24.31224 497
3353.04175 117.95570 80.31757 449
3224.56323 93.36306 -71.80126 494
3311.08105 95.92068 -23.85673 497
3351.36719 97.51031 80.46397 477
3227.95117 74.59205 -72.06540 494
24788.25391 583.13312 5482.46045 1000
3230.85840 55.29482 -71.93678 493
3409.08716 58.76061 188.00288 291
3234.56030 35.40424 -71.83363 493
3477.15283 38.35427 -31.91207 496
3237.75781 16.48852 -72.80862 493
3387.37109 17.12344 -27.90942 496
3241.87842 -2.46735 -72.94169 493
3295.33374 -3.22978 -23.42936 495
3244.81201 -22.16886 -72.95219 492
3298.65991 -22.58427 -23.81590 495
3248.70947 -41.56735 -72.95087 492
3440.61743 -85.46603 79.68066 486
3436.84985 -271.42383 -30.48486 491
39133.01172 -14059.79102 -2569.74365 1000
2556.65234 -1246.96362 -2.47335 487
2561.34521 -1249.60571 42.84107 474
2553.15674 -1264.24500 -2.84741 394
49802.35938 -32968.14844 1125.87500 1000
4234.81006 -3728.75928 42.48844 255
4186.67090 -3731.02002 42.28655 436
4175.21924 -3767.05957 42.80756 444
4166.30322 -3805.26221 42.22640 452
4157.61523 -3843.83154 42.10355 451
4151.19971 -3885.69507 41.61762 438
4147.97852 -3931.34766 41.35443 423
4149.15332 -3981.36377 39.47980 411
4155.20703 -4035.92261 39.70100 342
26122.46094 -25876.96680 7439.19727 1000
4177.06445 -4108.59570 38.32730 367
4203.11816 -4184.28223 36.83207 357
4227.07178 -4262.16357 35.80347 355
4253.35352 -4342.35693 33.94320 357
2866.29053 -3154.17358 64.38297 498
24994.74609 -30558.11914 4670.87402 1000
2834.77124 -4300.51123 49.11744 498
2838.98364 -4307.10986 131.82938 484
2995.10034 -5259.27832 140.48247 419
2950.28955 -5255.02002 141.96359 440
2907.67432 -5252.22607 141.51279 462
2865.18213 -5251.08496 141.49358 470
2824.45557 -5252.14502 141.61020 471
2785.31421 -5253.26904 140.00671 263
2747.44434 -5259.64648 141.46835 481
2708.57153 -5260.88477 141.34906 487
2672.51416 -5270.15430 140.80098 489
2685.90381 -5300.82861 237.44595 492
2693.47021 -5315.97900 334.85455 421
2633.14722 -5273.70410 139.80565 492
2651.46143 -5311.49023 237.48048 496
2656.41968 -5322.99854 333.79834 408
2598.99146 -5283.68701 141.19255 493
2616.51001 -5319.80859 236.21611 496
2621.75806 -5333.57959 333.80292 422
2561.90308 -5290.55664 140.07002 431
2578.20923 -5325.29785 237.48701 496
2586.28174 -5341.34863 333.47864 422
2527.64307 -5301.43604 139.97966 496
2542.34399 -5335.51611 236.12857 496
2548.72095 -5349.55811 333.00861 422
2493.65845 -5311.91650 140.32520 497
2511.12158 -5350.88135 236.15356 497
2514.29370 -5358.82422 332.58426 422
2456.17651 -5319.18018 140.95969 497
2474.83301 -5360.97363 236.52368 497
2478.47388 -5367.46143 332.25864 422
2422.14209 -5328.39697 140.56531 495
2439.76001 -5370.55615 235.98094 497
2443.48926 -5376.28320 332.17569 423
2386.82422 -5337.60791 140.12906 495
2405.88281 -5380.50684 235.93694 497
2406.95703 -5384.13330 331.49481 423
2352.22095 -5347.56396 140.26793 496
2402.67212 -5466.77295 334.90158 271
2318.14478 -5357.83936 140.68582 496
2384.56543 -5517.74902 433.31772 483
2282.90283 -5368.06787 139.78360 496
2249.33545 -5377.24414 139.31880 496
2124.50977 -5450.86230 234.42088 486
2090.22119 -5461.95947 234.33199 487
2079.28174 -5536.53613 236.01044 479
2039.11243 -5532.84570 236.29047 480
1990.90112 -5500.88086 234.05244 499
1231.05310 -4414.96924 138.04416 455
1602.14185 -6006.59570 -165.11235 1000
846.54272 -3554.62744 135.68343 340
797.69336 -3423.26880 135.65471 293
756.46094 -3330.98926 135.88423 295
717.41522 -3235.81934 135.49612 328
721.04218 -3257.49487 190.37874 300
688.24237 -3189.92676 135.86504 358
691.97479 -3209.68945 189.36226 456
661.51056 -3156.11792 135.41655 373
669.70001 -3201.00146 188.88188 452
636.65826 -3128.30054 135.04407 383
650.68713 -3207.29492 188.83119 473
612.81799 -3104.78735 135.23132 397
631.43640 -3214.59863 188.44739 472
590.10101 -3084.87915 135.26070 405
612.30042 -3221.84473 188.84389 472
574.42041 -3106.74414 83.97953 371
568.17139 -3064.57324 135.13698 400
593.60309 -3228.57129 188.96581 472
545.52106 -3046.56470 135.08289 403
574.24695 -3235.62402 189.24767 471
523.99591 -3029.47290 135.37787 408
554.88489 -3243.81323 189.07555 471
503.45169 -3014.52319 134.99330 409
535.79242 -3250.08252 189.20091 471
482.40656 -3001.97729 134.97736 420
516.38257 -3258.12207 188.99008 471
469.39127 -3040.79077 135.24460 321
496.55228 -3265.04150 189.00652 470
458.01395 -3108.08887 134.80296 261
478.34610 -3283.26489 189.44678 366
449.92230 -3206.51196 135.63383 273
-4652.83203 -8733.62500 133.50777 1000
-578.75708 -1206.19458 64.21333 498
-578.13947 -1205.26953 87.05721 499
-577.68073 -1203.93762 109.63376 499
-577.08575 -1203.00952 132.15353 499
-576.51672 -1202.15613 154.87033 499
-576.26270 -1201.11047 177.24983 499
-575.70331 -1200.31702 199.84897 487
-575.04388 -1199.50427 222.57500 487
-574.78430 -1198.39966 244.84688 487
-574.11542 -1197.68542 267.60257 487
-573.61572 -1196.69019 290.30118 487
-940.46667 -1825.54285 97.75905 486
-939.42908 -1824.17615 132.36099 487
-938.73840 -1822.65894 166.53763 487
-937.75037 -1820.96765 201.01476 487
-936.87653 -1819.37427 234.84810 487
-936.22186 -1817.28674 269.46439 487
-934.77917 -1815.85767 303.77985 487
90.11344 -2.99307 127.90535 359
90.11609 -2.99216 128.15173 359
90.07616 -3.00480 128.38637 306
90.22421 -2.88285 127.92807 360
90.22514 -2.88419 128.17296 361
90.11208 -2.91852 128.38562 306
89.04226 -3.26070 128.38731 302
90.33106 -2.77518 127.94676 361
90.33140 -2.77606 128.19055 362
90.14855 -2.83363 128.38782 306
89.07837 -3.16685 128.38635 302
90.43978 -2.66935 127.96616 363
90.43898 -2.67011 128.20911 363
90.18743 -2.74688 128.38766 306
89.11578 -3.07548 128.38652 302
90.54328 -2.56493 127.98536 364
90.54395 -2.56436 128.22705 364
90.22486 -2.66003 128.38692 306
89.15284 -2.97996 128.38721 302
87.90359 -3.35622 128.38808 298
90.64739 -2.46071 128.00372 365
90.64635 -2.46168 128.24434 366
90.26373 -2.57196 128.38605 306
89.19099 -2.88671 128.38759 302
87.93948 -3.25298 128.38499 298
90.74901 -2.35813 128.02205 367
90.75043 -2.35894 128.26056 367
90.30223 -2.48653 128.38788 306
89.22809 -2.79404 128.38766 302
87.97849 -3.15393 128.38615 298
90.85001 -2.25695 128.04033 368
90.85026 -2.25901 128.27643 368
90.34344 -2.40066 128.38774 306
89.26727 -2.70228 128.38626 302
88.01376 -3.05127 128.38698 298
90.94913 -2.15990 128.05615 369
90.94986 -2.15711 128.28967 370
90.38239 -2.31269 128.38571 306
89.30731 -2.60783 128.38736 302
88.05469 -2.95052 128.38797 298
91.04581 -2.05951 128.07317 370
91.04595 -2.05989 128.30548 371
90.42228 -2.22726 128.38692 306
89.34649 -2.51490 128.38744 302
88.09032 -2.85061 128.38576 298
91.14384 -1.96351 128.08688 372
91.14356 -1.96241 128.32005 372
90.46602 -2.14034 128.38760 306
89.38743 -2.41987 128.38597 302
88.13216 -2.74727 128.38673 298
91.24068 -1.86849 128.10255 373
91.24052 -1.86643 128.33359 374
90.50614 -2.05443 128.38763 306
89.42762 -2.32731 128.38667 302
88.16980 -2.64561 128.38646 298
86.68898 -3.02180 128.38553 294
91.33537 -1.77334 128.11725 374
91.33501 -1.77308 128.34608 375
90.54863 -1.96594 128.38760 306
89.46896 -2.23238 128.38611 302
88.21034 -2.54512 128.38504 298
86.73012 -2.91052 128.38611 294
91.36672 -1.69478 128.11314 462
91.36643 -1.69379 128.34428 463
90.59278 -1.88028 128.38574 306
89.51173 -2.13851 128.38707 302
88.25334 -2.44428 128.38821 298
86.77096 -2.79980 128.38811 294
91.38674 -1.61693 128.10745 462
91.38765 -1.61788 128.33812 463
90.63513 -1.79443 128.38724 306
89.55475 -2.04655 128.38589 302
88.29287 -2.34128 128.38554 298
86.81007 -2.68980 128.38838 294
91.40939 -1.54236 128.10178 463
91.40720 -1.54151 128.33267 464
90.67997 -1.70718 128.38576 306
89.59856 -1.95328 128.38800 302
88.17833 -2.27537 128.35524 364
86.85017 -2.57653 128.38573 294
91.42946 -1.46544 128.09358 464
91.42806 -1.46496 128.32654 465
90.72543 -1.62048 128.38736 306
89.64268 -1.86107 128.38556 302
87.99107 -2.22473 128.30606 363
86.89513 -2.46794 128.38483 294
91.45037 -1.38912 128.08803 464
91.44849 -1.38860 128.31834 465
90.76889 -1.53379 128.38596 306
87.79529 -2.17190 127.96775 361
87.79419 -2.17344 128.25871 361
86.93686 -2.35804 128.38496 294
91.47022 -1.31073 128.08096 465
91.47044 -1.31161 128.31369 466
90.81628 -1.44823 128.38672 306
87.59283 -2.11657 127.91464 360
87.59137 -2.11806 128.20789 360
86.98140 -2.24607 128.38547 294
91.48971 -1.23335 128.07391 466
91.49059 -1.23471 128.30528 467
90.86073 -1.36258 128.38551 306
87.38519 -2.06309 127.85791 358
87.38500 -2.06274 128.15625 359
87.02349 -2.13432 128.38802 294
91.51154 -1.15671 128.06729 466
91.51119 -1.15629 128.29962 467
90.90835 -1.27566 128.38742 306
87.17020 -2.00551 127.80262 357
87.16942 -2.00497 128.10645 357
87.06918 -2.02380 128.38799 294
91.53233 -1.08029 128.05994 467
91.53237 -1.08018 128.29356 468
90.95541 -1.18768 128.38562 306
87.14513 -1.90839 127.78674 302
87.07211 -1.92166 128.07574 452
87.07299 -1.92046 128.37999 453
91.55180 -1.00193 128.05412 468
91.55185 -1.00053 128.28575 469
91.00337 -1.10111 128.38734 306
87.18781 -1.79672 127.78887 302
86.98702 -1.83396 128.04945 451
86.98724 -1.83657 128.35266 452
91.57281 -0.92392 128.04584 468
91.57288 -0.92228 128.28015 469
91.05165 -1.01570 128.38657 306
87.23512 -1.68729 127.78613 302
86.89872 -1.74686 128.02158 450
86.89738 -1.74657 128.32793 451
91.59483 -0.84456 128.03940 469
91.59512 -0.84427 128.27139 470
91.09916 -0.92826 128.38719 306
87.27864 -1.57887 127.78656 302
86.80815 -1.65729 127.99620 449
86.81052 -1.65875 128.30377 450
85.46859 -1.88639 128.38542 290
91.61630 -0.76766 128.03264 470
91.61660 -0.76707 128.26468 471
91.14923 -0.84361 128.38541 306
87.32625 -1.46748 127.78606 302
86.71665 -1.56733 127.96661 449
86.71691 -1.56810 128.27957 449
85.52051 -1.76471 128.38760 290
91.63631 -0.68863 128.02446 470
91.63631 -0.68909 128.25731 471
91.19959 -0.75684 128.38686 306
87.37340 -1.35780 127.78877 302
86.62759 -1.47480 127.93787 448
86.62688 -1.47587 128.25160 448
85.56786 -1.64394 128.38570 290
91.65849 -0.60954 128.01549 471
91.65691 -0.60893 128.25011 472
91.24989 -0.67165 128.38577 306
87.42295 -1.24796 127.78745 302
86.53444 -1.38367 127.90940 447
86.53410 -1.38277 128.22530 447
85.61579 -1.52028 128.38808 290
91.67751 -0.52909 128.00851 471
91.67981 -0.53068 128.24211 472
91.30189 -0.58524 128.38722 306
87.46984 -1.13836 127.78693 302
86.43737 -1.28673 127.88104 446
86.43910 -1.28860 128.19916 447
85.66789 -1.39879 128.38609 290
91.69952 -0.45107 127.99940 472
91.70145 -0.44991 128.23483 473
91.35194 -0.49889 128.38576 306
87.51827 -1.02885 127.78934 302
86.34314 -1.19019 127.85077 445
86.34177 -1.19255 128.17207 446
85.71948 -1.27786 128.38483 290
91.72129 -0.37178 127.99181 473
91.72175 -0.37121 128.22710 473
91.40446 -0.41365 128.38570 306
87.56889 -0.91867 127.78869 302
86.28711 -1.08826 127.83059 493
86.28938 -1.08802 128.15343 493
85.77209 -1.15724 128.38550 290
91.74258 -0.29138 127.98325 473
91.74326 -0.29021 128.21992 474
91.45624 -0.32644 128.38718 306
87.61715 -0.80833 127.78757 302
86.25700 -0.98266 127.81479 492
86.25847 -0.98272 128.13875 493
85.82354 -1.03369 128.38474 290
91.76546 -0.21081 127.97629 474
91.76511 -0.21114 128.21109 475
91.51119 -0.24002 128.38649 306
87.67089 -0.70138 127.78916 302
86.23120 -0.87238 127.80085 492
86.22960 -0.87256 128.12277 493
85.87796 -0.91584 128.38817 290
91.78533 -0.12879 127.96812 474
91.78471 -0.12897 128.20444 475
91.56352 -0.15387 128.38786 306
87.71966 -0.58962 127.78765 302
86.21872 -0.75923 127.78917 298
86.19958 -0.76305 128.10735 493
85.93061 -0.79483 128.38660 290
91.80821 -0.04948 127.96014 475
91.80933 -0.04931 128.19653 476
91.61897 -0.06799 128.38647 306
87.77592 -0.48175 127.78703 302
86.27012 -0.64053 127.78938 298
86.17120 -0.65259 128.09380 493
85.98391 -0.67409 128.38655 290
91.81304 0.03090 127.94579 488
91.81259 0.03185 128.18336 489
91.67392 0.01751 128.38628 306
87.82721 -0.36997 127.78709 302
86.32684 -0.52223 127.78915 298
86.13943 -0.54102 128.07704 492
86.03857 -0.55335 128.38611 290
91.79256 0.10735 127.92696 488
91.79047 0.10882 128.16512 489
91.72980 0.10164 128.38670 306
90.64040 -0.00114 128.38684 302
86.38023 -0.40310 127.78643 298
86.11281 -0.42967 128.06418 492
86.09751 -0.43016 128.38722 290
91.77246 0.18570 127.90620 487
91.77161 0.18626 128.14635 488
91.77093 0.18695 128.38321 489
90.69836 0.09182 128.38704 302
86.43223 -0.28506 127.78740 298
86.08116 -0.31528 128.04472 492
86.08064 -0.31689 128.37346 492
91.74926 0.26562 127.88502 487
91.75029 0.26666 128.12518 488
91.75005 0.26537 128.36501 489
90.75482 0.18233 128.38606 302
86.48943 -0.16727 127.78937 298
86.05080 -0.20255 128.02927 492
86.04970 -0.20468 128.35815 492
91.72773 0.34568 127.86543 487
91.72842 0.34662 128.10741 488
91.72837 0.34537 128.34610 489
90.81045 0.27586 128.38696 302
86.54393 -0.04886 127.78866 298
86.01805 -0.08976 128.01395 491
86.01942 -0.08870 128.34662 492
91.70619 0.42653 127.84340 487
91.70779 0.42557 128.08830 488
91.70575 0.42497 128.32948 488
90.87010 0.36725 128.38557 302
86.60381 0.06808 127.78858 298
86.00401 0.02903 128.00244 482
86.00275 0.02896 128.33412 483
91.68388 0.50810 127.82196 486
91.68601 0.50670 128.06746 487
91.68417 0.50750 128.31013 488
90.92857 0.45833 128.38641 302
86.66064 0.18634 127.78950 298
86.03589 0.14555 127.99622 483
86.03712 0.14707 128.32678 483
91.66359 0.59153 127.80223 486
91.66145 0.59024 128.04803 487
91.66254 0.59027 128.28989 488
90.98731 0.55074 128.38753 302
86.71883 0.30667 127.78896 298
86.06982 0.26697 127.99226 483
86.06567 0.26840 128.32452 484
91.64156 0.67359 127.77981 486
91.64081 0.67247 128.02829 487
91.64091 0.67282 128.27303 488
91.04569 0.64183 128.38632 302
86.77569 0.42305 127.78665 298
86.09901 0.38934 127.98601 483
86.09914 0.38681 128.31818 484
91.61922 0.75703 127.75833 485
91.61875 0.75852 128.00758 486
91.61905 0.75820 128.25421 487
91.10669 0.73506 128.38632 302
86.83605 0.53875 127.78904 298
86.13389 0.50936 127.97977 484
86.13381 0.51073 128.31519 485
91.59576 0.84278 127.73707 485
91.59418 0.84268 127.98653 486
91.59577 0.84281 128.23454 487
91.16581 0.82615 128.38651 302
86.89483 0.65954 127.78835 298
86.16612 0.63015 127.97818 484
86.16309 0.62950 128.30888 485
91.57352 0.92829 127.71629 485
91.57210 0.92679 127.96485 486
91.57327 0.92868 128.21346 487
91.22742 0.91573 128.38531 302
86.95660 0.77561 127.78856 298
86.19681 0.75196 127.97207 485
86.19580 0.75068 128.30557 486
91.54777 1.01546 127.69166 484
91.54760 1.01494 127.94379 485
91.54778 1.01546 128.19357 486
91.29051 1.00694 128.38768 302
87.02007 0.89278 127.78875 298
86.23112 0.87292 127.96390 485
86.22936 0.87311 128.29776 486
91.52511 1.10268 127.66899 484
91.52702 1.10148 127.92431 485
91.52554 1.10293 128.17564 486
91.35014 1.09858 128.38559 302
87.08203 1.01158 127.78790 298
86.26202 0.99456 127.95882 486
86.26154 0.99283 128.29488 486
91.50304 1.19026 127.64904 484
91.50337 1.19062 127.90228 485
91.50298 1.19023 128.15486 486
91.41467 1.19109 128.38658 302
87.14782 1.12665 127.78878 298
86.29337 1.11563 127.95551 486
86.29324 1.11322 128.28845 487
91.47764 1.28100 127.62581 483
91.47748 1.28141 127.88009 484
91.47791 1.28055 128.13469 485
91.47697 1.28009 128.38731 302
90.22083 1.27090 128.38557 298
86.39066 1.23824 127.95848 422
86.39094 1.23665 128.28973 422
91.45277 1.36956 127.60154 483
91.45519 1.36997 127.86024 484
91.45277 1.36956 128.11345 485
91.45321 1.36962 128.36823 486
90.28513 1.36829 128.38795 298
86.50933 1.36191 127.96937 423
86.51270 1.35943 128.30295 424
