# .PCD v.7 - Point Cloud Data file format
VERSION .7
FIELDS x y z rgb
SIZE 4 4 4 4
TYPE F F F U
COUNT 1 1 1 1
WIDTH 1051
HEIGHT 1
VIEWPOINT 5426.916504 -4113.097168 137.329468 -0.031780 -0.146476 0.001798 0.988702
POINTS 1051
DATA ascii
-196.88042 1.23595 53.34625 324
-196.91043 3.03757 53.31547 324
-196.91042 4.81572 53.31215 324
-196.87526 6.63845 53.33583 324
-196.86151 8.40508 53.34078 324
-196.90353 10.28326 53.38081 324
-196.83577 12.07482 53.36388 324
-52897.90625 1997.64795 8037.96484 1000
-283.94339 60.12582 35.78267 316
-263.39926 59.24753 34.49327 325
-277.92563 61.64392 37.16359 322
-294.16516 64.17660 39.99434 312
-259.88818 60.94126 35.34645 350
-274.53778 63.36388 37.98679 346
-290.59735 66.04503 40.62919 341
-257.90472 62.86354 35.75026 350
-272.45667 65.35895 38.39745 347
-288.75006 68.24471 41.09809 341
-255.98001 64.72598 36.23446 351
-270.59259 67.36529 38.72896 345
-290.30927 70.97171 40.63908 318
-254.15266 66.59759 36.62122 351
-270.52289 69.62553 38.65269 321
-252.42036 68.53785 36.95507 325
-272.44635 72.33367 38.05770 319
-254.38789 71.12989 36.38013 322
-277.93231 75.84312 36.54171 261
-256.29767 73.78635 35.67134 321
-258.35800 76.41432 35.06619 321
-58284.69922 15846.60254 6124.25928 1000
-37284.31641 35731.85156 10428.68262 1000
-32039.18555 31472.25000 -6530.71973 1000
-1593.09399 1846.64832 50.47326 495
-1596.70593 1851.22412 91.72313 469
-1586.43018 1861.89624 50.52685 366
-1050.07629 1366.04272 15.34761 476
-1054.68494 1371.38831 44.64124 432
-1040.38928 1371.30090 15.90576 493
-1043.17139 1374.80579 44.63630 496
-1046.05945 1378.47522 73.97549 495
-1049.59180 1382.45386 102.96770 495
-1035.24573 1382.37476 15.48776 417
-1038.64844 1386.01013 44.23732 416
-1043.00903 1391.76575 73.48217 289
-541.26837 906.16846 4.89781 293
-541.04065 905.66522 23.33226 433
-543.85577 909.97986 41.15230 372
-533.58191 906.67590 5.40132 478
-532.79950 905.87445 23.89399 477
-534.34088 907.93481 41.59535 477
-536.04712 910.35364 59.81604 434
-538.23059 913.62354 77.78338 416
-527.07874 909.14111 5.62339 489
-526.44836 908.24664 23.82627 498
-528.00775 910.56165 41.89656 498
-529.29028 912.58710 59.83472 497
-530.85187 914.77173 77.77875 497
-532.11218 916.48700 95.88467 497
-535.54443 921.87653 113.87676 390
-522.33905 914.17719 5.38202 488
-521.73975 913.16443 23.82424 466
-523.17908 915.54315 41.67535 466
-524.65747 917.65656 59.84291 466
-525.98840 919.91888 77.90350 466
-527.76086 922.49994 95.84515 417
-520.23279 923.34564 4.64245 406
-518.86627 921.38599 23.22541 416
-521.14777 924.59851 41.31077 351
-445.12561 2739.43970 -235.42178 1000
-5745.90186 41986.80078 4304.29150 1000
-4417.11377 37462.19531 -6100.14453 1000
-809.57672 15419.33105 -120.48139 461
-800.55627 15315.74707 130.59888 466
-711.62976 15380.05469 -123.16212 462
-708.05646 15283.26758 128.92303 467
-616.92987 15347.41992 -120.93385 470
-610.10535 15249.27734 132.18513 471
-519.11176 15316.74805 -120.79149 471
-513.78180 15222.14746 131.98309 472
-424.80585 15290.28125 -120.08839 471
-420.68268 15195.39355 128.82494 472
-327.85107 15261.27734 -117.04162 471
-328.96732 15167.46875 130.92712 473
-234.45009 15234.82227 -116.88049 472
-232.87030 15140.67969 132.68336 473
-140.74780 15204.05859 -116.20019 472
-139.04393 15110.46875 130.30370 474
-48.46490 15177.58887 -115.53614 473
-46.20786 15081.96777 129.19002 474
46.85643 15149.62402 -118.47798 473
47.49969 15055.92773 130.06555 475
140.91441 15120.27148 -117.14404 474
136.41933 15028.88086 132.28137 475
232.88509 15093.77734 -118.14338 474
230.46416 14999.45410 129.17178 475
324.12421 15066.76270 -115.45246 474
323.90076 14974.65918 131.17931 484
415.94321 15039.55566 -116.37298 475
415.12064 14945.95801 128.98195 484
506.47089 15011.74805 -115.89085 475
503.67642 14920.44141 131.28152 484
637.84454 19679.36914 4382.37402 1000
600.50458 14980.75293 -115.66474 476
595.57568 14891.66895 132.09241 485
691.76862 14953.31543 -112.31713 476
684.36639 14866.34473 132.08090 485
779.51562 14928.13867 -114.02966 476
777.24017 14838.63086 131.06892 485
872.73962 14900.97168 -112.45168 477
866.93353 14815.48926 130.27724 486
963.05707 14874.86621 -114.32541 477
958.16699 14787.16113 131.54555 486
1052.27588 14844.88867 -111.46310 477
1046.42322 14759.64160 130.82408 490
1139.34656 14820.08594 -110.07504 478
1135.80981 14735.17676 131.60155 490
1231.57349 14791.47656 -113.12199 478
1223.93652 14707.78906 131.23737 490
1321.56274 14765.88477 -111.69856 478
1312.84021 14683.64551 132.22330 490
1409.71606 14738.01172 -109.63485 479
1403.26062 14659.97559 131.14728 491
1495.62622 14714.11230 -112.02529 479
1490.03101 14631.21191 129.07156 491
1587.70605 14685.69531 -111.64880 479
1576.33423 14604.95508 130.66968 491
1675.25525 14659.70508 -112.26828 479
1666.49255 14579.32715 129.65483 492
1760.40686 14635.22461 -111.45617 480
1754.92712 14557.14941 129.03462 492
1850.75818 14605.20508 -110.92355 480
1842.07080 14530.67383 129.15640 492
1938.39868 14579.87500 -108.46799 480
1929.66711 14503.93750 128.95576 492
2024.88818 14553.54492 -109.93250 480
2014.75085 14480.07422 132.16014 493
2113.13306 14528.48047 -109.86747 481
2104.76636 14455.92285 131.88156 493
2199.56470 14503.41602 -110.63698 481
2188.60596 14428.08398 129.34740 493
2286.29688 14477.88574 -107.13290 481
2275.99170 14402.53418 129.58859 493
2375.91016 14448.76367 -107.42941 481
2361.63062 14378.60254 129.93260 493
2460.98804 14424.00977 -107.91621 481
2449.57202 14354.64453 129.95192 494
2572.40601 15088.01953 380.50067 489
2547.63452 14398.97852 -107.25290 482
2535.12598 14329.14746 131.58514 494
2657.45752 15047.56152 381.91772 489
2668.99878 15105.15332 630.45117 410
2636.08447 14373.77246 -109.35406 482
2622.42432 14301.24609 131.26740 494
2748.24805 15002.55859 380.66757 490
2758.23877 15059.12012 631.93323 410
2723.17236 14345.19922 -108.21206 482
2708.68579 14277.10254 132.89699 494
2833.48804 14962.56934 381.72070 490
2844.22656 15020.97852 632.13562 410
2806.24634 14320.07422 -107.22787 482
2793.28833 14252.66504 132.41037 494
2919.30762 14919.60449 377.83813 491
2931.70557 14976.57715 631.43066 411
2893.46973 14295.31934 -105.81256 482
2879.03540 14229.92578 131.28395 494
3005.70752 14877.02930 379.95169 491
3018.74731 14934.91895 630.12054 411
2980.74976 14266.86230 -108.11313 482
2965.68042 14204.32031 132.67776 495
3093.77148 14832.32520 379.54419 491
3107.41724 14892.64258 627.69324 411
3066.04272 14244.69238 -108.49716 482
3050.97119 14179.27441 132.90425 495
3179.83545 14793.42480 377.89139 492
3191.88525 14854.51855 629.52289 411
3152.54980 14216.19043 -105.94444 483
3137.40259 14153.56934 129.72906 495
3266.95166 14751.28516 378.29440 492
3279.35229 14812.75879 627.81909 412
3235.41943 14192.95703 -106.54093 483
3222.68213 14129.90430 131.37613 495
3353.59204 14707.13184 378.70236 492
3366.40723 14773.09473 625.92230 412
3322.87354 14165.34766 -107.15430 483
3308.35889 14104.09277 132.16147 495
3439.74756 14679.24219 375.83942 499
3453.20508 14741.43066 626.23425 416
3406.92261 14140.90918 -105.45568 483
3393.33887 14076.72656 130.06804 495
3528.12158 14654.72754 375.54266 499
3546.02148 14717.42676 627.43048 416
3495.43848 14115.54688 -108.18267 483
3479.17358 14053.32031 132.07169 495
3616.38599 14626.43066 378.59979 499
3633.30859 14693.24414 626.12640 416
3579.54810 14090.79297 -105.70999 483
3565.89160 14030.30664 129.27296 495
3705.88281 14599.82617 378.30621 499
3721.88159 14669.14355 624.37738 416
3664.13696 14063.75391 -107.79124 483
3649.48193 14005.56934 132.24187 495
3797.45850 14573.96094 377.55594 499
3813.87549 14642.45703 624.52844 417
3752.61206 14037.70703 -105.20520 483
3734.83594 13979.74512 130.55087 495
3884.29956 14548.55078 378.89969 499
3903.79077 14618.77148 626.90338 417
3837.55884 14014.12598 -104.17339 483
3822.60718 13953.53906 131.42711 495
3973.42896 14521.89941 376.16611 499
3993.85327 14591.50000 624.70862 417
3923.68164 13985.32520 -106.90397 483
3906.65674 13928.40820 130.94630 495
4062.60303 14493.16602 376.45776 499
4082.23730 14568.00977 627.17139 417
4005.41211 13962.03027 -103.99047 483
3993.24292 13906.73535 132.59428 495
4119.17139 14366.24512 375.23251 498
4163.83105 14512.99414 623.31848 499
4092.07373 13935.52832 -107.39931 483
4078.71997 13880.68848 132.75200 495
4207.25635 14341.41992 375.60999 498
4249.37256 14487.34766 624.26898 499
4176.17920 13909.92578 -107.56425 483
4161.42871 13857.54199 130.49411 498
4296.09375 14313.20801 373.58231 498
4337.78369 14462.42188 626.45813 499
4263.16016 13883.32617 -105.76341 483
4246.94238 13828.98730 131.86742 498
4386.83447 14286.84863 377.55643 491
4427.29199 14435.84180 623.68689 499
4480.59131 14608.29590 882.40253 344
4496.66357 14664.90039 1137.08020 376
4349.05957 13857.79590 -106.38958 483
4333.71484 13805.82324 131.72664 498
4474.02686 14265.15527 374.35178 491
4519.15576 14406.33398 623.31213 499
4560.30371 14553.00000 877.30481 482
4575.77686 14594.32715 1129.83398 298
4435.02490 13834.52051 -106.25072 483
4418.53320 13779.92773 129.76021 498
4561.99902 14234.81055 376.12225 434
4603.45557 14377.67383 625.32739 459
4606.52100 14386.14941 871.23230 459
4520.05566 13808.85156 -104.70558 483
4501.30713 13758.88672 131.70337 498
4674.08008 14286.37988 378.14413 460
4676.02637 14292.04883 623.09473 460
4677.15527 14299.24707 867.61084 460
4603.39990 13784.63086 -106.50341 483
4589.73828 13734.87988 132.02745 498
4740.80420 14200.59473 377.34360 461
4745.86670 14208.60840 620.07452 461
4747.83350 14215.68945 866.85083 461
4690.73047 13758.04492 -105.04852 483
4672.41699 13709.29590 130.84093 498
4811.71094 14116.72949 376.92242 462
4812.07666 14128.26758 619.10986 462
4817.93701 14136.48242 864.21533 462
4777.45312 13734.11914 -104.11243 483
4758.66504 13684.19824 133.32982 498
4880.20410 14036.94727 373.82248 463
4883.89600 14044.25488 617.91565 463
4883.87744 14052.21680 862.15527 462
4859.95654 13707.95410 -105.94023 483
4844.74512 13660.93164 132.58818 498
4962.11328 13999.63184 374.41446 499
4963.23584 14006.95703 616.03992 499
4964.90967 14010.07129 860.89044 499
5035.12451 14201.87891 1114.76697 420
5035.17969 14204.87109 1363.88403 482
5036.57959 14211.40820 1612.25342 455
5040.57812 14219.68262 1862.48535 455
5239.08447 14797.21777 2193.25830 385
5243.57666 14799.82324 2455.69629 490
4974.65186 13762.56934 -346.91052 480
4946.86035 13682.10449 -105.56416 483
4932.14502 13634.70996 132.66826 497
5043.46875 13959.01172 372.43893 275
5042.08496 13951.14746 616.45477 499
5054.84424 13985.56348 860.16449 499
5153.78076 14269.43164 1123.66272 470
5333.65820 14766.63867 1415.47900 280
5064.53418 13737.21191 -346.77075 480
5032.73877 13657.41113 -104.79662 491
5016.96631 13609.55469 131.23897 497
5127.79248 13919.77051 372.17419 499
5131.67090 13924.33203 615.91632 499
5140.11035 13956.74609 858.73773 498
5245.75146 14241.85059 1124.84546 470
5149.87793 13714.05957 -348.33356 480
5117.69824 13630.37012 -105.89714 491
5101.29346 13584.11719 131.23882 497
5213.81006 13892.81543 371.97156 499
5216.28223 13896.74902 615.19122 499
5227.78809 13933.05176 859.80957 498
5335.82959 14216.17871 1126.51990 470
5233.88672 13689.29883 -347.41473 480
5204.35596 13604.38770 -106.21489 491
5187.77539 13560.28320 133.54417 497
5301.73047 13867.68359 372.82727 499
5304.22754 13872.30664 614.91724 499
5317.33887 13906.86719 861.37445 498
5424.46143 14188.01074 1124.20374 470
5320.00146 13660.62012 -346.09213 480
5289.91846 13580.27148 -104.47736 490
5270.93311 13537.53125 129.68069 497
5388.71338 13839.68359 375.81161 499
5390.10107 13845.42871 617.53839 498
5403.56836 13880.83398 863.61389 498
5511.64062 14162.05371 1126.15540 470
5406.28906 13635.56934 -346.10696 479
5378.32178 13556.63770 -105.93192 490
5359.30273 13512.32324 131.83253 497
5479.97363 13815.14746 374.49765 499
5480.95264 13820.07617 615.09003 498
5493.49805 13854.60449 860.57050 498
5601.69678 14132.56934 1127.45764 470
5496.49463 13609.14453 -347.47885 479
5463.75781 13531.49512 -108.06174 490
5445.36816 13484.22559 132.65446 497
5565.76465 13787.28516 374.02936 498
5566.77441 13795.45508 617.41797 498
5578.90967 13826.81445 862.59125 498
5693.52051 14108.75879 1126.95447 469
5581.45801 13586.05859 -348.65604 479
5550.18066 13505.34277 -106.38164 490
5530.26953 13459.56543 129.73158 497
5655.12402 13762.64551 375.33347 498
5655.74902 13766.98633 618.62958 498
5668.74756 13799.06445 864.34283 498
5779.54688 14077.24902 1126.40112 469
5668.31641 13559.23438 -346.55844 479
5637.01318 13478.67676 -106.86332 490
5618.74512 13438.59082 130.34732 496
5751.95850 13762.31836 374.21130 498
5742.54688 13740.22363 619.28833 498
5689.92188 13613.42383 855.03961 375
5871.04639 14051.72461 1126.53540 470
5756.26904 13533.84277 -348.19971 479
5720.45459 13454.65137 -107.30441 490
5704.42236 13410.44727 131.80876 496
5841.91455 13739.45996 373.72583 498
5840.17822 13743.79980 618.88214 498
5714.32568 13435.80957 846.73328 498
5960.79736 14026.68262 1129.32776 470
5841.28662 13505.83301 -350.81644 479
5807.88818 13429.03125 -105.82098 490
5791.89746 13385.75488 132.76617 496
5927.13232 13709.23926 376.14252 498
5931.39990 13715.40332 621.45447 498
5798.58887 13410.30273 845.91998 497
6053.92920 14002.15039 1131.22852 470
5927.94238 13481.55078 -347.09909 479
5893.81055 13404.35938 -105.82809 489
5878.64209 13360.45020 131.29193 496
5963.86670 13563.25000 371.51822 426
5927.20605 13478.53223 613.16772 492
5885.03271 13382.79688 848.99286 497
6143.44678 13977.72949 1130.16248 470
6015.36035 13454.06641 -348.15973 478
5982.18652 13378.01270 -106.01471 489
5962.60938 13338.83594 133.08003 496
6104.23682 13657.31738 375.36316 497
6106.65869 13663.64453 621.45947 497
5974.44238 13358.15918 850.91028 497
6236.29639 13951.78027 1130.99219 469
6103.02588 13430.67969 -351.63382 478
6069.56250 13351.87598 -106.28769 489
6051.27002 13312.37109 130.73546 496
6193.54443 13632.90723 375.77216 497
6194.02734 13637.15430 619.31531 497
6058.81006 13331.19141 850.67743 497
6323.90820 13926.95117 1133.81580 473
6190.88135 13404.95996 -348.45844 478
6158.16797 13326.37109 -108.79361 489
6136.35840 13286.36621 131.06310 495
6281.41943 13606.54492 377.18857 497
6285.35254 13610.37793 623.27753 497
6181.50000 13381.66797 852.23944 313
6416.11230 13898.96973 1133.29944 472
6278.56885 13376.47266 -350.51587 478
6241.97070 13303.27734 -107.20054 489
6224.27979 13260.86035 132.01227 495
6389.58105 13620.49219 376.19434 440
6391.69189 13621.05957 621.15118 440
6408.74805 13660.96973 869.59875 436
6524.01562 13903.17090 1137.48425 450
6364.71777 13353.04980 -351.08344 478
6331.29443 13276.42773 -106.75018 488
6312.90771 13237.31836 130.29953 375
6501.96729 13637.14941 376.27789 465
6506.22217 13652.26660 624.37567 439
6528.07715 13699.16504 874.15485 435
6455.98730 13323.67383 -353.00644 477
6418.04785 13252.25000 -109.75343 488
6401.72363 13216.13867 132.08922 375
6606.41699 13641.83496 378.67603 464
6627.03906 13684.28711 628.58429 438
6648.01758 13734.95020 878.69849 434
6541.39453 13300.18262 -350.46295 477
6508.33936 13226.31738 -108.68591 488
6490.27490 13192.59473 129.98889 375
6711.55029 13646.10352 382.28073 463
6737.11963 13702.45215 630.44855 462
6628.89014 13271.69434 -353.05551 477
6596.54932 13200.49219 -107.36819 488
6578.55078 13169.60254 130.78592 443
6815.74023 13651.59180 380.81735 463
6843.68652 13708.65430 632.09503 462
6721.01709 13246.35352 -350.89291 477
6682.61768 13175.63477 -108.81301 487
6668.05713 13143.74316 132.04764 443
6922.94141 13658.28320 383.19473 462
6806.80566 13218.87305 -353.59943 476
6770.07031 13148.92188 -109.02956 487
6757.39990 13119.83008 130.36453 443
7070.38721 13740.79785 384.41614 441
6894.99072 13194.34277 -353.46115 476
6859.61572 13123.33496 -108.55860 487
6845.56445 13093.25977 132.34966 443
6986.89062 13166.71289 -353.38562 476
6947.37695 13095.15820 -110.48726 486
6933.68506 13067.77246 134.05305 443
7077.28125 13139.54688 -355.47406 476
7038.69629 13071.99316 -108.50157 486
7022.42529 13039.32617 133.53860 442
7164.85303 13114.35449 -357.23083 475
7127.93213 13046.12207 -109.82463 486
7110.40234 13014.11523 130.31703 442
7256.00439 13089.20117 -356.95728 475
7217.85059 13016.26270 -112.29276 486
7197.58398 12983.90820 132.15533 442
7345.00635 13062.68945 -355.09845 475
7306.43457 12990.66992 -111.71214 485
7289.80322 12959.50684 134.15198 459
7435.10693 13035.83594 -359.43832 474
7397.60938 12964.24219 -110.76161 485
7380.99609 12937.53418 132.85713 420
7525.75293 13005.47266 -356.46252 474
7486.71729 12938.07910 -111.89462 485
7470.82568 12913.07324 132.63982 419
7615.95801 12980.15918 -359.88159 474
7577.85303 12913.72363 -112.20242 484
7564.69287 12890.82520 131.77972 300
7657.82764 12979.07031 -353.81738 473
7618.69629 12913.60938 -106.89813 484
7611.38232 12903.07227 137.91951 295
7747.07715 12951.01953 -357.12915 473
7708.47266 12884.94824 -107.72012 483
7707.55225 12883.75195 135.00380 294
7839.21533 12924.18652 -356.30579 473
7800.20898 12857.48926 -108.46767 483
7803.83691 12866.27246 135.12155 294
8060.55566 13289.39062 2435.56470 1000
1003.63666 1538.32349 429.25043 1000
7931.12793 12896.59277 -356.93503 472
7891.11914 12830.47461 -108.46833 483
7900.88525 12851.79883 137.93349 294
8022.85107 12870.94531 -360.55206 472
7981.84863 12804.13672 -108.63319 482
8831.82129 14182.13281 134.94196 419
8117.14893 12844.39844 -358.23642 472
8075.92139 12779.04395 -112.47303 482
8932.26270 14151.00586 135.33240 419
8210.34766 12816.31348 -361.60547 471
8167.46533 12752.71484 -111.57243 482
9033.58594 14117.95996 135.96829 419
8300.92676 12791.00293 -360.80432 471
8260.50781 12727.46191 -112.95432 481
9134.16406 14081.66016 133.87538 418
8397.36914 12761.08398 -364.36786 470
8357.12695 12701.02441 -111.89778 481
9239.35449 14050.17773 137.31635 414
8489.01172 12737.04492 -363.27310 470
8448.61426 12673.78320 -113.77487 480
9340.09570 14020.36133 135.89629 414
8586.86523 12707.99316 -363.48788 470
8545.16211 12646.60352 -114.35191 480
9444.66113 13992.23242 136.65656 413
8681.65625 12680.54004 -364.68170 469
8638.82031 12617.90820 -116.01010 479
9550.03027 13961.55078 133.67796 413
8773.17383 12653.36719 -368.70346 469
8732.41406 12588.68359 -116.76063 479
8870.21777 12623.53320 -367.22256 468
8826.45508 12560.80469 -117.38717 478
8966.65625 12594.46484 -368.01123 468
8922.38184 12533.18750 -117.20782 478
9063.75000 12568.99316 -369.47577 467
9019.19238 12508.16797 -116.51260 477
9160.87793 12538.23047 -373.83267 467
9115.69238 12479.68555 -118.62338 477
9258.64844 12511.29004 -372.93112 466
9214.26172 12453.49512 -119.87408 476
9354.02734 12484.98926 -375.41534 466
9312.54004 12423.40234 -117.36332 476
9454.16309 12455.38672 -377.31421 465
9410.70703 12397.02246 -118.10062 475
9553.02051 12427.95996 -376.18958 465
9508.89648 12369.90820 -119.64240 475
9650.01367 12396.31836 -379.02667 464
9606.90234 12340.42480 -119.61132 474
9761.46582 12379.21094 -380.02805 451
9706.82422 12312.02148 -120.67825 474
9869.13574 12364.48438 -380.30139 450
9805.91406 12282.35352 -122.60833 473
9832.95020 12317.14844 133.00829 351
9982.39551 12347.02246 -382.46146 449
9911.82422 12260.06152 -122.02598 450
9939.77930 12296.85645 134.11945 350
10096.01367 12331.60547 -386.96585 449
10023.54297 12242.94531 -125.01165 449
10045.97852 12272.98438 131.77998 350
10207.25977 12315.09570 -389.76498 448
10136.58984 12228.80469 -124.17834 448
10320.05957 12301.01074 -388.27362 447
10248.03223 12213.82715 -128.33641 447
10242.18945 12202.75684 133.57590 357
10436.18359 12285.31738 -392.57718 446
10364.29297 12195.74707 -127.33745 447
10342.39941 12171.52539 135.99211 467
10573.15625 12290.71289 -396.90332 401
10478.20312 12180.07031 -130.23030 446
10714.68652 12307.48438 -399.45111 378
10592.79297 12160.71289 -127.76781 445
10871.80566 12330.21875 -402.60974 377
10711.60938 12145.31055 -128.94061 446
10720.71191 12159.23730 134.69113 427
11023.75781 12353.49609 -405.46344 377
10848.85156 12155.05078 -133.59853 400
10844.80566 12144.84570 131.92325 343
11199.28711 12392.76367 -411.65228 349
10992.34473 12163.44531 -134.54399 399
11136.90625 12175.53516 -135.67281 398
11283.72266 12182.39746 -136.10855 376
11458.24805 12219.30176 -140.45146 349
11645.06152 12272.23633 -142.64218 348
11845.70801 12331.05176 -143.82346 257
127.03897 40.18979 127.63994 1000
8902.70410 5267.95996 467.02112 1000
2354.47363 1018.39746 -72.01932 389
2354.46338 1001.87189 -71.45537 499
2360.52637 1004.94843 -31.18942 483
10926.47461 3857.75562 -624.78235 1000
7387.43115 1672.17651 -731.50726 1000
3942.70459 133.30658 1030.25513 1000
3715.45483 -209.01433 -47.29632 275
3694.24634 -229.94034 -46.76887 470
3738.70923 -254.97601 -109.06340 319
3681.93726 -250.89565 -45.70264 471
3715.59473 -275.47241 -107.22117 436
3670.30835 -272.33688 -45.31981 471
3691.47046 -295.99084 -105.43811 417
3659.01782 -293.82260 -44.92210 458
3679.39087 -317.54501 -105.34067 478
3651.62573 -315.52298 -45.04288 459
3668.90576 -339.02908 -104.28173 479
3644.04443 -336.59824 -44.02360 457
3659.64160 -359.75021 -104.57864 491
3637.99707 -358.31836 -44.22533 461
3653.54590 -381.41180 -103.76604 491
3632.15137 -379.33484 -43.59119 460
3647.02930 -402.71329 -103.31606 489
3627.44556 -400.72812 -43.82753 460
3641.90308 -424.87814 -103.81728 490
3622.08911 -422.61694 -43.78565 462
3636.87451 -446.57333 -103.03555 490
3618.93042 -444.38791 -43.87091 385
3632.66943 -468.16592 -102.96122 490
3616.61084 -465.86484 -43.37702 385
3628.13574 -489.51001 -103.24328 488
3613.75854 -487.17926 -43.25251 385
3624.38574 -510.50027 -102.56210 489
3610.62061 -508.75381 -44.14938 385
3621.34131 -533.06305 -102.93258 489
3608.96753 -530.91998 -43.53911 384
3619.24731 -554.85492 -103.31763 489
3606.08081 -552.51514 -44.05755 384
3617.06812 -576.14709 -102.86855 489
3604.53271 -574.04736 -44.27320 384
3614.41797 -598.31396 -103.09254 484
3604.26489 -596.12616 -43.73127 383
3613.65454 -620.17426 -103.17292 481
3602.50024 -618.22076 -44.09170 383
3733.43896 -641.63354 9.99113 402
3614.29785 -642.77576 -103.73100 481
3600.32471 -639.77191 -43.85743 383
3720.75806 -662.22638 10.61303 345
3614.06421 -665.07880 -103.80608 481
3598.26855 -661.91260 -43.91311 383
3722.37744 -685.69971 70.93568 496
3717.71582 -684.77386 131.01788 496
3613.51733 -687.95258 -103.73923 481
3596.37061 -684.45721 -44.69579 383
3613.07861 -710.17487 -104.72275 480
3594.77002 -706.13721 -44.61002 383
3613.73901 -732.82172 -104.77222 480
3592.81445 -728.09625 -44.69613 383
3613.48340 -755.42188 -104.58698 480
3591.11938 -750.32056 -44.41635 383
3613.55444 -777.73438 -105.57561 480
3589.49268 -772.79669 -44.76601 459
3587.68384 -794.40240 -44.97772 458
3794.27808 -841.96167 6.94979 398
3586.97168 -817.40991 -45.22159 458
3674.58765 -837.81189 10.69911 290
3585.43188 -839.08801 -45.40641 458
3584.50488 -861.90692 -46.17197 458
3582.87915 -883.88031 -46.14050 457
3581.94360 -907.18622 -46.52822 457
3580.20117 -929.24969 -46.14537 457
3579.42529 -951.67578 -46.79765 457
3578.07397 -974.40729 -47.03230 456
3576.03760 -997.56323 -47.26643 456
3574.72925 -1020.51550 -47.56050 456
3680.97754 -1051.48816 9.00561 420
3573.96460 -1043.62573 -47.01890 455
3572.07275 -1066.74719 -47.35928 455
3578.89502 -1091.60303 -48.46945 428
3586.12622 -1117.41553 -49.11606 427
10632.54883 -6904.89307 955.34229 1000
2659.77515 -1796.00330 -22.15738 308
2641.42822 -1806.90967 -21.58831 461
17400.56445 -15409.84766 3954.44214 1000
3844.74878 -4781.28271 32.93375 290
3794.03223 -4775.31006 32.52801 437
3748.21460 -4777.03613 33.41796 438
3704.64844 -4779.49316 34.13302 439
3660.67456 -4781.34521 34.84298 440
3626.31030 -4797.16699 33.39349 480
3615.64575 -4844.74365 33.88215 411
3616.05273 -4908.54199 33.50731 374
3768.60425 -5187.47998 26.97777 464
3628.94141 -5057.73340 30.96382 313
3632.04468 -5127.77441 29.49661 354
3636.47729 -5201.08643 28.72785 372
2534.39258 -3729.00610 -14.69392 480
2541.50952 -3739.18188 59.11793 380
2266.57837 -4841.59961 40.31746 497
2189.15869 -5884.04785 24.09438 341
2137.61792 -5850.70850 25.90293 401
2152.88794 -5894.10986 127.29600 499
2076.88330 -5794.06055 26.28498 349
365.65356 -835.80322 203.73373 1000
1947.28711 -5759.28320 27.73212 454
1953.35181 -5776.18359 226.82608 425
1907.49622 -5753.82959 27.89827 461
1911.78687 -5771.86963 226.22542 476
1866.75732 -5751.93066 28.44298 464
1879.35498 -5789.08105 128.12659 492
1875.25256 -5775.44629 225.59987 476
1827.68298 -5750.12012 29.55798 468
1840.33264 -5791.00586 126.66159 493
1836.74072 -5779.88428 226.79163 349
1790.15332 -5749.13623 29.61559 471
1801.34460 -5787.21387 128.15222 493
1802.31775 -5791.73730 227.05354 419
1752.12671 -5751.39355 29.55803 472
1763.99768 -5790.50928 127.11559 494
1764.25159 -5793.28516 225.71997 419
1714.45593 -5753.32715 30.06363 474
1726.48389 -5793.58105 127.41932 494
1725.21692 -5793.91162 226.16071 420
1676.80249 -5756.01611 30.04088 474
1689.21216 -5800.43408 127.90128 494
1687.77258 -5795.47754 226.19919 420
1639.27490 -5758.99121 29.59125 475
1651.14978 -5802.72949 126.80102 494
1650.83191 -5797.03027 226.22420 420
1603.32349 -5761.95752 29.44732 441
1613.82068 -5805.89453 128.47652 495
1612.14209 -5798.13916 225.40181 421
1565.34155 -5765.23828 30.79928 441
1597.60474 -5889.07227 128.21019 296
1581.08289 -5824.06934 225.29933 290
1603.88806 -5911.14893 326.53802 455
1528.50012 -5768.20312 30.19699 441
1596.32678 -6038.52686 229.69075 286
1492.03320 -5772.04053 30.26701 446
1534.47766 -5946.89746 327.62073 493
1456.09656 -5775.30908 30.16827 446
1418.16321 -5777.41797 30.28024 446
1381.75610 -5781.13428 31.58722 392
1346.04968 -5784.36279 31.27748 392
1380.86182 -5943.75244 126.94987 476
1310.02234 -5789.36182 30.66395 392
1273.55994 -5793.05566 30.76484 392
1281.75879 -5834.37061 127.57636 497
1216.88879 -5881.21582 127.40700 473
1171.65723 -5836.80713 128.72443 470
1143.95483 -5892.37988 127.31891 312
1132.41406 -6041.82031 228.18433 458
8558.74805 -60185.95312 -12000.15234 1000
477.24451 -3727.36646 68.45506 308
413.49997 -3308.76123 75.97153 313
417.63132 -3353.52759 129.96030 279
388.42908 -3258.99023 76.97524 341
393.17255 -3311.17993 129.72757 438
364.89560 -3214.70703 77.57545 350
372.33557 -3304.35498 130.13005 478
342.44391 -3182.91626 77.57367 377
351.76111 -3307.15991 129.84013 478
320.55527 -3153.16382 78.10815 372
331.66110 -3309.78564 129.67763 478
298.84305 -3125.12500 79.12971 376
311.41232 -3313.30151 130.33745 478
278.67343 -3100.32861 79.67780 391
291.08871 -3315.70312 130.52158 478
258.22845 -3078.36572 79.62203 386
271.08868 -3318.23242 129.83632 478
240.06287 -3085.28931 79.60596 356
251.09615 -3320.64868 130.20790 477
222.50699 -3121.55396 78.99610 353
230.82700 -3324.38232 130.42915 478
204.28270 -3164.36743 78.22499 335
210.52698 -3326.77417 130.01456 478
186.18452 -3213.77881 77.42519 339
190.09329 -3329.30225 130.23410 278
167.89046 -3271.63428 76.77934 263
170.26714 -3350.93579 129.81351 409
-4189.35156 -27406.94727 6110.85596 1000
-6278.71094 -25900.16602 -5183.74316 1000
-8978.57227 -34152.22656 -3945.76221 1000
-398.24069 -1090.63428 171.03668 329
-396.90442 -1087.98340 190.38661 399
-396.27728 -1086.45569 209.86058 453
-396.01904 -1085.42468 229.40048 453
-395.52628 -1084.76013 249.12851 488
-405.54355 -1088.59839 33.32070 398
-404.76526 -1087.05884 53.30519 398
-404.28854 -1085.96716 72.89156 453
-403.86093 -1085.16150 92.46628 488
-403.33862 -1084.49866 112.02737 488
-403.00626 -1083.73376 131.53967 499
-402.88953 -1083.33740 151.31375 499
-402.79233 -1082.95679 170.66331 486
-402.70145 -1082.78613 190.28725 486
-402.47809 -1082.61218 209.78229 449
-402.66525 -1082.88953 229.37721 448
-402.80313 -1083.54407 249.05972 392
-410.91412 -1082.95422 33.65224 485
-410.69037 -1083.06018 53.39818 485
-410.95862 -1083.20874 72.92093 448
-411.11301 -1083.56091 92.52299 392
-411.63348 -1084.23120 112.00454 322
-900.35760 -1610.07959 69.64962 469
-899.85223 -1608.96875 100.61135 469
-899.31049 -1608.12036 131.40161 495
-898.73956 -1607.75159 162.80034 495
-898.33636 -1606.61340 193.64972 495
-897.74988 -1606.23157 224.55177 497
-897.93274 -1605.94678 255.53088 497
-897.63629 -1605.39661 286.66959 475
-24349.06641 -38934.57422 9269.83789 1000
-1375.60864 -2135.98560 89.04282 497
-1374.96277 -2134.92944 131.60352 495
-1374.14746 -2133.72290 173.69165 495
-1373.66150 -2132.51807 216.29031 469
-1372.92310 -2131.48706 259.19278 421
-1372.65369 -2131.44165 301.53485 357
-58908.40234 -28558.89453 -12905.05469 1000
-32587.88672 -12483.18359 8899.14160 1000
90.12811 -2.98203 127.84319 368
90.12622 -2.98045 128.08704 368
90.12646 -2.98158 128.32753 369
89.31718 -3.20620 128.38715 302
90.23243 -2.87731 127.85983 369
90.23043 -2.87750 128.10416 370
90.23167 -2.87595 128.34491 370
89.35393 -3.11454 128.38611 302
88.12881 -3.44860 128.38519 298
90.33374 -2.77365 127.87935 371
90.33537 -2.77266 128.12018 371
90.33385 -2.77212 128.35884 372
89.39272 -3.02304 128.38701 302
88.16526 -3.35124 128.38741 298
90.43599 -2.67252 127.89780 372
90.43663 -2.67153 128.13689 372
90.43755 -2.67173 128.37340 373
89.43123 -2.93205 128.38800 302
88.20413 -3.25176 128.38779 298
90.53677 -2.56965 127.91470 373
90.53672 -2.57062 128.15134 374
90.52774 -2.57340 128.38545 306
89.47242 -2.84115 128.38576 302
88.24203 -3.15026 128.38722 298
90.63727 -2.47057 127.93008 374
90.63579 -2.47158 128.16829 375
90.56834 -2.48933 128.38608 306
89.51207 -2.74812 128.38766 302
88.28265 -3.05194 128.38551 298
90.73434 -2.37267 127.94504 376
90.73451 -2.37430 128.18094 376
90.60881 -2.40332 128.38586 306
89.55159 -2.65604 128.38518 302
88.32389 -2.95320 128.38696 298
90.83188 -2.27656 127.96047 377
90.83218 -2.27530 128.19759 377
90.65214 -2.31781 128.38765 306
89.59538 -2.56535 128.38628 302
88.36192 -2.85455 128.38622 298
90.92841 -2.17921 127.97723 378
90.92708 -2.18114 128.21120 379
90.69376 -2.23276 128.38722 306
89.63577 -2.47418 128.38609 302
88.40374 -2.75316 128.38559 298
86.95256 -3.08392 128.38628 294
91.02110 -2.08463 127.99070 379
91.02204 -2.08443 128.22252 380
90.73846 -2.14805 128.38748 306
89.67729 -2.38211 128.38531 302
88.44740 -2.65433 128.38586 298
86.99257 -2.97395 128.38649 294
91.11642 -1.99191 128.00423 381
91.11642 -1.99235 128.23685 381
90.78089 -2.06442 128.38542 306
89.72066 -2.28944 128.38762 302
88.48739 -2.55598 128.38510 298
87.03561 -2.86672 128.38608 294
91.20825 -1.89848 128.01843 382
91.20830 -1.89965 128.25021 382
90.82482 -1.97738 128.38776 306
89.76591 -2.19929 128.38760 302
88.53033 -2.45518 128.38634 298
87.07639 -2.75683 128.38719 294
91.30100 -1.80780 128.03111 383
91.30221 -1.80767 128.26241 384
90.86926 -1.89477 128.38533 306
89.81011 -2.10664 128.38580 302
88.57669 -2.35536 128.38779 298
87.11954 -2.65075 128.38708 294
91.35923 -1.72184 128.03441 466
91.35849 -1.72307 128.26477 467
90.91400 -1.80777 128.38747 306
89.85361 -2.01706 128.38753 302
88.61968 -2.25550 128.38718 298
87.16163 -2.54030 128.38530 294
91.38013 -1.64416 128.02771 467
91.38044 -1.64410 128.25822 468
90.96141 -1.72456 128.38528 306
89.89938 -1.92544 128.38795 302
88.12219 -2.26127 128.27478 356
87.20930 -2.43393 128.38762 294
91.39995 -1.56715 128.02190 468
91.40029 -1.56800 128.25296 469
91.00802 -1.63835 128.38719 306
89.94465 -1.83308 128.38672 302
87.90943 -2.20461 128.22348 354
87.25226 -2.32356 128.38817 294
91.42069 -1.48999 128.01552 468
91.42217 -1.49054 128.24632 469
91.05363 -1.55575 128.38730 306
89.99218 -1.74218 128.38570 302
87.69514 -2.14437 128.17177 353
87.29746 -2.21412 128.38698 294
91.44160 -1.41212 128.00826 469
91.44323 -1.41185 128.23817 470
91.10205 -1.46864 128.38652 306
90.03854 -1.64934 128.38748 302
87.47156 -2.08627 128.11615 352
87.34631 -2.10826 128.38737 294
91.46456 -1.33289 128.00188 470
91.46430 -1.33347 128.23206 471
91.14823 -1.38600 128.38585 306
90.08761 -1.55911 128.38589 302
87.24086 -2.02362 128.06017 350
87.23828 -2.02265 128.36017 351
91.48356 -1.25487 127.99379 470
91.48471 -1.25460 128.22548 471
91.19905 -1.30048 128.38538 306
90.13631 -1.46821 128.38789 302
87.09420 -1.94317 128.02428 448
87.09645 -1.94671 128.32133 448
85.69342 -2.16446 128.38637 290
91.50531 -1.17722 127.98649 471
91.50512 -1.17715 128.21887 472
91.24603 -1.21489 128.38600 306
90.18346 -1.37619 128.38741 302
87.00584 -1.85651 127.99628 447
87.00717 -1.85691 128.29773 447
85.74263 -2.04529 128.38821 290
91.52695 -1.09891 127.97847 471
91.52579 -1.09894 128.21135 472
91.29683 -1.13131 128.38680 306
90.23299 -1.28373 128.38716 302
86.91556 -1.76334 127.96957 446
86.91541 -1.76352 128.27037 447
85.79077 -1.92518 128.38837 290
91.54874 -1.01945 127.97131 472
91.54787 -1.01835 128.20337 473
91.34671 -1.04790 128.38670 306
90.28397 -1.19439 128.38683 302
86.82200 -1.67311 127.94100 445
86.82247 -1.67188 128.24434 446
85.84187 -1.80648 128.38571 290
91.56788 -0.94100 127.96404 473
91.56953 -0.93921 128.19586 474
91.39649 -0.96400 128.38585 306
90.33341 -1.10294 128.38629 302
86.72728 -1.57773 127.91018 444
86.73046 -1.57679 128.21921 445
85.88867 -1.68968 128.38660 290
91.59083 -0.86039 127.95621 473
91.59124 -0.86143 128.19046 474
91.44804 -0.87948 128.38716 306
90.38514 -1.01306 128.38710 302
86.63506 -1.48510 127.88230 443
86.63534 -1.48523 128.19121 444
85.94210 -1.57053 128.38562 290
91.61250 -0.78061 127.94807 474
91.61215 -0.78145 128.18170 475
91.50066 -0.79511 128.38612 306
90.43765 -0.92074 128.38710 302
86.53944 -1.38741 127.85262 442
86.53886 -1.38784 128.16769 443
85.99515 -1.45297 128.38805 290
91.63290 -0.70151 127.94180 474
91.63411 -0.70192 128.17397 475
91.55114 -0.71060 128.38765 306
90.48753 -0.82924 128.38763 302
86.44098 -1.29079 127.82286 441
86.44009 -1.28771 128.14034 442
86.04577 -1.33188 128.38472 290
91.65575 -0.62078 127.93437 475
91.65534 -0.62077 128.16582 476
91.60346 -0.62510 128.38673 306
90.54026 -0.73864 128.38692 302
86.33982 -1.18965 127.79479 440
86.33924 -1.18762 128.10966 441
86.09987 -1.21447 128.38477 290
91.67709 -0.53977 127.92509 475
91.67686 -0.54000 128.16013 476
91.65617 -0.54257 128.38573 306
90.59616 -0.65001 128.38643 302
86.36093 -1.07427 127.78940 298
86.28443 -1.08425 128.09126 492
86.15546 -1.09819 128.38829 290
91.69707 -0.45928 127.91643 476
91.69859 -0.45984 128.15134 477
91.69826 -0.45934 128.38426 478
90.64762 -0.55815 128.38722 302
86.41635 -0.95888 127.78808 298
86.25620 -0.97515 128.07626 492
86.20820 -0.98034 128.38481 290
91.71917 -0.37800 127.90856 476
91.72002 -0.37699 128.14424 477
91.71980 -0.37717 128.37685 478
90.70407 -0.46899 128.38533 302
86.46653 -0.84099 127.78730 298
86.22781 -0.86217 128.06158 492
86.22709 -0.86287 128.38126 492
91.74155 -0.29574 127.89964 477
91.74061 -0.29598 128.13481 478
91.74200 -0.29575 128.36772 479
90.75938 -0.37719 128.38611 302
86.51947 -0.72629 127.78783 298
86.19861 -0.75319 128.04411 491
86.19672 -0.75151 128.36603 492
91.76206 -0.21465 127.89273 477
91.76404 -0.21531 128.12805 478
91.76208 -0.21592 128.35939 479
90.81494 -0.28876 128.38757 302
86.57778 -0.60891 127.78630 298
86.16882 -0.64128 128.02904 491
86.16643 -0.64294 128.35173 492
91.78396 -0.13403 127.88311 478
91.78439 -0.13266 128.11755 479
91.78491 -0.13340 128.35234 480
90.87036 -0.19831 128.38702 302
86.63094 -0.49271 127.78811 298
86.13733 -0.52890 128.01443 491
86.13928 -0.52890 128.33801 492
91.80628 -0.05163 127.87354 478
91.80720 -0.05196 128.11098 479
91.80836 -0.05178 128.34511 480
90.92818 -0.10821 128.38762 302
86.68709 -0.37636 127.78612 298
86.10564 -0.41536 127.99993 491
86.10529 -0.41421 128.32407 491
91.81167 0.02980 127.86045 486
91.81321 0.03120 128.09747 487
91.81271 0.03136 128.33200 488
90.98369 -0.01747 128.38672 302
86.74329 -0.26238 127.78683 298
86.07412 -0.29838 127.98392 490
86.07413 -0.29840 128.30946 491
91.78995 0.11113 127.83923 486
91.79037 0.11056 128.07825 487
91.79234 0.11102 128.31439 488
91.04126 0.07113 128.38663 302
86.80195 -0.14383 127.78709 298
86.04718 -0.18481 127.96588 490
86.04401 -0.18609 128.29161 491
91.76988 0.19176 127.81876 485
91.76869 0.19221 128.05811 486
91.77008 0.19328 128.29497 487
91.09895 0.16120 128.38618 302
86.86024 -0.02858 127.78803 298
86.01469 -0.06600 127.94838 490
86.01598 -0.06838 128.27618 490
91.74619 0.27436 127.79825 485
91.74622 0.27547 128.03947 486
91.74633 0.27307 128.27831 487
91.15939 0.25136 128.38573 302
86.91802 0.08408 127.78875 298
86.00723 0.05105 127.93578 484
86.00858 0.04896 128.26807 485
91.72446 0.35799 127.77562 485
91.72559 0.35735 128.01929 486
91.72529 0.35632 128.25763 487
91.21834 0.34012 128.38519 302
86.97626 0.20072 127.78749 298
86.04308 0.16861 127.93431 485
86.04209 0.16910 128.26219 486
91.70301 0.44287 127.75533 484
91.70240 0.44081 127.99757 485
91.70154 0.44017 128.23863 486
91.27816 0.42953 128.38559 302
87.03876 0.31810 127.78719 298
86.07421 0.29140 127.92542 485
86.07284 0.29143 128.25742 486
91.67878 0.52743 127.73367 484
91.68086 0.52523 127.97823 485
91.68041 0.52570 128.21860 486
91.33954 0.51996 128.38713 302
87.09933 0.43123 127.78872 298
86.10652 0.41250 127.91997 486
86.10418 0.41044 128.25172 486
91.65659 0.61192 127.71181 484
91.65660 0.61133 127.95815 485
91.65759 0.61163 128.20137 486
91.40108 0.60918 128.38565 302
87.16208 0.54631 127.78727 298
86.13940 0.53389 127.91816 486
86.13694 0.53385 128.24454 487
91.63277 0.69780 127.69009 483
91.63310 0.69740 127.93694 484
91.63375 0.69875 128.18004 485
91.46079 0.69658 128.38548 302
87.22373 0.66396 127.78854 298
86.17289 0.65428 127.91122 487
86.17219 0.65490 128.24033 487
91.60960 0.78543 127.66748 483
91.60938 0.78682 127.91516 484
91.61076 0.78577 128.16026 485
91.52258 0.78499 128.38745 302
87.28754 0.77703 127.78908 298
86.20529 0.77602 127.90365 487
86.20518 0.77589 128.23357 488
85.00612 0.77243 128.38562 286
