# .PCD v.7 - Point Cloud Data file format
VERSION .7
FIELDS x y z rgb
SIZE 4 4 4 4
TYPE F F F U
COUNT 1 1 1 1
WIDTH 1184
HEIGHT 1
VIEWPOINT 6503.838867 -3585.604248 134.840302 -0.431940 -0.133046 -0.048254 0.890729
POINTS 1184
DATA ascii
-195.88316 0.86368 53.33040 324
-195.91521 2.61616 53.32699 324
-195.92957 4.45417 53.34365 324
-195.94803 6.25394 53.27123 324
-195.99670 8.06010 53.28163 324
-195.97310 9.82339 53.33857 324
-195.92543 11.65707 53.34686 324
-270.50107 57.58793 32.45378 318
-285.01068 59.75742 35.33163 316
-264.14395 58.93676 34.08413 320
-278.73248 61.27566 36.81964 322
-295.16492 63.85434 39.50053 312
-259.83279 60.48740 35.16544 350
-274.49652 62.84310 37.76554 346
-290.54590 65.52850 40.50618 341
-257.91757 62.33483 35.59733 350
-272.46280 64.90982 38.22030 347
-288.61713 67.62013 40.85978 341
-256.01654 64.26530 36.01925 351
-270.53720 66.88670 38.61080 345
-289.18069 70.19375 40.66212 319
-254.13985 66.13551 36.47403 351
-269.57291 68.98561 38.80684 322
-252.28326 67.99232 36.86098 349
-271.45126 71.69460 38.17147 319
-253.44073 70.47693 36.41167 322
-273.68307 74.50104 37.51647 318
-255.44807 73.15346 35.81685 321
-257.53159 75.82500 35.10154 321
-12962.02734 9187.70215 146.60364 455
-12880.56152 9127.59863 405.41467 474
-12859.34668 9235.68848 145.04146 459
-12785.75586 9180.57617 401.40814 474
-12769.17676 9289.45215 146.47786 465
-12690.33984 9235.80078 400.75317 475
-12676.03711 9342.90430 146.51361 465
-12604.11426 9288.81445 404.26224 477
-12587.69043 9397.21582 145.16379 466
-12510.21387 9343.59961 400.74921 478
-12495.68555 9449.97852 143.62975 466
-12424.30664 9395.82715 402.32593 478
-12404.63672 9506.07812 144.47849 467
-12335.30859 9451.45703 398.25690 479
-12314.99805 9558.48926 146.57362 468
-12247.50293 9504.08691 401.43906 479
-12226.86133 9608.50977 145.82640 468
-12162.02539 9557.81641 399.88403 480
-12139.07324 9662.93555 145.93437 469
-12073.44629 9612.98926 398.47177 480
-12050.90723 9713.75488 147.02972 469
-11985.70215 9661.69824 397.65594 481
-11961.64355 9767.00879 145.84653 470
-11899.03027 9716.05566 398.37372 481
-11874.32227 9820.71289 146.66405 470
-11814.18359 9771.42871 397.26337 482
-11786.89941 9872.10938 144.85493 471
-11729.71875 9822.61914 397.40027 482
-11703.31543 9924.63281 147.36415 471
-11643.54395 9871.42285 395.69904 483
-11618.60938 9974.55762 145.26408 472
-11560.90820 9924.08789 395.85944 484
-11530.42383 10023.62891 143.88818 472
-11472.20703 9974.65430 397.42291 484
-11442.92773 10075.91504 144.66161 472
-11389.42480 10027.81055 396.79147 485
-11358.98340 10127.38770 147.22527 473
-11307.02051 10076.97559 394.64542 485
-11274.47266 10177.64648 143.93962 473
-11223.25195 10130.86523 395.61749 486
-11193.45703 10227.51758 144.77597 474
-11138.48242 10180.50586 394.71707 486
-11108.03613 10278.05957 147.48198 474
-11057.04590 10231.86621 393.05032 487
-11024.95020 10328.89160 143.55244 475
-10974.80762 10281.45020 394.07748 487
-10941.65918 10377.42578 146.28323 475
-10890.41113 10331.78027 390.64987 490
-10855.56836 10428.35742 146.20818 475
-10811.98633 10380.96875 391.29523 490
-10775.25781 10474.49414 146.33646 476
-10726.13672 10431.18359 391.34921 491
-10761.11816 10594.05176 -102.30695 455
-10689.97363 10525.81250 146.31876 476
-10645.51562 10480.50586 389.56354 491
-19622.29297 19485.96289 -4418.66357 1000
-10675.38477 10643.02930 -103.18264 455
-10609.70703 10573.61523 147.94518 477
-10566.40723 10530.26465 389.56750 492
-10592.92773 10691.67285 -102.77462 455
-10526.63281 10621.63770 147.83484 477
-10483.64941 10581.73340 389.13605 459
-10509.99805 10740.68652 -103.16840 474
-10447.71973 10671.54492 145.15756 477
-10408.25391 10632.39844 391.36136 420
-10426.76855 10788.61523 -99.20755 475
-10363.81543 10718.64062 146.14873 478
-10326.27441 10683.68359 390.59305 420
-10346.78613 10835.13477 -101.31841 475
-10283.29297 10767.58496 147.32127 478
-10249.19629 10731.32910 388.51721 420
-10266.26953 10885.79785 -97.96629 475
-10201.43750 10819.35547 145.95633 478
-10169.11133 10785.22949 390.28372 421
-10184.65527 10935.70605 -100.41640 476
-10118.20801 10865.43945 147.03882 479
-10094.75195 10836.12891 390.99573 421
-10102.45508 10981.28906 -97.16968 476
-10039.90234 10911.11816 145.47816 479
-10015.70117 10884.43262 387.55341 421
-10020.51074 11028.88281 -99.11321 476
-9959.01758 10958.61621 146.25853 479
-9941.12109 10942.67773 390.10291 301
-10443.85254 11490.41016 658.31219 483
-9940.72754 11078.62793 -99.62209 477
-9881.44141 11008.81348 147.05382 479
-9872.85547 11001.62109 388.69595 301
-10351.10840 11526.73730 655.36890 483
-9859.98438 11123.92188 -98.37272 477
-9798.00977 11055.38965 144.77083 480
-9799.33496 11059.44531 390.37650 301
-10257.88477 11565.11230 655.26532 484
-9778.10352 11173.07617 -96.91072 477
-9721.90137 11103.45996 144.09470 480
-10117.63184 11555.95996 400.18665 484
-10159.38965 11603.97852 651.62219 484
-9701.73633 11220.04590 -96.67432 477
-9639.97949 11151.67188 146.77135 488
-10025.73340 11592.34668 399.77640 485
-10069.62891 11640.36230 653.08392 485
-9619.27246 11269.19727 -95.52139 478
-9557.93262 11199.81543 147.72102 488
-9932.18848 11626.59766 396.24628 486
-9975.10254 11677.59863 650.27759 485
-9539.08301 11316.72168 -99.03767 478
-9479.15332 11247.50000 143.87830 489
-9836.54004 11664.63965 399.20786 486
-9882.19531 11715.15137 649.06726 486
-9459.03418 11363.57324 -97.87664 478
-9403.11133 11295.90527 143.99121 489
-9784.16602 11748.61523 399.09583 486
-9786.16309 11750.79199 647.89618 486
-9383.11426 11409.47363 -97.85262 478
-9324.20605 11343.48145 147.56386 489
-9692.62695 11783.55469 397.67328 487
-9693.41211 11788.88770 647.52020 487
-9300.74609 11455.63086 -98.30170 479
-9247.43945 11389.79590 144.84894 489
-9604.69238 11824.28613 396.70755 497
-9605.94922 11830.01367 647.46570 496
-9223.17188 11503.17188 -97.60523 479
-9166.91406 11436.12695 146.40268 490
-9523.78906 11876.36426 398.77774 497
-9526.37012 11876.52930 646.40656 497
-9144.80371 11550.45605 -97.75039 479
-9087.23730 11484.25879 147.46530 490
-9441.87109 11925.34277 397.03671 497
-9445.58789 11926.25000 647.52722 497
-9066.44531 11597.87793 -95.46931 479
-9010.16406 11529.60156 147.99471 490
-9358.22363 11972.35156 396.56818 497
-9361.81738 11973.35742 646.03204 497
-8985.20996 11644.15234 -95.20984 479
-8932.54883 11578.77441 143.99434 490
-9274.82910 12012.45508 393.90002 465
-9280.76855 12021.16504 647.66144 497
-8909.11230 11691.62012 -96.31371 480
-8855.32910 11625.15820 146.86615 490
-9163.89844 12027.72852 393.79553 465
-9201.91113 12071.44531 645.97412 498
-8827.38184 11737.63867 -96.12790 480
-8777.65332 11672.72852 144.44440 490
-9059.40234 12043.88477 392.56903 466
-9118.88770 12120.26758 643.73865 498
-8748.75586 11786.80176 -95.44655 481
-8698.44043 11719.07324 146.27922 491
-8952.66699 12052.80176 391.63272 467
-9039.41016 12166.63770 642.91266 498
-8671.15137 11831.21289 -94.86112 481
-8623.41602 11764.11328 144.29276 491
-8847.67969 12069.28613 390.55334 468
-8895.77539 12133.01953 639.56061 498
-8592.28711 11878.53711 -96.60059 482
-8546.40332 11812.67383 145.15726 491
-8742.75781 12080.50781 390.57251 468
-8816.51367 12183.26953 639.54871 496
-8514.21191 11923.95996 -96.25343 482
-8468.06445 11860.51270 146.12503 491
-8638.12305 12098.20703 390.09543 498
-8737.60840 12232.53320 639.64197 496
-8823.02832 12353.02539 895.85492 498
-8437.73242 11971.90137 -93.02493 482
-8399.18555 11915.56445 123.26581 494
-8406.54199 11928.38672 383.92886 430
-8658.44629 12277.53516 638.79956 497
-8742.77734 12397.40332 895.21564 498
-8858.17188 12563.03223 1155.80554 449
-8358.50879 12014.69824 -95.10825 482
-8312.54980 11951.89648 145.29094 491
-8327.87305 11972.66895 384.17429 430
-8575.93848 12324.67090 640.95258 497
-8662.98926 12445.64551 896.43951 498
-8750.02246 12569.83594 1153.85864 467
-8280.25684 12062.25684 -92.53214 482
-8238.42578 11998.31348 145.14026 491
-8249.66699 12015.93457 386.53683 431
-8499.33887 12376.68848 639.28174 385
-8584.58887 12496.05957 895.07422 498
-8681.42383 12639.48926 1154.32349 382
-8202.66211 12108.68652 -94.60481 482
-8161.50244 12044.74023 148.02878 491
-8172.69287 12061.50586 385.73227 431
-8472.29492 12501.62207 643.55011 449
-8477.80762 12509.08496 890.89191 448
-8127.12842 12157.03027 -92.75276 482
-8083.68896 12093.95605 146.41653 492
-8095.27100 12108.95410 385.90170 438
-8354.83984 12496.20215 641.79584 450
-8360.40723 12503.87207 889.41815 449
-8422.13184 12588.34766 1143.12195 360
-8045.91699 12201.88672 -94.47750 482
-8004.53418 12139.18945 144.74794 492
-8019.51074 12160.65820 383.38928 387
-8242.59863 12490.85059 639.12854 451
-8246.20410 12495.30859 885.11597 450
-8302.53223 12579.74414 1139.56714 360
-7968.52637 12248.04785 -95.88454 482
-7927.35449 12184.67188 146.58688 492
-7946.83301 12209.01660 383.97284 387
-8126.44092 12485.97363 635.74030 451
-8132.51855 12492.20801 883.20520 451
-8183.59277 12570.31934 1130.91187 361
-7892.18604 12295.21582 -94.08757 482
-7849.96289 12231.40039 147.93600 492
-8012.66016 12474.86035 388.51050 499
-8037.79004 12515.73535 636.00122 499
-8039.64893 12522.46777 878.28967 499
-8078.49561 12579.12598 1131.36096 390
-7813.91455 12341.23438 -92.19717 483
-7775.54492 12278.83008 147.64706 492
-7931.31006 12522.06836 391.00183 499
-7941.75049 12540.51562 634.69287 499
-7960.95068 12569.79883 881.49628 499
-8001.54785 12629.56055 1127.89917 390
-8152.27637 12862.65918 1400.56836 485
-8413.03223 13271.54102 2488.12402 315
-7736.06885 12387.71875 -95.15059 483
-7696.56348 12325.05176 147.50053 492
-7852.47705 12566.50195 389.11792 499
-7864.35400 12584.31348 632.47961 499
-7863.81689 12589.54395 877.50720 499
-7922.91211 12681.14648 1129.93237 390
-8069.63916 12910.42480 1398.15039 485
-7995.35156 12794.18066 1637.13672 378
-7994.29932 12792.75195 1886.46179 487
-8007.76514 12808.97852 2143.43994 361
-7661.00098 12433.46289 -93.76101 483
-7620.89258 12372.37891 145.91075 495
-7774.42285 12613.95508 390.33438 499
-7783.57617 12633.38672 632.86835 499
-7785.61865 12636.68555 875.97095 499
-7846.00244 12729.64551 1128.38281 390
-7992.49170 12959.58105 1400.54382 485
-7581.44043 12477.19336 -93.71686 483
-7544.52783 12419.17773 147.45096 495
-7697.68750 12663.13770 389.80719 499
-7706.60352 12678.37012 631.85010 499
-7706.55420 12683.64551 879.66705 499
-7772.26074 12781.43652 1131.68933 390
-7881.88184 12964.84668 1396.13306 453
-7504.46436 12526.56348 -92.40796 483
-7469.25439 12465.04297 147.15257 495
-7616.53516 12711.00879 390.91226 499
-7629.85010 12726.56738 635.33826 499
-7630.93506 12728.27539 876.41937 499
-7693.95410 12830.82031 1129.42065 390
-7829.79541 13059.80078 1397.69568 486
-7428.49609 12572.31836 -94.50306 483
-7391.83154 12512.86621 145.98686 495
-7539.15723 12756.50684 391.47437 499
-7548.94092 12776.85645 635.13934 499
-7551.70459 12778.54102 876.10706 499
-7615.58643 12883.85059 1130.51196 390
-7750.71777 13106.76855 1400.35840 486
-7350.95166 12617.62402 -95.16369 483
-7316.79980 12556.61426 148.13589 495
-7460.29785 12801.16113 387.51202 499
-7471.71143 12822.02051 632.72577 499
-7471.73193 12825.72656 878.88177 499
-7538.66699 12932.65918 1132.83691 390
-7669.26465 13153.96484 1398.88770 485
-7270.78857 12664.44336 -92.98145 483
-7239.18896 12603.31836 148.01854 495
-7380.80176 12850.13867 390.31274 499
-7394.35645 12869.01465 632.99176 499
-7393.89014 12872.01758 878.81757 499
-7461.25879 12984.31934 1130.20789 390
-7194.70361 12709.01855 -91.63663 483
-7159.24707 12650.31445 147.26936 495
-7303.70508 12894.65527 390.44485 499
-7315.01074 12918.64551 631.76422 499
-7316.76904 12921.25684 878.11298 499
-7383.67285 13032.84961 1129.76782 390
-7117.59912 12755.11621 -91.65194 483
-7083.07666 12696.30957 147.25929 495
-7223.27490 12943.27832 387.74722 499
-7249.03564 12989.88477 633.34369 499
-7251.93945 12992.44922 878.53094 499
-7305.93506 13086.55664 1133.76331 390
-7041.46973 12803.53418 -92.87280 483
-7008.23438 12744.77344 144.81908 495
-7145.96973 12993.28125 388.27008 499
-7172.47803 13036.75098 635.24933 499
-7171.85791 13038.48926 880.40314 499
-7227.08789 13133.98438 1134.30615 390
-6964.62549 12849.12012 -95.76672 483
-6933.90820 12790.13867 144.51971 495
-7088.97754 13081.66309 389.96945 499
-7032.96484 12971.22363 631.14246 420
-7013.37256 12938.32617 871.02557 390
-7149.57178 13189.31348 1133.68347 390
-6884.67236 12892.25781 -95.37233 482
-6854.37305 12837.70312 147.41608 495
-7011.72119 13127.59570 389.97989 499
-7015.58252 13129.33203 635.14417 499
-7013.76172 13133.66895 878.60760 499
-7072.80908 13239.21875 1133.02161 390
-6807.98389 12938.26270 -94.03712 482
-6777.38037 12883.46582 147.27977 495
-6933.22510 13175.20996 389.12582 499
-6934.54639 13178.53418 636.58850 499
-6938.67139 13179.82617 880.37061 499
-6995.30420 13290.08203 1134.61438 390
-6730.91504 12986.27832 -94.72077 482
-6703.43262 12930.22461 143.92282 495
-6854.78711 13223.30957 391.66675 499
-6856.65918 13225.30469 633.31879 499
-6859.23682 13227.44141 880.77954 499
-6916.74414 13340.39453 1133.47534 381
-6654.35156 13033.65332 -95.99921 482
-6624.93359 12977.52148 144.62262 495
-6789.48145 13299.62012 392.96729 474
-6794.21973 13304.83887 638.44659 453
-6794.94092 13303.27051 881.93634 452
-6870.68115 13452.36914 1140.31323 357
-6575.94678 13079.38184 -94.89877 482
-6545.89258 13024.46387 146.68289 494
-6725.58740 13377.95410 392.13342 474
-6741.12061 13405.35840 640.55627 452
-6739.87207 13405.28223 884.74384 452
-6839.86914 13600.34375 1146.30664 445
-6496.86133 13125.34375 -95.11304 482
-6469.69336 13071.64844 145.50073 494
-6660.24072 13455.07617 394.44147 473
-6687.67139 13503.65918 639.33270 472
-6690.78467 13506.89648 889.60004 451
-6419.81396 13170.61914 -92.57420 482
-6390.68066 13117.86133 147.28122 497
-6597.52881 13530.73438 394.98462 472
-6622.93750 13581.42188 643.23376 472
-6637.70703 13611.59766 894.22345 450
-6342.15869 13217.66504 -95.54875 482
-6315.38965 13163.48535 145.90034 497
-6532.80811 13609.00098 392.71927 472
-6555.32227 13661.95020 642.91052 471
-6261.64844 13264.46777 -96.08821 482
-6237.32373 13210.34180 146.59137 496
-6468.42676 13692.07031 393.17535 471
-6492.13672 13739.41797 645.24994 470
-6183.73584 13311.89746 -93.10567 482
-6159.57617 13259.85840 147.73796 496
-6401.43701 13768.20508 396.28033 471
-6104.85791 13358.97852 -96.63445 481
-6085.65430 13307.09277 144.13783 496
-6339.33105 13857.74512 395.43701 444
-6027.87744 13405.07715 -93.38358 489
-6006.90918 13354.26172 147.14856 496
-5949.68115 13452.41113 -94.46156 489
-5929.70508 13401.82422 146.61568 496
-5871.42871 13499.38379 -95.86467 489
-5850.23096 13450.82227 147.24130 496
-5795.56934 13547.44141 -94.95750 489
-5770.94238 13496.54492 145.83730 495
-5715.26270 13595.10938 -97.47498 488
-5693.56250 13546.02539 146.70656 495
-5635.58887 13643.42578 -96.12384 488
-5613.53271 13593.23242 144.97743 495
-5557.28613 13691.40039 -95.04618 488
-5537.57422 13641.75879 145.68359 495
-5480.29980 13737.48730 -95.43949 488
-5458.08838 13688.28809 146.72662 494
-5399.16260 13787.32324 -99.08279 488
-5380.94873 13734.53516 146.12857 494
-5318.70361 13832.99609 -96.20015 487
-5301.08398 13785.26270 146.11037 494
-5241.23535 13883.99023 -98.47821 487
-5222.77637 13831.94922 145.39597 494
-5159.70264 13930.22266 -99.18848 487
-5143.90771 13882.24609 145.98430 493
-5082.61426 13979.90625 -97.27244 486
-5061.60986 13930.85840 143.71899 493
-5001.59033 14025.32715 -100.83120 486
-4985.73193 13978.22266 145.44513 493
-4923.94385 14074.67188 -100.17020 486
-4903.58789 14028.69141 144.21747 492
-4838.65723 14124.45410 -98.00780 486
-4825.17090 14078.51074 145.75542 492
-4761.94141 14173.97461 -100.82935 485
-4743.95166 14126.14160 146.78259 492
-4707.66406 14301.17383 -348.35742 474
-4677.74854 14221.68848 -99.07609 485
-4666.24756 14175.95508 143.62874 491
-4628.31104 14351.89941 -349.16687 474
-4600.88916 14270.56543 -100.60516 485
-4583.53223 14223.32617 146.04225 491
-4542.59863 14401.96094 -350.28937 474
-4517.59229 14319.00977 -101.91725 484
-4502.57178 14271.74805 144.10378 491
-4463.06494 14451.55566 -348.71069 473
-4435.72998 14367.58105 -102.67001 484
-4420.57275 14324.61035 143.10051 490
-4377.89551 14498.10645 -350.59503 473
-4353.78320 14416.61426 -100.95634 484
-4339.95850 14371.32617 144.61642 490
-4298.84619 14548.15430 -351.37833 473
-4271.45752 14468.62305 -101.84396 483
-4256.60010 14422.73926 144.31551 490
-4212.95215 14599.94043 -353.32828 472
-4188.96924 14516.92383 -103.47205 483
-4176.30127 14471.58203 144.30905 489
-4130.71436 14650.82227 -352.60709 472
-4107.49512 14567.86328 -103.09042 482
-4094.73462 14524.24512 144.13571 489
-4046.82812 14699.19434 -354.44574 472
-4026.70825 14619.61133 -104.59563 482
-4010.47388 14575.06055 144.73250 489
-3963.17285 14748.06250 -355.13110 471
-3942.51611 14669.13672 -103.27030 482
-3929.88257 14629.78613 145.14809 372
-3879.72559 14801.08496 -355.83044 471
-3858.19824 14719.06152 -105.95679 481
-3848.36963 14685.04004 143.96112 372
-3796.35010 14848.37598 -359.33722 471
-3773.79297 14769.46484 -105.76527 481
-3768.52686 14743.15918 143.02135 371
-3708.74561 14899.63672 -357.40091 470
-3690.53223 14820.20410 -103.38836 480
-3685.01904 14799.86035 146.52260 371
-3627.44849 14956.47754 -360.24707 457
-3608.35840 14871.14453 -106.11470 480
-3603.06787 14851.95605 143.00412 437
-3545.31274 15020.12207 -360.23477 456
-3522.13403 14924.28418 -105.64069 480
-3519.19604 14904.50879 145.37427 437
-3461.88525 15085.46191 -364.55185 456
-3437.65430 14979.30078 -106.61573 458
-3432.57495 14954.29102 142.56165 436
-3379.97632 15150.60059 -365.97546 457
-3354.71558 15046.89941 -108.59252 457
-3344.20850 15005.12207 144.35693 404
-3297.87183 15220.95117 -367.72406 457
-3274.76514 15114.24902 -110.63456 457
-3265.58618 15068.28125 142.42775 404
-3214.60986 15289.42871 -365.75906 456
-3191.69092 15181.69824 -107.68748 456
-3179.57739 15130.95898 145.18336 403
-3127.73071 15355.09570 -369.21719 455
-3106.58569 15247.87305 -109.55846 456
-3097.05371 15192.29590 146.17036 403
-3045.74512 15436.82520 -370.22049 412
-3023.57935 15314.12988 -112.42408 455
-3012.85156 15256.69043 142.97437 402
-2970.45825 15535.87207 -373.87561 389
-2940.82227 15385.41504 -113.19329 456
-2924.31909 15320.69043 143.04202 402
-2892.28687 15650.53027 -378.21313 389
-2854.18091 15455.23926 -113.98010 455
-2842.46484 15403.19141 146.36888 325
-2810.62964 15765.31250 -380.22086 388
-2770.42407 15530.03027 -112.78597 412
-2762.67212 15491.50488 145.83887 324
-2732.99194 15881.17773 -381.23273 387
-2686.88159 15632.76465 -113.81128 411
-2681.71729 15578.60840 142.45154 288
-2655.27490 16017.99316 -389.68668 360
-2604.75781 15733.71484 -115.13231 410
-2525.58521 15833.27148 -116.05656 409
-2442.91455 15944.43164 -120.17241 387
-188.38869 1835.79138 -49.33138 453
-190.24594 1846.40149 -19.53705 330
-2362.31006 16075.02246 -122.10919 360
-176.53380 1832.37903 -48.76759 499
-177.49406 1837.69299 -18.68329 487
-178.03873 1843.64636 11.57975 428
-179.43454 1850.46167 41.98903 373
-2280.59155 16225.70410 -125.08268 359
-2375.00610 16853.30859 144.92004 409
-165.60321 1835.93555 -49.02018 449
-166.29413 1841.38989 -18.61667 448
-166.85040 1846.78210 11.27909 435
-167.90685 1851.90540 41.97947 322
-2202.64771 16382.07422 -126.84285 358
-2270.12305 16850.15039 144.14355 409
-2646.97607 20477.98633 -4669.05225 1000
-2159.76465 16840.48242 143.94382 381
-2052.48755 16820.70898 142.55768 381
-353.11862 9479.55859 -172.28793 1000
8383.09180 65730.89062 -14144.66406 1000
1323.43445 6744.59473 471.78738 1000
17041.00391 59095.47266 -15248.67285 1000
8511.22754 21607.56055 -5270.66309 1000
8809.47363 20486.43555 -2057.43481 1000
1612.62219 2021.36646 -29.14401 397
1613.14429 1996.83862 -28.47553 453
1647.74902 2015.43372 -72.70143 410
1619.01379 1978.82080 -27.29288 453
1651.72034 1994.89624 -71.59870 411
1624.89966 1960.84753 -27.02873 455
1654.98254 1973.85828 -70.44097 412
1630.31311 1943.82947 -25.97882 456
1658.84448 1953.87646 -69.28416 413
1637.22998 1927.80237 -26.08161 454
1662.15186 1933.84143 -68.36966 462
1645.34314 1913.63940 -25.62713 454
1662.68726 1909.96289 -67.04448 305
1653.47412 1898.81604 -24.71406 453
1663.21619 1887.24512 -65.54386 312
1661.52649 1885.16077 -24.92997 454
1668.22205 1870.14746 -64.76768 423
1669.79688 1871.60449 -24.40974 392
1675.79578 1855.18945 -64.33672 425
1679.40063 1859.78931 -24.05731 392
29326.90625 34012.97656 6108.74219 1000
1683.25830 1840.58850 -63.88136 425
1689.04504 1847.40112 -24.15944 392
1690.81812 1826.42883 -63.30867 426
1698.97668 1835.80530 -24.34897 390
1697.93604 1812.14636 -63.08423 426
1708.63843 1824.12256 -23.87495 391
1706.26306 1798.84680 -62.25696 430
1718.18274 1812.44702 -23.86847 392
1714.60425 1785.95361 -62.05166 491
1729.50378 1802.18994 -23.58769 301
1723.50977 1773.30151 -61.62522 492
1741.94141 1793.80371 -24.08600 301
1732.38586 1761.33447 -61.88498 492
1756.30371 1786.74524 -24.52735 433
1741.45264 1748.74524 -61.60192 492
1794.62793 1805.08704 -27.18892 499
1795.36169 1806.26697 13.67950 499
1750.01953 1736.95154 -61.33386 495
1805.78235 1794.69495 -26.60259 499
1806.72144 1795.16248 13.77782 499
1759.49121 1725.41504 -61.44838 495
1816.77917 1783.70288 -26.85405 499
1769.07690 1713.79382 -61.26484 496
1827.67883 1772.97961 -26.81020 499
1778.73059 1702.71033 -61.28679 497
1955.32239 1879.06042 -37.26044 380
1788.45972 1691.33508 -61.39770 497
1967.98877 1868.63708 -37.94099 381
1798.80200 1680.04407 -61.25534 497
1980.60828 1858.55286 -37.85950 381
1808.68762 1669.89148 -61.28476 497
1874.35510 1732.91296 -27.74049 499
1818.76965 1658.88037 -61.27539 497
1884.85571 1722.01501 -27.35776 499
1829.97449 1648.72559 -61.06404 497
1892.31360 1707.70129 -26.80673 499
1893.14929 1708.13013 13.61048 499
1933.01074 1745.75195 94.63273 279
1840.27502 1638.01562 -61.42270 497
1903.16565 1696.28821 -27.15079 499
1903.71985 1697.25256 13.27705 499
1947.15759 1737.59241 52.77850 499
1936.83069 1728.13318 94.66849 342
1851.11902 1627.99011 -61.35506 497
2038.79126 1800.83643 -38.49342 382
1951.35486 1720.22583 94.67118 313
1861.67798 1617.70203 -61.56347 497
2050.36743 1789.43518 -38.04999 382
1872.28687 1606.95569 -61.81030 497
2062.10913 1777.52222 -38.09202 382
2001.37476 1722.61694 178.11078 499
1882.71094 1596.33203 -61.36445 496
2073.46777 1765.13843 -38.52853 382
1893.69019 1586.09326 -61.45946 496
2084.79150 1753.20642 -38.79611 382
1904.30127 1575.88037 -62.00142 496
1943.46619 1609.85364 -25.54746 498
2016.41687 1672.44580 10.37820 417
1914.90515 1565.01245 -61.85709 496
1954.79980 1599.14453 -25.72029 498
1955.51807 1599.61780 14.41271 498
1925.61743 1555.17639 -61.88372 496
1973.42676 1595.74561 -26.79175 364
1975.68774 1596.85742 13.82140 493
1936.16565 1544.16809 -61.97413 496
1989.07617 1588.62073 -27.33021 359
15322.51270 12546.41992 -4786.72119 1000
1946.73889 1534.37988 -62.63076 496
2141.76929 1693.96570 -39.14384 381
1957.58618 1523.39343 -62.94130 495
2152.71704 1682.56897 -39.18290 381
1968.10938 1513.35364 -62.97698 495
2085.43848 1606.64734 -32.32171 280
2120.09106 1634.10535 93.19374 498
2125.71265 1638.69751 135.49017 498
2127.09326 1639.79541 178.77652 399
2015.33643 1531.30872 -108.76817 333
1979.23254 1502.47754 -63.22821 495
2175.52344 1658.09863 -39.57868 381
1989.84204 1491.59827 -63.12803 495
2012.03516 1509.56592 -25.35665 450
2000.49219 1481.63000 -62.99641 495
2028.19739 1502.36926 -25.62946 415
2011.34338 1471.00415 -63.49440 494
2041.36060 1493.85742 -26.41717 443
2021.89417 1460.52148 -63.90737 494
2052.20532 1482.53210 -26.18966 449
2032.86230 1449.38171 -63.96141 494
2064.11816 1472.59485 -26.24882 429
2044.19543 1439.05103 -64.41538 494
2075.93799 1462.37439 -26.87459 429
2054.46436 1428.48230 -64.55766 494
2077.01050 1444.74561 -26.25974 298
2065.59717 1418.10254 -64.74976 493
2086.39526 1432.91846 -25.96414 298
2076.68823 1407.27832 -64.65997 432
2096.19385 1420.54346 -26.27074 298
2087.95459 1396.55115 -65.41846 432
2105.16992 1408.91284 -26.71747 298
2098.98779 1385.76904 -65.53748 431
2114.90552 1397.21851 -26.42515 298
2218.44629 1468.24158 7.66104 495
2110.14453 1375.65186 -65.52724 431
2125.29395 1385.51306 -26.48691 390
2121.27539 1364.94910 -65.91449 431
2135.60278 1374.34924 -26.76264 390
2133.05005 1354.53748 -66.64310 431
2146.45923 1363.10913 -26.92240 390
2144.18848 1343.84790 -66.97408 430
2156.86743 1351.80029 -27.29802 390
2159.08398 1335.23694 -67.22534 406
2179.08081 1329.47534 -68.52177 310
38679.97266 21892.93945 5276.54102 1000
13830.15234 6199.62402 1379.57886 1000
32790.82422 13572.08203 -8099.58496 1000
21756.65625 2666.53711 -3101.09619 1000
2057.69751 169.20288 -29.19716 467
2063.80493 169.86816 2.85587 490
2069.30005 169.98790 35.21576 431
2058.89746 156.99597 -29.32076 475
2066.31250 157.27365 2.57609 430
6915.02295 415.12958 357.25345 1000
22452.99609 -1123.18628 3080.81030 1000
4803.17822 -883.81732 -25.90759 400
4806.45752 -914.81171 -25.78719 439
4816.26025 -946.27869 -26.22690 436
4825.91797 -978.72736 -27.24616 450
4842.79785 -1012.73254 -27.36914 383
4862.20605 -1047.24866 -28.27238 370
4883.89209 -1083.98096 -29.33551 393
4911.79102 -1120.67151 -30.82063 383
4949.29053 -1129.65918 49.92855 477
4944.62598 -1159.66528 -32.25221 369
4963.45361 -1165.05603 49.95770 390
4994.50146 -1204.21387 -33.57974 341
5058.60352 -1251.64197 -36.96492 345
5117.49023 -1299.31909 -38.36583 343
5183.41064 -1350.53821 -41.79289 342
5250.64502 -1402.04480 -43.00665 343
3408.10620 -1216.11292 15.37548 493
4053.72339 -2159.74219 -16.40405 484
4062.00195 -2164.80688 56.69267 447
4755.15625 -2887.26929 40.66917 336
4716.64551 -2903.82373 40.85992 454
4683.53955 -2922.92017 41.54519 472
4652.49561 -2941.02197 42.16824 479
4622.31543 -2962.81250 41.72162 479
4597.59131 -2984.94043 42.65432 485
4567.23730 -3004.95264 42.18286 486
4542.09668 -3028.20459 42.19216 489
4514.94287 -3049.97998 43.21451 493
4548.61670 -3072.71826 218.66809 281
4488.28809 -3070.54883 43.82606 485
4529.76514 -3100.07739 130.83937 327
4521.48047 -3094.57520 218.88225 426
4465.25049 -3095.39453 42.48001 495
4495.02148 -3116.52856 130.94714 499
4500.11377 -3119.46387 219.20749 427
4439.50586 -3117.94189 43.44730 496
4473.52148 -3141.74023 130.50711 499
4477.17773 -3145.37842 218.47520 427
4418.36816 -3143.07788 43.62085 498
4448.61670 -3164.10083 130.95277 499
4440.02246 -3159.20996 218.41354 344
4394.86621 -3165.81934 43.83854 498
4426.53271 -3189.68188 131.09778 499
4418.51807 -3182.96387 218.01726 480
4374.58301 -3192.52612 43.83598 499
4404.17285 -3213.99463 130.69379 499
4396.06787 -3208.00659 218.25247 480
4353.57666 -3216.95752 44.22035 499
4388.50977 -3243.49976 130.73488 499
4374.52002 -3233.22705 218.77661 480
4330.73242 -3240.77759 43.87647 499
4366.78369 -3268.80127 131.50047 499
4354.20508 -3259.76831 218.29791 480
4311.55176 -3267.89136 43.46529 499
4345.94043 -3293.92407 131.30446 499
4334.74463 -3285.08081 218.62796 346
4405.77637 -3341.52246 309.34216 471
4287.97314 -3291.13965 43.06843 499
4324.04834 -3319.57617 130.46365 499
4322.64062 -3318.86597 219.17236 428
4400.75879 -3380.07251 309.66989 474
4269.20459 -3318.25806 43.45110 499
4248.45312 -3342.53394 43.66375 499
4382.99512 -3452.06421 310.96390 468
4225.22949 -3366.42407 43.16897 499
4340.86816 -3460.70508 309.78726 434
4206.07373 -3394.15015 44.03521 499
4183.33398 -3417.00073 42.96712 499
4163.68896 -3442.96558 43.19326 499
4142.44775 -3468.60669 43.11174 499
4118.65430 -3490.55225 44.20813 497
4349.59863 -3691.41406 130.57159 400
4097.35596 -3516.97681 44.27845 497
4326.54443 -3717.47437 130.15627 486
4076.10669 -3542.01611 43.97968 497
4106.06055 -3567.76978 131.05257 399
4057.26074 -3567.38110 44.24942 465
4134.71338 -3637.15820 130.46417 488
4119.26465 -3669.10718 42.23939 384
4104.01611 -3654.74780 130.36342 488
4095.04297 -3692.35693 41.52327 428
4078.65698 -3676.06885 131.15974 493
2802.57788 -3198.69946 62.61747 471
2052.39795 -2762.04834 76.71295 337
2003.72852 -2728.82812 77.59086 339
1958.07214 -2698.76562 78.00710 337
1979.66638 -2729.07959 131.94504 385
1913.73828 -2669.32983 78.80403 338
1966.81567 -2747.30615 131.81882 476
1870.68787 -2640.43311 79.52252 340
1954.50330 -2765.68384 131.75238 476
1829.83508 -2613.67334 80.73540 341
1940.45789 -2780.47070 132.10388 418
1791.08765 -2589.36206 81.19665 333
1791.56384 -2590.58765 131.84364 353
1751.00342 -2562.54199 81.74174 335
1752.78674 -2565.96924 132.02127 354
1714.44641 -2539.89624 82.87445 341
1716.12427 -2542.17578 132.14853 356
1681.42114 -2521.80176 82.70020 367
1684.07153 -2526.36304 132.05931 396
1652.84863 -2510.67065 83.25113 378
1656.91492 -2518.54419 131.50395 471
1626.28723 -2501.72021 83.49124 383
1638.10400 -2522.19019 131.40088 475
1600.68445 -2494.50024 84.11784 392
1624.71826 -2535.30103 132.16138 451
1576.30261 -2488.66797 84.23924 398
1614.09753 -2551.94604 132.10091 451
1553.20789 -2483.74878 85.07671 410
1602.71802 -2569.26367 131.96172 348
1530.18091 -2480.72314 84.92072 411
1591.84021 -2587.34351 131.88657 348
1516.14050 -2469.67993 83.63079 416
1665.82874 -2728.64453 130.77780 468
1494.08972 -2467.73584 84.12449 417
1653.37793 -2746.38452 130.42184 467
1473.18213 -2466.00220 84.54207 418
1563.09204 -2624.91846 130.27534 498
1452.43372 -2464.20435 84.43130 423
1548.46326 -2636.64893 130.42014 300
1432.16284 -2462.89575 85.13741 425
1536.53308 -2653.20312 130.63345 299
1412.55176 -2461.88892 84.94824 447
1523.51355 -2669.35352 130.32222 298
1392.79858 -2462.14185 84.92800 456
1385.46643 -2483.97778 85.12238 263
5447.42725 -19241.38672 121.92343 1000
9293.39258 -39581.41406 3443.80200 1000
-8510.17383 -63507.49219 6420.32568 1000
-394.01187 -3035.55347 131.15277 408
-393.11993 -3034.29395 181.52814 408
-393.00757 -3033.98853 231.33980 340
-457.13177 -2322.86011 91.77681 486
-456.80515 -2321.73145 131.04903 486
-456.15479 -2320.50732 170.08417 450
-456.08502 -2319.13232 209.53581 450
-456.03961 -2318.38428 248.44717 394
-455.49133 -2317.97119 287.69852 324
-13049.28906 -34669.35156 -2918.60498 1000
-514.55554 -1609.51453 75.30614 424
-513.77002 -1606.91357 103.28997 425
-512.81140 -1605.11340 131.28979 471
-512.22607 -1603.33325 159.73495 471
-511.56027 -1601.62866 187.80431 472
-511.03064 -1599.54700 215.64203 496
-510.33746 -1598.20435 243.33864 496
-509.56265 -1596.59521 271.52579 496
-525.07306 -1607.63672 75.09850 289
-17198.57617 -25484.18945 -3417.07715 1000
-10200.97266 -9771.30469 -2936.47339 1000
-45801.25391 -33891.82422 -12195.83887 1000
-43543.59375 -29803.56055 7968.35840 1000
90.06481 -3.04272 127.85530 351
90.06592 -3.04162 128.09842 351
90.06610 -3.04298 128.34129 352
90.18407 -2.92245 127.87902 352
90.18298 -2.92406 128.12151 352
90.18411 -2.92278 128.36156 353
89.25130 -3.26130 128.38638 302
90.30074 -2.80729 127.90318 353
90.30139 -2.80756 128.14481 354
90.30128 -2.80781 128.38219 354
89.28490 -3.16706 128.38644 302
90.41540 -2.69066 127.92711 355
90.41529 -2.69234 128.16486 355
90.34965 -2.71574 128.38705 306
89.31484 -3.07504 128.38683 302
90.52798 -2.57869 127.94991 356
90.52778 -2.57960 128.18709 357
90.38140 -2.63008 128.38586 306
89.34649 -2.98288 128.38530 302
88.14213 -3.39434 128.38525 298
90.63950 -2.46761 127.97109 357
90.64001 -2.46788 128.20859 358
90.41656 -2.54209 128.38559 306
89.37737 -2.88922 128.38542 302
88.17330 -3.29274 128.38629 298
90.74884 -2.35813 127.99200 359
90.74989 -2.35925 128.22849 359
90.45006 -2.45586 128.38702 306
89.41357 -2.79685 128.38770 302
88.20340 -3.18982 128.38666 298
90.85574 -2.25159 128.01323 360
90.85649 -2.25304 128.24762 361
90.48587 -2.37190 128.38567 306
89.44582 -2.70195 128.38731 302
88.23730 -3.08947 128.38635 298
90.96207 -2.14421 128.03375 361
90.96136 -2.14534 128.26422 362
90.52053 -2.28360 128.38609 306
89.47951 -2.60968 128.38542 302
88.26917 -2.98806 128.38725 298
91.06557 -2.04043 128.05278 363
91.06552 -2.04194 128.28253 363
90.55835 -2.19717 128.38574 306
89.51537 -2.51809 128.38680 302
88.30416 -2.88881 128.38724 298
91.16911 -1.93731 128.07181 364
91.16842 -1.93860 128.30077 364
90.59486 -2.11177 128.38629 306
89.55125 -2.42241 128.38716 302
88.33826 -2.78884 128.38525 298
91.27126 -1.83747 128.09021 365
91.27128 -1.83596 128.31749 366
90.63108 -2.02509 128.38541 306
89.58873 -2.33065 128.38760 302
88.37078 -2.68645 128.38681 298
86.93850 -3.10539 128.38712 294
91.35442 -1.74077 128.10197 457
91.35474 -1.74128 128.32738 457
90.66849 -1.93867 128.38531 306
89.62231 -2.23762 128.38786 302
88.40677 -2.58655 128.38760 298
86.97224 -2.99787 128.38640 294
91.37582 -1.66470 128.09660 457
91.37494 -1.66304 128.32483 458
90.70780 -1.85095 128.38557 306
89.66172 -2.14331 128.38640 302
88.44366 -2.48381 128.38576 298
87.00747 -2.88929 128.38519 294
91.39492 -1.58645 128.09201 458
91.39578 -1.58632 128.31827 459
90.74625 -1.76482 128.38586 306
89.69867 -2.05059 128.38718 302
88.48098 -2.38428 128.38728 298
87.04289 -2.77646 128.38477 294
91.41674 -1.51025 128.08846 459
91.41661 -1.50970 128.31328 460
90.78683 -1.67785 128.38675 306
89.73785 -1.95718 128.38551 302
88.51669 -2.28410 128.38533 298
87.07737 -2.66669 128.38739 294
91.43714 -1.43140 128.08302 460
91.43576 -1.43259 128.30952 460
90.82481 -1.59065 128.38748 306
89.77658 -1.86521 128.38734 302
88.18696 -2.27642 128.30972 371
87.11477 -2.55564 128.38559 294
91.45789 -1.35591 128.07756 460
91.45811 -1.35373 128.30466 461
90.86536 -1.50429 128.38680 306
89.81561 -1.77132 128.38652 302
88.00659 -2.23074 128.26720 369
87.15023 -2.44696 128.38658 294
91.47957 -1.27640 128.07094 461
91.47721 -1.27744 128.29849 462
90.90688 -1.41739 128.38684 306
89.85491 -1.67795 128.38718 302
87.82276 -2.18192 128.22028 368
87.18964 -2.33773 128.38509 294
91.49984 -1.19793 128.06566 462
91.49847 -1.19947 128.29381 463
90.94823 -1.33112 128.38774 306
89.89639 -1.58580 128.38687 302
87.63174 -2.12924 128.17401 367
87.22855 -2.22778 128.38705 294
91.52012 -1.12129 128.06003 462
91.52110 -1.12069 128.28665 463
90.99023 -1.24411 128.38760 306
87.43759 -2.07745 127.83020 365
87.43689 -2.07842 128.12466 365
87.26891 -2.11632 128.38664 294
91.54225 -1.04213 128.05461 463
91.54293 -1.04281 128.28322 464
91.03351 -1.15751 128.38647 306
87.27589 -2.01416 127.78846 302
87.23555 -2.02396 128.07610 364
87.23466 -2.02404 128.37386 364
91.56252 -0.96318 128.04863 464
91.56141 -0.96411 128.27582 465
91.07483 -1.07257 128.38693 306
87.31470 -1.90297 127.78709 302
87.10082 -1.95059 128.04239 456
87.10116 -1.95171 128.33926 457
91.58323 -0.88666 128.04210 464
91.58344 -0.88636 128.27061 465
91.11848 -0.98490 128.38676 306
87.35320 -1.79266 127.78759 302
87.01627 -1.86712 128.01530 455
87.01580 -1.86446 128.31688 456
91.60374 -0.80655 128.03677 465
91.60588 -0.80640 128.26547 466
91.16463 -0.89878 128.38565 306
87.39352 -1.68237 127.78936 302
86.92972 -1.77952 127.98939 455
86.93006 -1.78139 128.29489 455
85.69823 -2.03589 128.38670 290
91.62661 -0.72756 128.03072 466
91.62608 -0.72667 128.25998 467
91.20796 -0.81121 128.38570 306
87.43382 -1.57176 127.78703 302
86.84334 -1.69114 127.96428 454
86.84426 -1.69423 128.27052 454
85.73959 -1.91623 128.38606 290
91.64789 -0.64867 128.02434 466
91.64754 -0.64825 128.25397 467
91.25377 -0.72642 128.38652 306
87.47722 -1.46360 127.78726 302
86.75487 -1.60235 127.93666 453
86.75756 -1.60424 128.24384 454
85.78172 -1.79520 128.38596 290
91.66938 -0.56865 128.01610 467
91.66805 -0.56923 128.24574 468
91.29997 -0.63942 128.38535 306
87.51630 -1.35410 127.78860 302
86.66620 -1.51563 127.91159 452
86.66473 -1.51405 128.22179 453
85.82530 -1.67386 128.38615 290
91.68925 -0.48980 128.01178 468
91.68829 -0.48970 128.24156 469
91.34616 -0.55269 128.38774 306
87.55923 -1.24417 127.78851 302
86.57521 -1.42433 127.88359 451
86.57581 -1.42534 128.19684 452
85.86852 -1.55229 128.38852 290
91.71053 -0.40969 128.00374 468
91.71202 -0.41010 128.23494 469
91.39174 -0.46651 128.38634 306
87.60220 -1.13294 127.78774 302
86.48316 -1.32999 127.85822 450
86.48325 -1.33194 128.17122 451
85.91435 -1.43232 128.38744 290
-2083.52710 -383.93243 58.65777 487
-2087.68677 -384.75134 95.10334 451
91.73244 -0.32983 127.99700 469
91.73254 -0.32869 128.22844 470
91.43819 -0.37979 128.38594 306
87.64687 -1.02238 127.78861 302
86.38786 -1.23735 127.83128 449
86.38850 -1.23869 128.14471 450
85.95752 -1.31096 128.38832 290
-2087.87256 -370.52197 58.55991 451
-2090.93286 -371.44534 95.13434 451
-2095.51538 -371.81021 131.39923 392
91.75459 -0.25009 127.99038 470
91.75435 -0.25030 128.22145 471
91.48722 -0.29490 128.38644 306
87.69343 -0.91307 127.78845 302
86.30336 -1.14140 127.80157 493
86.30155 -1.14034 128.11923 494
86.00582 -1.19238 128.38597 290
-2781.77612 -470.08017 83.29041 444
91.77608 -0.17022 127.98435 470
91.77539 -0.16918 128.21501 471
91.53664 -0.20625 128.38773 306
87.73697 -0.80497 127.78671 302
86.27251 -1.03389 127.78967 493
86.27168 -1.03534 128.10876 494
86.05289 -1.07184 128.38849 290
-2781.46802 -452.36993 83.93913 490
-2786.15869 -452.87805 131.25836 487
91.79860 -0.08823 127.97722 471
91.79594 -0.08832 128.20778 472
91.58376 -0.12186 128.38545 306
87.78435 -0.69572 127.78586 302
86.31487 -0.91614 127.78780 298
86.24359 -0.92664 128.09430 494
86.09890 -0.94988 128.38680 290
-3514.05127 -544.29291 131.26077 456
91.81979 -0.00690 127.96951 471
91.81964 -0.00836 128.20134 472
91.63355 -0.03339 128.38722 306
90.57571 -0.18666 128.38759 302
86.36301 -0.79595 127.78794 298
86.21364 -0.81866 128.07930 494
86.14692 -0.82860 128.38860 290
91.80323 0.06732 127.95181 489
91.80309 0.06786 128.18303 490
91.68457 0.05121 128.38565 306
90.62446 -0.09471 128.38759 302
86.40908 -0.68023 127.78654 298
86.18503 -0.71047 128.06303 494
86.18543 -0.71081 128.38274 494
91.78175 0.14547 127.93266 489
91.78212 0.14514 128.16583 490
91.73465 0.13811 128.38570 306
90.67548 -0.00342 128.38762 302
86.45554 -0.56011 127.78777 298
86.15456 -0.59933 128.05028 493
86.15810 -0.59860 128.37189 494
91.76138 0.22154 127.91472 489
91.76139 0.22170 128.14778 490
91.76159 0.22046 128.38167 491
90.72430 0.09048 128.38747 302
86.50497 -0.43847 127.78901 298
86.12677 -0.49101 128.03616 493
86.12580 -0.48683 128.35988 494
91.74127 0.29898 127.89534 489
91.74107 0.29727 128.12933 490
91.74179 0.29815 128.36295 490
90.77611 0.18292 128.38567 302
86.55621 -0.32273 127.78616 298
86.09610 -0.37600 128.02136 493
86.09507 -0.37608 128.34413 494
91.71856 0.37718 127.87417 488
91.71965 0.37770 128.11121 489
91.72033 0.37744 128.34741 490
90.82922 0.27566 128.38736 302
86.60262 -0.20371 127.78787 298
86.06710 -0.26570 128.00620 493
86.06585 -0.26282 128.33011 493
91.69866 0.45663 127.85676 488
91.69934 0.45506 128.09367 489
91.69832 0.45551 128.32924 490
90.88057 0.36836 128.38788 302
86.65387 -0.08570 127.78844 298
86.03452 -0.15192 127.98947 493
86.03638 -0.15151 128.31517 493
91.67664 0.53668 127.83597 488
91.67695 0.53701 128.07440 489
91.67776 0.53709 128.31113 490
90.93659 0.46146 128.38564 302
86.70679 0.03226 127.78754 298
86.00546 -0.03445 127.97824 492
86.00626 -0.03485 128.30309 493
91.65607 0.61485 127.81667 488
91.65616 0.61676 128.05685 489
91.65536 0.61704 128.29488 490
90.98852 0.55450 128.38593 302
86.75723 0.15302 127.78918 298
86.01735 0.08337 127.96831 480
86.01736 0.08382 128.29456 481
91.63322 0.69712 127.79707 487
91.63322 0.69799 128.03864 488
91.63416 0.69833 128.27798 489
91.04419 0.64601 128.38704 302
86.81194 0.26961 127.78844 298
86.04942 0.20250 127.96442 481
86.05033 0.20216 128.29166 481
91.61055 0.77973 127.77491 487
91.61311 0.77973 128.01918 488
91.61317 0.78072 128.25984 489
91.09968 0.73796 128.38628 302
86.86337 0.38861 127.78878 298
86.08172 0.32344 127.96245 481
86.08207 0.32636 128.28806 482
91.58828 0.86304 127.75676 487
91.58878 0.86253 127.99858 488
91.58882 0.86412 128.24051 489
91.15250 0.82927 128.38559 302
86.91985 0.50511 127.78889 298
86.11562 0.44646 127.95515 482
86.11395 0.44553 128.28285 482
91.56744 0.94635 127.73534 487
91.56770 0.94715 127.98080 488
91.56686 0.94592 128.22212 488
91.20850 0.92309 128.38742 302
86.97436 0.62734 127.78829 298
86.14907 0.56721 127.95332 482
86.14944 0.56841 128.28249 483
91.54282 1.03142 127.71334 486
91.54478 1.03107 127.96079 487
91.54430 1.03046 128.20512 488
91.26611 1.01326 128.38597 302
87.03149 0.74304 127.78596 298
86.18053 0.68665 127.94772 483
86.18102 0.69065 128.27618 483
91.51978 1.11701 127.69341 486
91.52202 1.11789 127.94170 487
91.52171 1.11725 128.18605 488
91.32394 1.10645 128.38782 302
87.08756 0.86205 127.78786 298
86.21300 0.81156 127.94468 483
86.21214 0.80950 128.27046 484
91.49767 1.20257 127.67133 486
91.49873 1.20429 127.92210 487
91.49948 1.20267 128.16823 488
91.38140 1.19649 128.38588 302
87.14406 0.97724 127.78825 298
86.24657 0.93204 127.93882 483
86.24517 0.93403 128.26743 484
91.47469 1.29037 127.64993 485
91.47660 1.29054 127.90015 486
91.47347 1.29066 128.14787 487
91.43890 1.28807 128.38664 302
87.20008 1.09642 127.78944 298
86.27928 1.05718 127.93299 484
86.27706 1.05456 128.26491 485
91.45238 1.37858 127.62861 485
91.45123 1.37896 127.88019 486
91.45030 1.37912 128.12949 487
91.45041 1.37952 128.37527 488
90.26923 1.33318 128.38724 298
86.32879 1.18098 127.93272 416
86.32659 1.17857 128.26021 417
91.42773 1.46865 127.60904 485
91.42941 1.46769 127.85923 486
91.42922 1.46783 128.11096 487
91.42863 1.46795 128.35757 487
90.32760 1.43135 128.38736 298
86.45396 1.30164 127.94280 418
86.45532 1.30477 128.27406 418
91.40446 1.55721 127.58503 484
91.40386 1.55734 127.84078 485
91.40358 1.55843 128.09050 486
91.40266 1.55728 128.33984 487
90.39014 1.53064 128.38593 298
86.57719 1.42791 127.95515 419
86.57999 1.42726 128.28111 419
91.37968 1.64893 127.56345 484
91.38114 1.64839 127.81766 485
91.37840 1.64894 128.07170 486
91.38089 1.64820 128.32098 487
90.45219 1.62902 128.38519 298
86.70364 1.55100 127.96922 420
86.70024 1.55185 128.29102 420
91.35490 1.74061 127.54098 484
91.35363 1.73982 127.79782 485
91.35424 1.74066 128.05302 486
91.35369 1.74058 128.30321 486
90.51260 1.72739 128.38785 298
86.82529 1.67504 127.97886 421
86.82637 1.67407 128.30116 421
91.27692 1.83134 127.50419 422
91.27623 1.83013 127.76389 422
91.27682 1.83144 128.02003 423
91.27462 1.83183 128.27405 424
90.57419 1.82490 128.38527 298
86.94436 1.79671 127.99110 422
86.94663 1.79342 128.31277 422
85.28944 1.78277 128.38571 286
91.18190 1.92640 127.46328 421
91.18288 1.92482 127.72562 421
91.18263 1.92389 127.98310 422
91.18153 1.92506 128.23917 423
90.63606 1.92407 128.38773 298
87.06604 1.91789 128.00005 423
87.06753 1.91599 128.32054 424
