# .PCD v.7 - Point Cloud Data file format
VERSION .7
FIELDS x y z rgb
SIZE 4 4 4 4
TYPE F F F U
COUNT 1 1 1 1
WIDTH 1067
HEIGHT 1
VIEWPOINT 6058.665039 -3948.310547 132.464478 -0.225623 -0.147170 -0.015789 0.962905
POINTS 1067
DATA ascii
-196.76991 0.97711 53.34112 324
-196.80539 2.83242 53.34297 324
-196.86574 4.61142 53.37659 324
-196.80495 6.43028 53.38034 324
-196.83784 8.18458 53.33073 324
-53900.39453 1180.23364 -3346.55957 1000
-196.80447 10.05058 53.31030 324
-196.73970 11.79851 53.36164 324
-291.25064 65.55331 40.64245 340
-289.32773 67.76142 40.94699 341
-290.00378 70.30050 40.71319 318
-270.26968 69.14480 38.85377 322
-1469.53113 473.41275 53.22071 411
-1460.98926 480.95834 53.63607 492
-1464.55310 482.13824 80.04910 492
-1468.79761 483.69641 106.46085 459
-1459.24194 491.48538 53.47190 480
-1462.27368 492.23102 80.12029 480
-1464.72583 492.75461 106.78040 473
-2116.67529 713.36707 57.92505 453
-2109.46167 725.72003 58.04093 486
-2112.26465 726.54980 96.18082 485
-2115.81665 727.71252 134.12807 440
-3118.22583 1467.86438 -212.88860 1000
-1.34267 1.48074 -0.53444 1000
-7163.59180 13805.19824 -116.71411 458
-7118.68262 13719.68457 138.90965 463
-7057.15820 13806.10938 -119.49059 462
-7011.16846 13722.06543 135.04504 464
-6953.31250 13817.38965 -116.16709 467
-6910.09131 13731.25098 137.89070 469
-6852.98145 13824.96582 -117.01698 468
-6810.35840 13739.04102 135.30830 469
-6751.89160 13832.69336 -113.52922 468
-6706.30225 13748.92285 134.76715 477
-6649.46045 13842.37305 -116.99509 469
-6606.36084 13759.87109 138.20291 481
-6549.73584 13850.28516 -112.71437 469
-6508.55078 13771.88965 136.46222 481
-384.97690 815.75012 -14.49488 470
-6412.68115 13780.66699 137.59923 482
-6350.90771 13871.25586 -111.75145 470
-6310.52197 13791.54199 136.49232 482
-6248.86914 13878.30762 -115.35042 471
-6214.92432 13799.35547 134.38780 483
-6151.46240 13890.47461 -111.64487 471
-6112.92480 13809.55762 135.17284 483
-6052.48975 13897.44141 -112.05935 472
-6018.54443 13820.91016 134.95862 484
-5953.81006 13907.13770 -111.24320 472
-5918.89014 13830.91797 137.24219 484
-5855.14307 13915.94531 -113.21616 473
-5824.20947 13840.56738 134.75468 485
-5758.59424 13925.94531 -113.27258 473
-5727.12109 13850.32520 136.15497 485
-5664.00928 13933.12598 -112.68752 474
-5631.05908 13861.28613 136.06622 486
-5566.51416 13943.63965 -108.76492 474
-5536.90527 13869.33594 134.13231 486
-5471.22754 13950.24902 -109.06371 474
-5441.44434 13878.70215 135.80611 486
-5372.49268 13958.84277 -108.27211 475
-5345.80371 13889.27148 135.15097 487
-5277.33203 13969.56055 -109.55787 475
-5249.97559 13896.09766 136.38029 487
-5183.10547 13978.02148 -110.66502 476
-5157.62939 13908.23535 134.25148 488
-5087.73926 13983.32910 -107.87923 476
-5063.62598 13916.45312 137.25352 488
-4992.95215 13993.07324 -106.75477 476
-4970.75635 13927.57129 137.13214 488
-4899.34033 14000.84766 -108.72235 477
-4877.09814 13937.12598 134.19252 489
-4802.99268 14010.40820 -105.62261 477
-4780.63623 13945.79590 133.90065 489
-4712.08984 14018.16895 -109.03484 478
-4688.84033 13956.73438 135.97279 489
-4617.94434 14026.09082 -108.13167 478
-4596.81689 13964.39551 134.52446 490
-4524.44043 14035.02246 -105.15670 478
-4504.05859 13972.04883 133.59364 490
-4433.11914 14045.96094 -108.15829 478
-4410.55176 13983.14648 136.50735 490
-3623.15112 11488.00684 -194.71387 479
-4319.53076 13990.87988 136.99649 491
-4248.05273 14063.46875 -106.40042 479
-4228.07129 14002.51855 135.05153 491
-4182.42969 14161.83398 -349.26648 458
-4155.32568 14068.51172 -107.12112 479
-4138.47705 14009.58887 136.98683 491
-4090.26343 14168.74902 -347.29883 458
-4064.01123 14078.36523 -106.71035 480
-4047.09839 14020.75391 133.52260 492
-3996.20923 14175.78613 -347.15509 458
-3972.09058 14085.57129 -104.02698 480
-3953.96826 14028.70898 135.51241 492
-3905.16064 14184.32129 -345.89795 459
-3881.83252 14095.18457 -104.36541 480
-3865.36621 14037.81055 135.52556 492
21.26494 251.39792 157.76060 1000
-3812.00073 14188.10840 -348.34540 459
-3789.65112 14103.13770 -105.40021 480
-3771.93408 14046.41406 134.47150 492
-3980.03418 14796.64551 385.68100 485
-3723.52368 14197.55762 -347.08374 459
-3700.38086 14112.82617 -104.11173 481
-3681.61182 14057.22852 135.93040 493
-3878.26001 14788.97559 383.32965 486
-15562.48340 59719.62891 -16398.98828 1000
-13115.48633 50398.60938 -4990.41357 1000
-3631.08179 14205.33105 -345.48102 478
-3608.59131 14117.67383 -103.92553 481
-3592.35620 14064.82422 135.22182 496
-3779.29785 14782.46191 385.55676 486
-3540.20874 14212.83984 -346.76492 478
-3517.30127 14128.93555 -103.96505 481
-3503.70850 14074.71875 136.22870 496
-3681.19873 14775.02539 384.24530 487
-3447.03149 14220.46582 -346.36710 479
-3425.95923 14137.94141 -103.22581 481
-3412.52515 14083.56836 133.95860 496
-3585.65649 14769.36719 384.09695 487
-3356.49316 14230.98926 -344.79684 479
-3337.41504 14146.53223 -102.80115 482
-3324.05835 14094.42285 134.31398 497
-3486.28442 14760.13281 383.81790 488
-3267.31763 14236.85645 -345.78448 479
-3245.30005 14151.99609 -104.20918 482
-3233.86597 14105.85156 134.87134 497
-3388.04053 14757.07227 382.35638 488
-3176.07642 14244.37207 -344.49734 479
-3157.96460 14163.23242 -101.96710 482
-3145.99536 14114.56445 135.83237 497
-3290.48560 14750.15234 380.61951 489
-3085.04175 14253.62402 -342.25497 479
-3068.11768 14170.37891 -102.10849 482
-3056.50659 14120.65039 135.63379 497
-3195.05713 14739.73535 381.83826 489
-2993.73706 14262.07520 -344.92899 480
-2976.43213 14176.85938 -104.59254 482
-2968.33423 14133.27637 132.44087 497
-3095.71851 14734.32520 379.06235 489
-2907.39526 14270.67773 -343.17599 480
-2886.76587 14187.61816 -104.03587 483
-2880.06543 14141.67480 132.47304 498
-3001.54272 14737.99023 381.11566 498
-2813.64966 14278.40723 -342.55811 480
-2798.32690 14196.28418 -104.50018 483
-2791.11914 14150.94629 134.61397 498
-2911.03931 14745.14551 382.24472 498
-2726.73657 14285.19629 -340.91373 480
-2707.21460 14203.01758 -103.58338 491
-2702.97778 14162.78320 135.76155 463
-2819.42188 14753.94238 380.70398 498
-2636.63110 14294.13965 -340.93262 480
-2621.42090 14209.59375 -102.41458 491
-2613.09668 14174.03223 133.58800 463
-2726.83423 14762.50781 380.43768 498
-2547.53906 14301.81641 -340.60562 480
-2528.97729 14220.02734 -102.81520 491
-2523.66040 14184.71680 135.52086 423
-2633.85840 14769.57520 378.33472 498
-2458.74707 14310.15625 -343.01486 480
-2442.21289 14229.05273 -100.89476 491
-2435.48828 14199.08496 135.44066 423
-2540.26855 14780.92188 378.34335 498
-2366.33716 14320.06836 -343.20895 481
-2354.84082 14236.64941 -104.30046 491
-2347.65430 14207.41504 135.60884 423
-2448.32300 14790.09961 381.36127 499
-2279.44238 14324.52930 -340.27567 481
-2266.79858 14246.84766 -100.80471 491
-2260.75879 14222.50293 133.30569 423
-2355.40234 14801.15527 378.20285 499
-2188.55225 14333.37500 -342.97803 481
-2176.84351 14257.33984 -101.99536 491
-2174.24927 14242.12109 135.48375 301
-2250.78320 14712.30957 377.36862 436
-2097.78394 14342.31543 -341.50229 481
-2088.44482 14265.90332 -103.79138 492
-2088.20996 14267.41602 132.14760 301
-2156.91870 14709.83008 375.57864 492
-2011.87012 14352.03516 -340.18924 481
-2001.35205 14272.58398 -103.10667 492
-2001.43079 14291.06152 133.56744 295
-2064.17188 14717.78516 376.68222 492
-2086.57910 14877.11328 625.83533 499
-1920.55762 14359.92969 -342.26529 481
-1911.44397 14280.29004 -100.49562 492
-1951.96411 14567.28027 131.74144 499
-1971.09900 14726.21191 378.49838 492
-1994.89343 14881.79590 623.89185 499
-2020.89050 15081.73242 879.91656 454
-1834.60742 14368.43652 -340.83597 481
-1823.95032 14292.01855 -103.71364 492
-1861.70752 14573.90137 133.17477 499
-1881.17749 14734.41992 375.46643 492
-1904.30798 14891.13867 624.48798 499
-1923.46875 15037.03125 880.56635 471
-1744.80908 14374.76953 -340.64566 481
-1733.90881 14301.52832 -103.39528 492
-1771.48914 14582.72363 135.66721 499
-1788.83875 14741.94727 378.25729 492
-1808.42542 14900.68359 625.46753 499
-1833.68909 15077.84180 879.10742 374
-1654.58789 14382.65039 -340.93430 481
-1644.72107 14306.97852 -103.55918 492
-1679.51050 14592.74805 134.02957 499
-1712.19653 14859.30664 379.29562 454
-1713.26440 14870.85840 622.50208 454
-1719.05798 14897.95312 870.57117 362
-1567.52209 14391.03125 -342.06580 481
-1557.63928 14317.34668 -103.84912 492
-1591.01501 14599.13574 133.85228 499
-1614.81873 14806.70801 375.74582 455
-1615.93677 14818.87207 623.54376 455
-1616.44263 14840.25391 866.16504 362
-1476.60291 14400.80566 -339.59076 481
-1469.67749 14323.22363 -103.42310 492
-1500.45898 14607.29688 132.61839 499
-1516.76648 14751.58203 374.84988 456
-1516.44324 14763.80859 619.08276 455
-1519.91699 14782.80371 863.07166 363
-1388.12952 14410.66113 -340.79492 481
-1381.49146 14333.89844 -102.46907 492
-1412.11853 14618.82324 133.62427 499
-1418.51917 14699.53418 373.58340 457
-1418.31885 14713.73730 619.44720 456
-1422.81482 14727.24805 860.28070 363
-1300.18652 14414.19629 -342.74207 481
-1295.33984 14344.06934 -100.91223 492
-1320.16602 14628.31836 134.34134 499
-1324.15515 14683.21289 375.36453 499
-1327.07825 14686.55273 615.81226 499
-1327.15918 14696.95508 859.03766 390
-1211.18164 14426.34473 -339.12161 481
-1205.26782 14350.06445 -103.29000 492
-1232.66528 14636.21191 134.01765 499
-1234.39636 14689.29004 376.08054 499
-1235.55603 14698.19336 615.97729 499
-1237.43640 14709.06055 859.61102 390
-1267.05762 15041.31738 1121.22388 479
-1120.85803 14432.16992 -342.06024 483
-1115.26453 14362.34668 -101.68378 492
-1139.96179 14641.63672 131.97142 499
-1142.02588 14667.50488 374.03519 499
-1143.69592 14674.31934 615.91217 499
-1146.45764 14725.38867 857.83081 390
-1164.28528 14917.78223 1112.96655 485
-1164.83752 14923.36816 1363.36511 484
-1165.27063 14936.71582 1608.94446 490
-1033.99512 14441.70898 -342.23218 483
-1028.77209 14371.13574 -102.63638 492
-1050.76379 14650.99609 133.80710 499
-1051.61853 14679.17871 373.27927 499
-1053.18958 14685.32617 614.82886 499
-1056.79895 14735.96582 859.17188 390
-1082.47876 15055.64746 1124.25000 479
-945.49847 14447.90820 -340.29324 483
-940.70441 14376.46484 -104.23273 492
-959.94836 14662.17871 133.62355 499
-961.45233 14687.73828 373.11258 499
-960.35419 14692.22070 615.01074 499
-966.21246 14749.14062 861.36981 390
-985.29871 15004.75977 1117.96106 474
-856.73627 14456.33203 -340.89044 483
-850.90161 14385.62695 -101.88106 492
-870.32080 14668.74707 133.69406 499
-873.57709 14695.93848 372.97781 499
-871.58447 14701.17188 614.57477 499
-875.34338 14761.65234 861.33008 390
-896.81952 15038.23828 1118.96863 473
-768.25085 14464.71680 -342.45972 483
-763.89691 14393.93652 -101.15022 492
-778.98090 14677.46582 132.53709 499
-782.19312 14705.06641 374.93991 499
-781.28864 14709.64160 614.06665 499
-787.13788 14772.99805 861.54578 390
-803.69830 15089.28711 1123.84070 470
-679.20129 14474.97070 -340.32205 483
-674.37708 14404.13086 -103.13068 492
-688.67529 14685.82617 133.84514 499
-689.71960 14712.02637 372.24698 499
-690.65985 14720.40039 616.98859 499
-696.31421 14786.13086 861.86243 390
-713.10327 15098.79590 1122.12598 470
-587.85089 14482.20312 -342.08646 482
-586.71899 14412.11133 -101.52504 492
-588.86249 14443.72949 133.14948 431
-600.53796 14720.20020 372.57251 499
-599.49567 14728.76172 614.90997 499
-604.18048 14798.91602 859.92029 390
-620.85028 15108.49707 1125.91150 470
-501.99652 14491.97559 -340.69781 482
-497.82706 14422.78613 -104.76079 491
-498.32452 14452.26172 132.69431 431
-509.04361 14729.71484 374.33755 499
-510.88974 14737.77246 614.93988 499
-515.30298 14811.56250 859.62170 390
-525.55548 15119.97754 1126.34619 470
-410.28201 14498.26074 -343.72171 482
-410.14014 14428.92480 -101.70031 491
-409.15247 14457.98340 134.73961 432
-419.41437 14767.91602 376.22287 499
-423.07135 14774.16602 616.16827 499
-421.80615 14822.41113 860.02588 390
-434.27893 15126.15723 1125.97253 470
-321.50659 14508.29004 -344.17099 482
-322.01019 14440.53418 -103.91850 491
-319.78610 14465.85645 130.82198 437
-332.14331 14775.93359 372.76492 499
-330.88107 14776.51270 618.07574 477
-332.13147 14835.37891 860.80457 381
-342.30447 15139.27148 1124.01611 470
-233.29312 14513.01270 -344.01730 482
-230.70796 14446.74609 -104.16527 491
-232.61086 14479.04785 131.80212 437
-234.39549 14625.57617 371.12140 421
-234.80103 14565.53809 609.92889 284
-241.54103 14849.19727 860.60229 381
-245.78056 15147.80078 1124.78760 470
-145.70213 14524.17676 -341.46942 482
-145.37169 14456.83887 -105.02078 491
-144.81383 14489.84473 132.65808 386
-148.97252 14794.73633 374.79144 498
-146.51097 14596.06445 611.78748 454
-150.72923 14857.77734 863.28510 381
-155.48895 15157.38379 1127.29749 470
-53.94096 14531.25781 -344.05307 482
-55.12555 14465.88281 -102.99797 491
-53.60706 14504.78516 134.41684 386
-57.54832 14801.28711 373.30396 498
-58.78340 14811.18652 618.73456 498
-60.00026 14870.84961 862.89014 381
35.43335 14541.78027 -345.31213 482
33.47973 14473.09082 -104.85381 494
34.79071 14755.14746 133.83005 498
31.99481 14809.46777 377.19724 498
33.51282 14817.13770 619.53412 498
32.18856 14883.15137 864.40277 381
122.87199 14550.32715 -341.82800 482
124.47517 14482.78613 -103.98559 494
122.23235 14763.06445 134.25677 498
123.72456 14836.08691 373.79147 447
126.61138 14838.07324 620.12860 447
123.90636 14930.43164 865.67633 353
212.23581 14557.39062 -342.83627 482
212.74043 14491.38379 -105.37217 494
216.26363 14772.84570 134.56203 498
217.76849 14907.46777 374.65302 446
215.81239 14908.97070 619.06219 446
218.82970 15020.70215 869.31134 352
304.32816 14565.24902 -345.58188 481
301.20117 14500.60938 -105.01192 493
306.12634 14778.52539 132.27867 498
309.64651 14971.14648 378.57190 468
308.57303 14981.64844 625.23090 445
312.70340 15118.84570 876.58795 353
395.10336 14574.00195 -344.60452 481
391.74670 14509.58203 -103.84177 493
397.60349 14786.83203 133.47261 498
402.22867 15015.43262 377.27652 468
403.43512 15052.56836 627.53046 444
482.13589 14581.41309 -345.84451 481
482.11847 14521.15820 -106.86311 493
489.74734 14848.13379 134.52522 410
495.00269 15059.45215 378.73148 467
495.66556 15120.33203 629.55646 466
572.91364 14591.34863 -346.06027 481
570.43506 14530.64648 -105.60406 493
581.83441 14919.08789 131.39449 409
592.53180 15102.27441 377.86545 466
663.61511 14601.48730 -347.01920 481
661.35352 14540.01562 -105.66187 493
679.20410 14988.73242 133.92313 408
754.12854 14605.79883 -345.06122 480
751.94080 14549.19043 -104.27673 492
776.35333 15123.99707 133.33240 443
842.80139 14615.17188 -347.27762 480
843.42535 14555.73828 -106.96496 492
872.28937 15139.21582 131.73161 442
935.19604 14625.04395 -347.72821 480
933.35187 14565.38477 -107.41969 492
1027.22998 14633.43457 -348.06042 480
1021.94409 14575.40820 -107.22989 492
1117.12817 14642.45801 -348.90482 480
1112.92346 14585.86621 -106.00610 492
1208.25098 14652.66113 -349.92606 479
1204.36926 14595.51074 -105.06278 494
1299.57971 14659.32812 -348.94894 479
1293.60962 14601.81836 -107.55877 493
1391.15466 14667.86230 -347.58804 479
1385.98438 14612.26855 -106.37304 493
1481.30090 14675.09277 -352.01837 486
1478.57727 14622.23145 -109.86444 493
1572.74915 14685.87207 -352.56076 486
1570.17566 14631.25391 -108.33505 492
1665.54285 14696.33496 -349.45758 486
1661.23315 14642.18848 -108.11600 492
1761.19055 14702.78906 -350.33206 485
1755.21350 14652.96582 -108.20396 492
1853.13464 14715.29688 -351.68808 485
1847.64661 14664.19434 -108.75363 492
1947.29724 14722.09277 -352.57843 485
1939.95996 14671.47070 -109.42788 491
2038.64819 14732.57910 -353.95740 484
2034.30322 14680.85059 -109.83451 491
2135.03149 14741.16895 -356.48807 484
2123.47998 14691.91602 -109.29971 490
2227.78564 14752.82520 -354.57938 484
2219.50244 14700.35352 -110.17798 490
2322.26660 14761.76270 -356.42883 483
2314.05200 14710.71875 -111.98025 490
2414.05859 14770.93848 -355.19281 483
2407.96899 14721.40625 -111.47707 489
2509.96118 14779.36035 -357.42163 483
2502.78711 14731.92676 -113.41610 489
2606.04712 14790.49414 -358.49408 482
2598.69897 14742.26758 -113.09484 489
2703.45166 14798.22461 -359.35971 482
2693.40527 14751.09277 -113.63313 488
2797.17993 14807.15137 -358.96179 481
2788.27173 14761.98047 -114.38171 488
2894.14233 14820.56738 -362.38882 481
2884.61548 14772.17969 -115.52582 487
2987.37817 14828.26465 -363.68018 481
2980.54614 14780.10742 -115.85814 487
3088.63696 14837.81348 -362.52676 480
3078.22607 14790.22656 -116.49393 486
3185.93286 14847.45605 -365.31177 480
3174.57275 14801.54980 -116.49212 486
3279.79688 14857.09668 -364.06570 479
3270.83228 14810.05469 -117.71767 485
3380.36792 14868.29785 -365.97137 479
3367.73853 14822.19043 -117.05006 485
3495.08154 14957.35449 -623.53729 468
3477.00806 14875.43945 -368.55725 478
3465.20605 14832.38379 -115.29774 484
3594.42993 14966.74707 -621.81158 468
3577.20337 14889.71875 -369.27530 478
3565.01538 14842.67480 -119.12479 484
3695.81055 14985.06836 -625.46844 453
3675.63867 14896.32129 -371.47488 477
3664.26514 14853.70117 -119.57456 483
3798.77271 15007.11426 -628.36987 453
3776.52002 14907.93359 -370.74753 477
3767.03516 14862.77051 -117.00245 483
3902.01416 15029.37500 -630.76550 452
3876.72705 14924.42676 -372.96100 454
3863.72168 14877.70508 -119.44936 479
4008.70435 15055.42969 -632.03424 452
3979.99194 14949.87793 -374.03351 454
3965.28833 14893.50000 -118.93845 478
4111.57959 15078.35156 -632.79437 453
4088.50732 14978.32520 -373.73648 453
4067.57617 14908.64941 -119.41258 478
4221.72168 15104.28906 -636.20685 452
4190.88770 15001.70801 -378.67749 452
4169.82031 14923.54102 -122.63433 477
4327.01514 15127.59180 -641.33673 451
4299.74316 15030.58691 -377.39456 453
4275.01221 14939.08301 -122.93268 477
4443.66943 15178.50000 -642.55713 407
4407.47314 15055.47949 -379.43988 452
4380.05664 14964.55566 -124.61246 458
4565.60547 15250.38379 -650.50012 384
4517.13867 15079.80469 -382.47192 452
4489.46826 14995.70801 -122.21468 457
4689.73584 15319.75000 -652.79352 384
4623.10400 15106.53711 -383.02975 451
4601.65771 15028.86914 -125.13457 456
4812.58154 15392.69043 -657.74371 383
4738.05029 15156.19727 -388.36661 407
4710.70459 15062.34473 -124.03191 455
4942.36377 15474.82227 -666.00146 355
4859.27588 15209.59082 -390.72198 406
4825.57227 15096.10352 -125.29501 454
4984.16162 15270.85059 -391.85144 405
4937.67969 15129.41406 -129.59152 453
5106.92676 15334.98242 -394.44431 383
5048.91064 15165.70117 -128.78795 453
5238.33252 15411.54395 -402.30930 382
5166.44385 15200.58691 -132.35620 452
5378.22070 15515.60254 -406.55939 354
5281.44824 15234.77246 -132.30803 443
5524.67090 15629.36426 -408.55151 353
5413.83984 15317.42090 -134.18961 390
5556.42969 15407.20996 -136.09734 389
5695.19482 15502.48828 -136.46680 387
5838.70752 15592.96973 -139.66403 386
25324.65820 60317.63672 -8476.88184 1000
1171.58289 1665.29626 -65.19016 454
1180.07092 1655.98242 -65.15572 483
1184.39404 1661.74939 -32.96232 483
1190.02100 1670.39246 -0.62977 404
7908.94727 10892.08496 -3475.28223 1000
14789.13965 19685.42969 -5199.50049 1000
32084.33203 42268.25781 7944.57422 1000
35360.95703 28325.64258 10636.37305 1000
2886.24414 1043.72876 -65.96910 421
2877.95239 1020.71484 -64.92450 460
2923.12500 1017.97913 -116.95896 312
2873.67065 1000.18445 -64.17235 461
2913.93555 994.97986 -116.15149 431
2870.79468 979.28259 -63.73659 469
2906.04370 972.14142 -114.86662 412
2868.19043 959.57788 -63.01896 470
2867.76733 940.40332 -62.28476 484
2868.27734 921.73138 -61.78639 484
2869.08765 902.56110 -61.61412 460
2871.02954 883.96649 -61.61500 463
2873.23877 865.97162 -60.87434 463
2876.44556 848.26300 -61.41791 462
21787.44727 6592.98145 -627.62805 1000
2878.85254 830.59192 -61.04667 462
2882.28638 812.63104 -60.64146 464
2886.36523 795.05109 -61.04873 464
2890.26929 777.87415 -60.35022 464
2893.87378 759.85419 -60.90487 464
2962.29639 778.46234 -16.21272 498
2897.61011 742.33832 -60.31281 388
2968.24634 761.18469 -16.65330 498
2902.85034 724.96533 -60.32249 388
2993.19531 748.82452 -17.04318 376
2907.86694 707.61365 -60.57084 388
2913.30005 690.86652 -60.40187 387
2919.20239 673.57849 -60.44917 386
2925.14722 657.04010 -60.44061 386
2931.12036 639.63068 -61.30120 387
3061.85815 669.51294 79.78572 345
2936.75098 622.87866 -61.08728 386
3011.85352 639.15332 -17.00754 497
3071.83008 652.30804 30.49084 497
3055.37183 648.76874 80.15842 495
2942.03125 605.53766 -61.28125 386
3063.52490 631.26410 80.01617 477
2947.95215 588.18817 -61.36533 386
2953.43896 571.02881 -61.68309 386
2958.80835 553.82861 -61.45812 461
3191.64990 598.77057 -25.07641 404
2965.66162 536.63177 -61.81834 461
3105.83374 562.56201 -21.04802 496
2970.80811 519.58057 -61.73240 461
3018.11792 528.21478 -16.17368 496
2998.98169 505.73099 -111.73906 458
2976.84619 502.14105 -61.87790 461
3024.14307 510.66888 -15.83911 495
2982.92969 484.88632 -62.52575 460
2989.74683 467.50327 -62.29607 460
2994.99219 450.20245 -62.97332 460
3174.30591 478.19257 79.38988 486
3001.27490 432.33755 -63.11154 460
3067.62549 442.63901 -17.56294 494
3095.34570 446.38089 80.19999 486
3007.51025 414.83063 -63.23802 459
3013.76196 397.65128 -63.53083 459
3019.96069 380.10947 -63.45797 459
3025.50586 362.94006 -63.67061 459
3031.98901 345.40054 -64.35362 458
3038.20581 327.58182 -64.13212 458
3044.11060 309.53281 -64.78874 458
27168.77148 2830.08423 2347.35913 1000
3050.00220 291.64838 -64.37464 457
3056.50610 273.56036 -64.90369 457
3203.38257 287.73575 -23.02976 491
3062.60913 256.22177 -65.21405 487
43318.17578 3711.04956 105.13400 1000
3068.79102 237.98854 -65.21251 487
3075.86304 220.16716 -66.40542 486
3081.98901 202.12035 -66.20487 456
3095.26709 184.53394 -67.09043 455
3109.03955 167.11494 -67.80320 426
3123.19360 148.29205 -68.97073 425
7679.30225 -144.10428 -1642.37671 1000
56271.68359 -17512.58398 3969.30176 1000
2504.35620 -817.28387 -35.81668 410
2515.23535 -820.73755 5.58023 265
2492.53833 -829.52655 -35.59954 498
2499.16626 -832.12128 5.80082 479
2507.64453 -835.22119 47.80474 404
2499.62671 -848.30383 -36.31208 308
4752.69482 -3128.84473 39.80534 258
4703.74756 -3137.14014 39.49417 448
4668.18799 -3155.12500 39.97028 341
4634.95801 -3173.38599 41.35299 341
4595.32275 -3187.11523 40.87219 307
4560.69629 -3203.60718 41.70623 307
4540.64111 -3230.79541 41.04348 421
4551.95557 -3282.12476 40.59572 393
4582.93994 -3345.69214 40.35966 362
4618.48486 -3416.19312 38.42261 348
4652.27441 -3487.03857 37.52311 358
4687.38574 -3558.66846 36.40111 358
4725.70557 -3635.17700 34.69391 334
3145.80127 -2646.31445 -0.62130 279
3117.27319 -2654.96143 -0.63509 476
3298.40723 -3784.22583 49.97598 494
3307.04712 -3795.03198 131.53522 406
36822.77344 -43403.08594 8563.95312 1000
31093.81055 -38518.22266 -678.54010 1000
3366.22046 -4062.75366 1169.37341 1000
3626.92212 -4734.17041 131.83852 333
3573.85547 -4724.14795 132.22818 469
3533.29614 -4730.47363 132.60687 453
3494.88818 -4736.48926 131.25516 456
3456.09351 -4744.55908 132.13530 457
3418.18872 -4753.91553 132.14740 429
3382.97021 -4763.95508 131.66101 432
3346.33276 -4772.92139 131.73701 434
3311.15869 -4783.88037 131.88139 435
3328.13525 -4811.47705 227.05157 291
3275.00122 -4796.09521 132.47148 437
3291.96680 -4821.65234 226.88173 497
3241.86548 -4807.35449 131.91171 439
3259.91089 -4836.50537 226.49214 497
3206.61084 -4820.44092 132.06732 439
3224.27002 -4846.65088 226.13690 497
3173.57935 -4832.29199 132.15434 441
3192.87427 -4862.18018 225.44167 498
3139.87915 -4846.67969 131.71487 442
3160.17896 -4877.14404 225.49951 499
3108.29541 -4860.60107 131.49953 474
3131.22388 -4897.37305 226.12949 498
3074.72046 -4874.20752 132.65327 474
3098.78052 -4912.10449 225.56523 498
3042.86279 -4889.47949 132.10983 472
3066.40869 -4928.30273 226.26579 498
3106.06372 -4995.39258 323.19693 498
3011.25024 -4903.19873 131.73972 497
3044.96509 -4960.80371 226.21463 287
3074.01953 -5011.13379 322.47354 498
2978.67920 -4917.72852 132.13672 497
3041.85620 -5027.80127 321.92099 488
2946.86084 -4932.14551 132.51201 497
3031.76221 -5081.01318 420.09750 315
2942.14722 -4931.69531 133.12836 499
2910.97168 -4947.30469 133.29308 499
2876.76660 -4959.64307 131.88181 499
2846.99780 -4977.53076 132.19394 499
2813.64966 -4990.27686 132.89568 499
2783.78442 -5008.31006 132.05394 499
2750.84009 -5019.74219 132.14134 497
2720.51172 -5036.31787 132.88586 473
2769.17676 -5131.83838 227.04764 475
2713.17065 -5097.63818 133.17404 499
2731.52075 -5134.59131 227.89769 483
2705.55542 -5163.18408 132.48651 433
2696.53735 -5143.08594 227.10806 496
1740.30017 -4172.22461 132.96359 447
100.72990 -28.98900 132.58557 1000
1213.52075 -3372.40088 132.63748 309
1164.96936 -3296.52026 132.76471 310
1120.07410 -3223.66577 132.96860 312
1076.80383 -3154.58496 132.55463 313
1036.43994 -3094.78125 133.38867 349
1006.00348 -3061.68945 132.79829 377
1010.55859 -3076.73267 185.40436 461
989.76337 -3076.28687 80.92964 339
978.26593 -3037.27222 133.28499 382
988.67755 -3072.40967 185.32271 459
962.23193 -3049.79126 81.17574 349
951.93097 -3015.51611 133.02200 393
970.93060 -3082.25269 185.46796 470
935.36871 -3027.96704 81.54453 355
926.99536 -2997.32471 132.63617 420
953.68469 -3091.73755 185.53976 469
910.37695 -3007.99365 81.76858 361
903.26569 -2982.41309 132.99196 427
936.07318 -3102.30908 185.51837 469
885.71387 -2991.82373 82.84476 375
880.27264 -2969.09521 133.30141 419
918.15387 -3112.48267 185.79482 468
862.48016 -2977.66138 82.46383 384
856.88928 -2956.01343 133.41373 425
900.38446 -3123.42773 186.08488 468
839.36786 -2963.03613 83.50396 386
834.88470 -2944.15991 132.81009 417
882.57495 -3133.17139 186.35161 468
819.05652 -2959.00708 82.97437 291
813.01263 -2933.23242 132.92015 411
865.00928 -3144.03906 186.44077 467
804.61908 -2978.84253 83.06791 291
791.47247 -2923.37256 132.73532 401
846.56934 -3154.07251 186.55724 467
770.19891 -2915.14478 132.89714 418
828.96234 -3164.74829 186.82010 467
763.13538 -2964.00659 132.96190 305
813.53528 -3187.03076 186.71603 367
766.69519 -3067.75415 133.39371 287
-6570.88770 -39984.14062 -6537.03271 1000
-1084.64355 -2661.97803 181.44968 492
-1084.13049 -2659.42090 228.44785 492
-1082.79150 -2656.91138 276.14050 492
-1081.97119 -2654.89404 323.89743 499
-1080.20898 -2652.82544 371.79208 499
-847.63666 -1994.16541 133.29581 498
-847.47382 -1992.47156 169.25290 498
-846.20068 -1991.02966 204.99368 498
-845.99835 -1989.37671 241.20445 498
-844.92706 -1987.95007 277.31067 498
-844.25934 -1986.46228 313.65717 479
-592.75830 -1325.87793 83.81533 359
-592.60699 -1325.50781 108.33056 360
-592.73187 -1325.93018 132.50862 285
-599.72394 -1319.71680 83.81695 427
-599.10272 -1318.57544 108.41041 473
-598.52087 -1317.45361 132.71202 473
-597.88702 -1316.31189 157.19728 473
-596.98920 -1314.88501 181.19791 473
-596.49713 -1313.53699 205.82893 473
-595.68506 -1312.70923 230.22034 497
-595.21661 -1311.29822 254.32635 497
-594.66205 -1310.37073 278.59534 497
-593.90918 -1309.36646 303.05692 496
-19975.35352 -31645.79102 -4780.97168 1000
-14486.67578 -17291.42578 -4356.26172 1000
-26766.54102 -26136.84570 1990.44299 1000
-12134.58008 -9271.40625 -3707.33936 1000
90.14550 -2.96369 128.00896 352
90.14388 -2.96320 128.24463 352
89.76576 -3.09901 128.38666 306
90.25744 -2.85026 128.03218 353
90.25742 -2.85096 128.26675 354
89.79429 -3.01380 128.38570 306
88.74887 -3.38694 128.38539 302
90.36705 -2.74233 128.05605 355
90.36749 -2.74217 128.28941 355
89.82442 -2.92973 128.38600 306
88.77558 -3.29536 128.38754 302
-44059.37891 -15351.94824 5519.90332 1000
90.47497 -2.63220 128.07733 356
90.47340 -2.63422 128.30923 357
89.85307 -2.84480 128.38777 306
88.80045 -3.20394 128.38527 302
90.58044 -2.52818 128.10001 357
90.58060 -2.52694 128.33035 358
89.88166 -2.76207 128.38727 306
88.82850 -3.11147 128.38614 302
90.68612 -2.42338 128.12001 359
90.68440 -2.42331 128.34978 359
89.91181 -2.67617 128.38690 306
88.85904 -3.02091 128.38513 302
90.78721 -2.31988 128.13940 360
90.78802 -2.31859 128.36797 361
89.94376 -2.59032 128.38596 306
88.88624 -2.93028 128.38647 302
87.65771 -3.32392 128.38571 298
90.89008 -2.21815 128.15855 361
90.89046 -2.21821 128.38498 362
89.97417 -2.50431 128.38713 306
88.91761 -2.83645 128.38695 302
87.68454 -3.22200 128.38754 298
90.98929 -2.11911 128.17746 363
90.92488 -2.13762 128.38693 310
90.00617 -2.41887 128.38596 306
88.94567 -2.74609 128.38678 302
87.71429 -3.12302 128.38687 298
91.08804 -2.02049 128.19629 364
90.95895 -2.05838 128.38600 310
90.03775 -2.33342 128.38681 306
88.97632 -2.65439 128.38568 302
87.74161 -3.02308 128.38609 298
91.18508 -1.92155 128.21519 365
90.99353 -1.97751 128.38643 310
90.07101 -2.25057 128.38553 306
89.00911 -2.56114 128.38538 302
87.77220 -2.92338 128.38667 298
91.28139 -1.82610 128.23256 367
91.02694 -1.89844 128.38716 310
90.10292 -2.16495 128.38699 306
89.04038 -2.47024 128.38713 302
87.80179 -2.82499 128.38576 298
91.35483 -1.73783 128.24281 457
91.06161 -1.82039 128.38603 310
90.13708 -2.07832 128.38588 306
89.07423 -2.37713 128.38710 302
87.83430 -2.72230 128.38623 298
91.37442 -1.66529 128.23718 458
91.09866 -1.73995 128.38554 310
90.17327 -1.99389 128.38785 306
89.10480 -2.28537 128.38667 302
87.86646 -2.62499 128.38527 298
91.39439 -1.59004 128.23309 459
91.13344 -1.66099 128.38681 310
90.20571 -1.90755 128.38640 306
89.13846 -2.19178 128.38728 302
87.89909 -2.52370 128.38666 298
86.43190 -2.91647 128.38654 294
91.41402 -1.51649 128.22957 460
91.16976 -1.58056 128.38690 310
90.24050 -1.82175 128.38544 306
89.17404 -2.09883 128.38509 302
87.93025 -2.42540 128.38788 298
86.46324 -2.80400 128.38490 294
91.43416 -1.44231 128.22510 460
91.20631 -1.50060 128.38686 310
90.27811 -1.73702 128.38602 306
88.16687 -2.27305 128.15486 369
87.96304 -2.32484 128.38765 298
86.49508 -2.69628 128.38802 294
91.45509 -1.36974 128.21823 461
91.24327 -1.42050 128.38666 310
90.31424 -1.65115 128.38637 306
87.99087 -2.22446 128.10698 368
87.98856 -2.22548 128.38548 368
86.52691 -2.58772 128.38704 294
91.47496 -1.29438 128.21436 462
91.28138 -1.34131 128.38647 310
90.35052 -1.56508 128.38658 306
87.80932 -2.17657 128.05849 366
87.81121 -2.17692 128.34109 367
86.56120 -2.47872 128.38528 294
91.49403 -1.21987 128.21010 462
91.32148 -1.26146 128.38713 310
90.38744 -1.47874 128.38702 306
87.62440 -2.12756 128.01047 365
87.62444 -2.12706 128.29674 365
86.59355 -2.36642 128.38573 294
91.51308 -1.14602 128.20370 463
91.35965 -1.18079 128.38588 310
90.42789 -1.39344 128.38647 306
87.42955 -2.07472 127.96024 364
87.43159 -2.07597 128.24934 364
86.62939 -2.25609 128.38651 294
91.53392 -1.07196 128.19861 464
91.39899 -1.10028 128.38562 310
90.46635 -1.30690 128.38724 306
87.23340 -2.02269 127.91126 362
87.23462 -2.02140 128.20181 363
86.66356 -2.14788 128.38579 294
91.55373 -0.99630 128.19441 464
91.43871 -1.02115 128.38651 310
90.50554 -1.22241 128.38600 306
87.10297 -1.95016 127.87214 455
87.10315 -1.95114 128.16788 455
86.70052 -2.03812 128.38683 294
91.57343 -0.92239 128.18918 465
91.47824 -0.94140 128.38618 310
90.54368 -1.13657 128.38762 306
87.02077 -1.87119 127.84824 454
87.02050 -1.86775 128.14201 455
86.73790 -1.92736 128.38759 294
91.59407 -0.84559 128.18221 466
91.51985 -0.86114 128.38689 310
90.58548 -1.05000 128.38560 306
86.93736 -1.78655 127.82111 453
86.93865 -1.78625 128.11873 454
86.77451 -1.81926 128.38565 294
91.61359 -0.77013 128.17636 466
91.56209 -0.78158 128.38651 310
90.62581 -0.96482 128.38564 306
86.85194 -1.70038 127.79268 452
86.85061 -1.70140 128.09407 453
86.81313 -1.70720 128.38496 294
91.63393 -0.69409 128.17024 467
91.60283 -0.70061 128.38692 310
90.66613 -0.87783 128.38617 306
86.86153 -1.59779 127.78864 302
86.76519 -1.61681 128.07042 452
86.76438 -1.61426 128.37074 453
91.65466 -0.61869 128.16489 468
91.64510 -0.62065 128.38631 310
90.70786 -0.79080 128.38557 306
86.89976 -1.48804 127.78868 302
86.67904 -1.52642 128.04242 451
86.67876 -1.52670 128.34663 452
91.67670 -0.54353 128.16034 468
91.67628 -0.54288 128.38350 469
90.74928 -0.70619 128.38742 306
86.93958 -1.37817 127.78711 302
86.58923 -1.44183 128.01709 450
86.58938 -1.44188 128.32387 451
91.69569 -0.46684 128.15448 469
91.69514 -0.46736 128.37727 470
90.79247 -0.62091 128.38557 306
86.97764 -1.26918 127.78776 302
86.49857 -1.35010 127.99227 449
86.50129 -1.34910 128.29903 450
91.71690 -0.39062 128.14830 470
91.71545 -0.39045 128.37245 471
90.83598 -0.53288 128.38631 306
87.01716 -1.15879 127.78631 302
86.40841 -1.26079 127.96581 449
86.40870 -1.25760 128.27594 449
85.23699 -1.45166 128.38794 290
91.73654 -0.31354 128.14116 470
91.73765 -0.31219 128.36658 471
90.87900 -0.44934 128.38657 306
87.05669 -1.05160 127.78604 302
86.31815 -1.16656 127.93936 448
86.31924 -1.16691 128.25117 448
85.27744 -1.32933 128.38829 290
91.75764 -0.23691 128.13470 471
91.75822 -0.23538 128.35849 472
90.92326 -0.36252 128.38759 306
87.09917 -0.93978 127.78584 302
86.27968 -1.06420 127.92473 493
86.28179 -1.06424 128.23709 494
85.31989 -1.20819 128.38756 290
91.77847 -0.15984 128.12744 471
91.77872 -0.15796 128.35268 472
90.96950 -0.27767 128.38594 306
87.14062 -0.83261 127.78667 302
86.25276 -0.96125 127.91073 493
86.25453 -0.96003 128.22125 494
85.36240 -1.08759 128.38629 290
91.79822 -0.08301 128.12216 472
91.79972 -0.08254 128.34727 473
91.01429 -0.19123 128.38573 306
87.18569 -0.72149 127.78667 302
86.22300 -0.85277 127.89556 493
86.22495 -0.85216 128.20985 494
85.40512 -0.96678 128.38499 290
91.81986 -0.00384 128.11501 473
91.81961 -0.00416 128.34048 474
91.06065 -0.10492 128.38704 306
87.22617 -0.61314 127.78898 302
86.19586 -0.74762 127.88026 493
86.19579 -0.74887 128.19545 493
85.45317 -0.84566 128.38832 290
91.80296 0.06863 128.09853 489
91.80225 0.06965 128.32460 490
91.10638 -0.01906 128.38712 306
87.27220 -0.50329 127.78707 302
86.16841 -0.64241 127.86462 492
86.16628 -0.63938 128.18221 493
85.49781 -0.72588 128.38693 290
91.78271 0.14324 128.08086 489
91.78391 0.14220 128.30872 490
91.15352 0.06812 128.38708 306
87.31495 -0.39405 127.78792 302
86.14016 -0.53385 127.85257 492
86.13873 -0.53195 128.16937 493
85.54160 -0.60332 128.38820 290
91.76228 0.21697 128.06241 488
91.76213 0.21712 128.29047 489
91.20138 0.15319 128.38725 306
87.35972 -0.28164 127.78657 302
86.11047 -0.42384 127.83717 492
86.10925 -0.42580 128.15559 493
85.58752 -0.48570 128.38605 290
91.74200 0.29149 128.04369 488
91.74203 0.29218 128.27466 489
91.24969 0.23988 128.38585 306
87.40729 -0.17334 127.78937 302
86.08098 -0.31706 127.82259 492
86.08186 -0.31621 128.14220 493
85.63597 -0.36348 128.38794 290
91.72384 0.36690 128.02505 488
91.72282 0.36843 128.25717 489
91.29922 0.32399 128.38655 306
87.45506 -0.06528 127.78685 302
86.05068 -0.20549 127.80789 492
86.04987 -0.20447 128.12918 492
85.68409 -0.24463 128.38577 290
91.70277 0.44291 128.00613 488
91.70128 0.44457 128.23820 489
91.34730 0.41048 128.38640 306
87.50256 0.04626 127.78831 302
86.01983 -0.09423 127.79056 491
86.02344 -0.09507 128.11453 492
85.73336 -0.12286 128.38528 290
91.68108 0.52092 127.98837 487
91.68215 0.52087 128.22139 488
91.39700 0.49661 128.38570 306
87.55081 0.15459 127.78782 302
86.05096 0.02434 127.78661 298
86.00001 0.01703 128.10294 481
85.78455 -0.00258 128.38712 290
91.66081 0.59816 127.96781 487
91.65969 0.59808 128.20389 488
91.44710 0.58059 128.38646 306
87.59925 0.26467 127.78573 302
86.10011 0.14343 127.78794 298
86.03082 0.13384 128.09953 481
85.83209 0.12046 128.38841 290
91.63909 0.67733 127.94939 487
91.63897 0.67729 128.18657 488
91.49707 0.66649 128.38544 306
87.64733 0.37285 127.78872 302
86.15037 0.26062 127.78782 298
86.06321 0.25456 128.09319 482
85.88206 0.23813 128.38550 290
91.61893 0.75748 127.92960 487
91.61780 0.75672 128.16888 488
91.54849 0.75384 128.38757 306
90.46472 0.67583 128.38580 302
86.20103 0.37704 127.78780 298
86.09740 0.37031 128.09026 482
85.93526 0.35828 128.38618 290
91.59710 0.83801 127.91129 486
91.59599 0.83682 128.14915 487
91.59724 0.83903 128.38599 488
90.51598 0.76813 128.38742 302
86.24956 0.49839 127.78950 298
86.12524 0.48954 128.08728 483
85.98648 0.48175 128.38837 290
91.57627 0.91863 127.89232 486
91.57455 0.91847 128.13068 487
91.57624 0.91863 128.36888 488
90.57005 0.86013 128.38795 302
86.30284 0.61565 127.78703 298
86.15685 0.60673 128.08444 483
86.04058 0.59963 128.38472 290
91.55141 1.00072 127.87108 486
91.55317 1.00257 128.11336 487
91.55264 1.00135 128.35146 488
90.62290 0.95495 128.38618 302
86.35223 0.73479 127.78606 298
86.19192 0.72604 128.07869 483
86.09435 0.71870 128.38567 290
91.52950 1.08316 127.85197 485
91.53025 1.08452 128.09300 486
91.52950 1.08318 128.33351 487
90.67487 1.04570 128.38675 302
86.40917 0.85107 127.78654 298
86.22051 0.84494 128.07356 484
86.14754 0.84061 128.38808 290
91.50857 1.16783 127.83295 485
91.50702 1.16820 128.07494 486
91.50715 1.16683 128.31555 487
90.73052 1.13835 128.38629 302
86.46053 0.97155 127.78656 298
86.25230 0.96059 128.07303 484
86.20334 0.96055 128.38770 290
91.48578 1.25175 127.81181 485
91.48483 1.25275 128.05547 486
91.48538 1.25247 128.29726 487
90.78399 1.22847 128.38666 302
86.51388 1.08944 127.78805 298
86.28563 1.07943 128.06564 485
86.26015 1.08178 128.38606 290
91.46325 1.33707 127.79015 484
91.46317 1.33802 128.03624 485
91.46329 1.33713 128.28044 486
90.83993 1.32186 128.38580 302
86.56982 1.20745 127.78878 298
86.35143 1.20238 128.07101 419
86.31628 1.19852 128.38530 290
91.43894 1.42291 127.76888 484
91.43904 1.42302 128.01648 485
91.43980 1.42263 128.26035 486
90.89535 1.41171 128.38602 302
86.62556 1.32407 127.78758 298
86.47122 1.32116 128.08223 420
86.37614 1.31776 128.38855 290
91.41663 1.51177 127.74768 484
91.41670 1.51090 127.99743 485
91.41528 1.50959 128.24316 486
90.95275 1.50436 128.38699 302
86.68239 1.44134 127.78736 298
86.59157 1.43907 128.09073 421
86.43342 1.44115 128.38602 290
91.39143 1.59953 127.72923 483
91.39194 1.59801 127.97774 484
91.39141 1.59949 128.22464 485
91.00726 1.59539 128.38721 302
86.73767 1.56055 127.78695 298
86.71014 1.55971 128.10400 422
86.49265 1.55746 128.38542 290
91.36874 1.68736 127.70687 483
91.36855 1.68775 127.95673 484
91.37025 1.68768 128.20639 485
91.06528 1.68864 128.38683 302
89.80815 1.68460 128.38684 298
86.82935 1.68042 128.11504 423
86.55124 1.67919 128.38783 290
