# .PCD v.7 - Point Cloud Data file format
VERSION .7
FIELDS x y z rgb
SIZE 4 4 4 4
TYPE F F F U
COUNT 1 1 1 1
WIDTH 1076
HEIGHT 1
VIEWPOINT 6657.394043 -3345.135010 133.352509 -0.514580 -0.135694 -0.058102 0.844641
POINTS 1076
DATA ascii
-196.33665 1.42784 53.34125 324
-196.34724 3.21722 53.28813 324
-196.29303 5.04574 53.35884 324
-196.30486 6.88575 53.34150 324
-196.31531 8.61679 53.31690 324
-196.31197 10.46860 53.35624 324
-196.27852 12.29124 53.30167 324
-14921.23730 540.78827 1119.71802 1000
-293.45749 64.12363 39.81892 312
-290.01443 66.02135 40.64109 341
-288.13953 68.11941 40.97376 341
-270.06506 67.33695 38.72422 345
-289.52637 70.78011 40.52303 319
-269.90671 69.57088 38.64243 322
-14776.53516 6482.03076 398.49158 454
-14681.35059 6443.21094 660.12018 473
-14682.52051 6551.64893 396.78656 459
-14599.91504 6513.24805 658.83545 473
-14599.84082 6623.28418 394.94073 464
-14514.60254 6582.46289 654.31268 474
-14520.64941 6693.81836 393.85516 465
-14434.70801 6656.54980 654.65662 476
-14438.13086 6765.30322 392.54483 465
-14354.64746 6727.81543 653.06775 477
-14356.09277 6835.47168 394.22031 466
-14276.24219 6800.09375 649.40283 478
-14278.83105 6908.85156 392.99911 466
-14198.24902 6870.48877 649.59448 479
-14197.34180 6980.10547 390.19159 467
-14121.38281 6942.60400 646.40973 479
-14119.29785 7047.35107 388.12753 468
-14044.92969 7013.48486 647.41217 480
-14041.52539 7118.11572 388.50058 468
-13967.84277 7081.84912 646.15002 480
-13963.44629 7186.52051 386.61115 469
-13889.56348 7151.58740 646.24628 481
-13882.47656 7254.82715 390.01672 469
-13813.05762 7218.65186 641.82666 481
-13804.80469 7323.99414 386.20868 470
-13738.45410 7289.50049 639.81329 482
-13728.81543 7390.61035 385.07031 470
-13662.60254 7355.81396 639.09149 485
-13652.50879 7458.58057 387.21439 471
-13588.30371 7428.78662 639.28571 415
-13577.93555 7528.81982 383.73038 471
-13515.58984 7497.82715 640.70850 415
-13597.11816 7649.08936 130.85326 451
-13499.86133 7594.17627 385.51077 472
-13446.94434 7567.04883 638.47009 415
-13518.43848 7716.30664 128.29448 451
-13421.80273 7664.22461 384.00784 472
-13375.84668 7633.95947 638.98993 416
-13442.37402 7786.12305 128.94411 451
-13348.55176 7727.36816 381.59662 473
-13302.85059 7705.87451 635.45422 416
-13363.28809 7849.93750 129.94748 452
-13272.55664 7796.84473 381.83441 473
-13239.42285 7777.02100 634.33881 299
-13287.78809 7915.70996 127.84804 452
-13199.16895 7863.44727 382.52109 474
-13182.39160 7853.92334 634.67401 299
-13211.77246 7981.99658 128.71426 453
-13124.14062 7927.80322 381.41995 474
-14675.88477 8861.79785 691.48041 438
-13135.80566 8045.19482 129.06030 472
-13050.90137 7993.43994 381.15915 474
-14598.10938 8933.60840 690.27423 408
-13061.46191 8110.47412 127.79234 472
-12977.08105 8062.38135 379.32648 475
-14518.78516 9014.02051 689.43042 408
-12985.62891 8179.51416 129.84158 472
-12901.10156 8123.40576 379.68796 475
-12914.56055 8242.56738 130.26387 473
-12829.20312 8188.89551 381.40866 476
-12839.56738 8306.71875 127.54512 473
-12756.54785 8256.44629 381.15268 476
-12765.99805 8374.55273 129.66141 474
-12683.27246 8322.67480 380.54062 476
-12690.76270 8436.69238 128.34717 474
-12610.53125 8384.44824 379.37823 477
-12620.43066 8501.91504 129.98187 474
-12538.98535 8448.81348 379.45929 477
-12546.15234 8567.75781 127.36201 475
-12464.23340 8510.77930 376.07379 485
-12473.52930 8631.60742 130.38274 475
-12393.16309 8576.31738 378.36563 486
-12399.35156 8693.19238 129.74983 475
-12323.87402 8638.84766 377.02493 486
-12326.31152 8757.79297 130.38379 477
-12251.23730 8703.00684 375.38898 486
-12267.91797 8717.44629 624.15881 427
-12255.95410 8819.38281 127.95132 477
-12180.49023 8768.08984 374.66190 487
-12193.67480 8778.35742 623.09534 427
-12183.22168 8882.10547 127.41067 478
-12111.61523 8831.48730 374.07764 487
-12124.04297 8839.10059 623.52740 427
-12701.41602 9259.19336 906.22211 482
-12110.42383 8948.22363 128.73369 478
-12039.61523 8892.80957 377.29593 487
-12053.53125 8907.77051 623.73987 384
-12615.52637 9317.15234 905.18677 482
-12040.89062 9009.65430 127.26595 478
-11971.22656 8958.76855 375.45502 488
-11989.87500 8972.12109 624.05438 384
-12528.00977 9370.67578 903.14130 483
-11969.22754 9074.57129 128.28172 479
-11900.28906 9022.56543 373.76431 488
-12437.73730 9427.66406 640.44177 483
-12442.15332 9427.39160 899.81158 483
-11899.23535 9138.00488 130.39030 479
-11829.87988 9082.22461 373.81586 488
-12351.27734 9480.36816 640.56891 484
-12353.63574 9485.23340 898.54517 484
-11828.04688 9197.31836 129.26878 479
-11757.97559 9146.97754 374.05258 488
-12264.85352 9534.36523 640.47858 485
-12268.17090 9537.17969 896.04358 484
-11755.24414 9261.83008 130.12555 480
-11691.48438 9207.26172 371.82327 489
-12180.06934 9589.04688 636.78107 485
-12183.40332 9592.79199 894.68304 485
-11687.79590 9324.21484 128.93648 480
-11619.07617 9271.94629 372.38513 489
-12094.37012 9647.03125 637.20068 486
-12097.41309 9646.77930 895.05237 408
-11619.29785 9384.26367 130.59474 480
-11553.41699 9335.74902 374.38940 489
-12010.00977 9698.01660 638.50555 486
-12015.02539 9705.29004 891.06311 408
-11547.50488 9446.66797 131.02013 480
-11481.87305 9396.32910 372.32263 493
-11936.02344 9761.16406 638.03485 496
-11942.00684 9770.29688 890.93744 415
-11477.43066 9508.54492 127.94431 481
-11415.08887 9457.55762 373.87381 493
-11861.77441 9827.84766 636.90308 496
-11872.83594 9836.44727 889.91364 415
-11405.88086 9569.14453 127.86752 481
-11347.15234 9521.68555 371.21548 493
-11792.03125 9891.87305 636.16705 497
-11805.30371 9900.11621 890.16956 415
-11339.21582 9631.46387 130.25656 481
-11279.26172 9581.18066 371.51031 493
-11720.70410 9956.76367 635.76587 497
-11737.84473 9971.14844 889.22577 415
-11266.64355 9694.79297 130.13275 481
-11206.72070 9644.77734 372.23795 493
-11650.27832 10019.79102 634.79956 497
-11666.98730 10035.05957 887.01184 415
-11195.07812 9755.38574 126.74894 481
-11139.58008 9707.05078 369.66080 494
-11577.35840 10081.77539 635.04840 497
-11600.31738 10100.78809 888.57898 416
-11127.24902 9816.10352 129.45236 482
-11071.46973 9766.11523 371.56107 494
-11506.08496 10146.39160 631.82202 497
-11532.60742 10169.99609 889.06787 416
-11058.25879 9874.99023 128.12872 482
-11003.24121 9829.22949 371.72778 494
-11436.88281 10209.25293 631.43317 498
-11462.36426 10233.68848 886.88788 416
-10989.71777 9939.04590 129.01889 482
-10936.17090 9888.63379 371.78763 494
-11294.79590 10211.49219 628.62402 394
-11394.60352 10303.17773 888.05872 416
-10920.56836 9997.34863 127.02108 482
-10868.53320 9953.12012 370.31058 494
-11223.13770 10271.26172 630.79059 394
-11324.75879 10369.28027 887.51642 498
-10852.33984 10062.20996 130.57753 482
-10800.45508 10010.93945 372.30884 494
-11145.95996 10328.68555 628.59851 395
-11257.13281 10430.49512 886.69800 498
-10781.22852 10121.59863 128.49046 482
-10733.00098 10075.30859 372.07446 495
-11071.62012 10391.70996 625.80811 395
-11185.21094 10496.41016 884.14423 498
-11299.93945 10604.67676 1148.33130 417
-11352.01270 10650.91797 1410.92908 368
-10714.32324 10179.63184 127.03659 483
-10665.40137 10137.23438 369.95831 495
-11003.05078 10454.19531 627.79645 487
-11115.23242 10560.68750 885.45728 498
-11233.23242 10667.75586 1150.60510 353
-11237.24023 10676.33887 1404.71362 369
-10643.88574 10242.86523 130.56044 483
-10598.23438 10194.21387 369.52982 495
-11009.97168 10592.43945 631.39655 499
-11033.09961 10611.38965 883.64111 446
-11039.41309 10620.24609 1137.19519 446
-10576.79980 10302.17188 126.84945 483
-10529.78809 10254.90625 369.34998 495
-10906.06445 10618.96191 627.29932 447
-10912.73828 10629.65137 880.22382 447
-10919.17969 10634.79590 1133.87561 447
-10507.58887 10362.22070 126.91093 483
-10461.01367 10319.01953 370.62018 495
-10787.13086 10638.98145 625.99139 448
-10797.58594 10646.96875 875.48590 448
-10805.80078 10652.73145 1126.40100 448
-10440.59180 10423.01758 127.67029 483
-10394.40820 10378.11719 368.45691 495
-10673.60547 10653.09766 624.31323 449
-10683.32324 10661.53613 873.61108 449
-10687.66211 10670.30371 1122.32776 448
-10372.96875 10484.11621 127.91364 483
-10327.32324 10439.43359 370.00003 498
-10580.44434 10691.30566 622.60034 499
-10579.96094 10690.71582 870.31146 499
-10581.43652 10695.28711 1118.21875 498
-10302.89160 10541.81250 128.64061 483
-10257.92090 10502.14355 368.06851 498
-10510.64355 10753.00879 623.21265 499
-10509.28320 10754.18457 871.43097 499
-10514.11035 10757.12598 1117.90234 499
-10720.65625 10969.99902 1390.47571 470
-10656.40820 10904.28223 1638.06213 436
-10653.37793 10900.50000 1888.76282 472
-10661.51367 10908.08691 2143.33911 441
-10233.47949 10602.68848 129.65651 483
-10191.87500 10562.22949 368.43896 498
-10439.35156 10814.39160 622.48279 499
-10421.13281 10796.11133 869.84369 499
-10441.35156 10819.20508 1119.47571 499
-10648.76855 11033.38672 1392.78650 470
-10164.34277 10663.69434 127.60058 483
-10126.22266 10623.60938 369.18201 498
-10372.60742 10877.78906 624.39764 499
-10351.64453 10856.82129 869.35114 499
-10373.22363 10882.59570 1118.41992 499
-10581.72168 11095.92969 1390.54834 470
-10949.45410 11481.42676 2227.57007 321
-10095.71875 10725.53027 128.61488 483
-10058.08887 10685.72070 368.40439 498
-10300.40332 10939.49609 621.08502 499
-10280.33203 10919.31055 866.28497 499
-10303.36621 10941.72754 1116.06982 499
-10512.43164 11159.42676 1389.45825 470
-10028.82129 10785.93750 128.23358 483
-9991.93555 10743.18262 370.69186 498
-10229.55469 10995.41016 623.72211 275
-10213.94043 10981.17773 869.31146 499
-10236.28223 11007.44043 1117.74805 499
-10441.80859 11225.91406 1388.33691 470
-10026.08594 10914.80957 -113.28942 481
-9963.26074 10845.69727 127.81607 491
-9926.98047 10808.10449 368.62958 498
-10144.24707 11043.49121 623.39038 499
-10142.51270 11044.47461 869.32965 499
-10167.88281 11065.83008 1115.49072 499
-10371.77930 11286.85352 1391.92773 470
-9955.06934 10973.62207 -113.64536 481
-9894.49023 10907.31055 127.87619 491
-9857.79883 10866.32227 370.73016 498
-10073.18066 11104.79883 619.09387 499
-10077.03418 11104.04980 869.13885 499
-10095.73535 11127.22656 1119.48328 499
-10300.33594 11349.58203 1388.23645 470
-9887.21680 11033.26758 -116.36404 481
-9825.27441 10966.20215 129.89998 491
-9793.84180 10928.66992 369.91150 498
-10005.43066 11164.53223 621.89258 499
-10006.80371 11168.38574 866.25500 499
-10026.26562 11191.36914 1116.04712 499
-10231.07422 11413.41309 1389.63159 470
-9818.69727 11096.94043 -113.69850 481
-9757.17773 11028.60840 126.70713 491
-9724.28027 10988.39551 367.73962 498
-9939.48242 11227.41992 620.19830 499
-9937.56250 11230.54980 867.76251 499
-9870.58008 11155.06738 1110.19629 353
-10161.63086 11477.39258 1390.16504 470
-9751.37891 11154.00293 -116.05544 481
-9689.04004 11090.00488 130.23524 491
-9657.03613 11052.90332 368.87766 498
-9888.45215 11309.89258 623.56281 499
-9887.20801 11311.80078 869.68396 499
-9672.72168 11066.86035 1095.43323 354
-10091.53711 11541.14160 1391.34436 471
-9679.65137 11215.05371 -116.63594 481
-9623.33984 11150.45410 129.44044 491
-9590.60059 11113.83691 371.64380 498
-9818.00098 11373.19629 622.07513 499
-9818.01758 11376.49609 868.48346 499
-9599.78223 11123.47949 1096.58325 499
-10023.08301 11607.11816 1392.57654 475
-9614.83887 11276.56836 -112.98901 481
-9554.83984 11210.59375 129.40707 491
-9522.51758 11174.29980 370.07816 498
-9661.89941 11331.49219 617.55127 427
-9598.51172 11263.04883 860.34430 491
-9532.45508 11186.05762 1096.36755 499
-9952.98047 11671.40039 1388.86890 475
-9544.98438 11339.18066 -113.85706 481
-9488.54688 11273.41797 127.98842 491
-9455.79004 11234.67285 369.91861 498
-9680.00195 11499.65332 624.30365 499
-9680.56055 11497.54297 871.68713 499
-9464.64453 11243.20020 1096.10803 499
-9882.59277 11736.48535 1391.24219 474
-9477.12012 11397.45801 -113.09190 481
-9420.99902 11333.42285 129.79124 491
-9389.70605 11293.87305 370.74405 376
-9611.92969 11561.11523 623.80627 499
-9612.83203 11561.72363 870.73981 499
-9398.05762 11306.31250 1094.40039 499
-9814.19727 11800.13867 1389.93176 474
-9406.83691 11457.63184 -115.56174 480
-9351.80176 11393.34961 129.56406 491
-9328.02148 11364.35449 370.86389 376
-9541.57129 11623.40527 621.65240 499
-9540.83301 11623.57422 871.82501 499
-9368.28027 11411.14355 1099.60815 336
-9747.53027 11866.21484 1394.22351 474
-36698.93750 44922.15234 -13422.18848 1000
-9340.06543 11517.80078 -116.15511 480
-9285.13477 11451.32227 129.20583 491
-9258.67676 11421.81055 370.53000 447
-9490.39648 11702.95117 621.86700 455
-9486.46680 11703.09570 871.71344 455
-9511.13574 11727.35645 1120.77539 451
-9680.25000 11934.22168 1391.27466 455
-9267.54688 11578.63281 -113.61122 480
-9218.55859 11514.85449 128.49719 491
-9191.00977 11481.54199 370.89374 447
-9458.57617 11813.12793 624.38025 475
-9458.17285 11809.98828 872.54846 454
-9475.87500 11835.11523 1125.81592 356
-9633.73633 12030.74609 1396.77222 459
-9201.12207 11637.90918 -114.92915 480
-9149.43652 11577.79590 130.03490 491
-9122.33301 11542.01758 368.66809 464
-9410.45898 11905.01074 628.54779 474
-9424.57617 11922.69629 879.09412 453
-9431.43262 11928.47754 1127.34668 363
-9130.87109 11700.66992 -114.08030 480
-9082.25293 11637.18652 130.07202 491
-9057.26855 11607.59863 371.60129 424
-9361.59473 11990.68164 628.83087 474
-9392.66992 12030.12988 878.78442 452
-9396.79883 12036.17871 1131.05469 359
-9061.95898 11760.62598 -117.51258 480
-9013.55957 11698.64355 127.29610 491
-8995.99414 11673.28711 372.10397 301
-9311.53906 12080.96777 631.31720 473
-9344.19727 12122.65625 881.89081 472
-8995.15430 11821.89941 -116.08409 480
-8945.78223 11759.36035 126.27778 491
-8942.14258 11754.82617 370.04266 295
-9262.83496 12174.28027 631.89459 472
-8925.90820 11883.48438 -114.67265 480
-8877.04688 11819.41406 127.67248 491
-9095.54004 12105.21973 375.53210 415
-9214.59863 12264.41504 631.49097 472
-8855.99023 11945.58691 -116.78638 480
-8807.74609 11878.22168 129.69017 490
-9060.54395 12218.65137 376.24820 415
-8787.94238 12003.53516 -115.87970 480
-8743.00586 11940.67773 128.65097 490
-9009.44531 12309.37207 378.19617 401
-8720.18359 12064.79492 -114.90608 480
-8672.63574 12002.70020 127.62399 490
-8961.77051 12397.07324 380.59509 400
-8648.78418 12127.03906 -116.91696 479
-8602.64453 12064.97461 127.10858 490
-8911.90137 12488.05078 379.00558 400
-29062.32422 40967.57422 -4003.95142 1000
-8577.50195 12186.61621 -117.57215 479
-8535.27441 12124.06152 127.25699 490
-8509.75586 12250.89355 -116.35024 479
-8467.57129 12188.84277 126.97019 490
-8441.80371 12308.47168 -116.71326 479
-8396.04102 12249.46777 127.82387 490
-8371.33691 12373.68848 -117.15197 479
-8329.46777 12312.39062 127.37858 489
-8303.18066 12433.01758 -117.27470 479
-8260.82031 12370.66113 129.48683 489
-8229.86133 12492.21484 -118.02898 478
-8189.31641 12435.47559 126.34159 489
-8203.82910 12455.06348 373.51605 429
-8162.59180 12557.21582 -115.84676 480
-8119.43164 12496.69531 128.06371 489
-8134.70068 12515.01465 374.91144 429
-8091.21338 12618.39746 -119.43621 480
-8053.85645 12560.30078 127.22260 489
-8065.35791 12576.95996 375.30045 435
-8021.83643 12679.79785 -117.36187 479
-7984.54834 12619.95605 126.35938 491
-7998.23926 12646.00781 374.80048 435
-7952.03369 12740.09961 -118.68152 479
-7915.54346 12683.79004 127.02866 491
-7879.15674 12804.35156 -120.84238 479
-7844.87695 12747.13965 128.49535 491
-29251.08008 47765.46484 -11033.96777 1000
-7809.95361 12868.77637 -120.24543 479
-7775.94287 12808.12500 127.81180 491
-7738.86719 12926.87988 -117.96626 478
-7705.77246 12874.09570 128.05965 490
-7668.16162 12993.09375 -117.52215 478
-7633.90430 12935.08691 129.16362 493
-7598.12207 13055.51367 -121.27283 478
-7566.78516 12999.62891 127.19049 492
-7527.28174 13119.02832 -122.14310 485
-7492.78418 13063.72461 129.28909 492
-7456.89062 13181.46582 -120.31569 485
-7424.24854 13129.76660 129.79327 492
-7386.79346 13244.28418 -121.16543 485
-7354.63916 13191.36719 127.26304 491
-7313.10840 13307.03613 -121.44965 484
-7284.26172 13255.89258 130.12383 491
-7240.69238 13371.76465 -122.99409 484
-7212.16699 13321.12793 127.81343 491
-7169.28369 13439.97461 -123.65813 484
-7143.13184 13384.60645 129.03891 490
-7097.26807 13501.38965 -120.86993 483
-7070.80273 13448.75195 126.74237 490
-812.43213 1726.67126 -28.01347 472
-816.37738 1734.06714 3.44267 410
-7023.45312 13569.08398 -121.74057 483
-6997.50244 13516.00879 128.70180 489
-802.27051 1732.99182 -28.55744 467
-805.98584 1739.34204 3.61326 470
-808.68225 1744.97351 35.04257 466
-6952.46289 13634.67383 -123.57957 483
-6924.21387 13582.00488 126.04517 489
-6880.90283 13697.05176 -125.52553 482
-6851.73096 13647.46094 127.44651 489
-6808.77637 13762.69141 -122.51706 482
-6783.08594 13712.23828 130.01401 488
-6736.29980 13829.50879 -124.52840 481
-6710.03418 13777.02734 127.97979 488
-6659.30078 13895.52734 -126.32730 481
-6638.59131 13845.48828 129.66769 487
-6588.55176 13967.53516 -125.89475 460
-6563.92432 13912.01367 128.67818 487
-6524.39453 14044.37988 -125.08640 460
-6491.25635 13983.92285 129.88786 484
-6454.08838 14125.37109 -124.69040 459
-6419.98340 14053.39453 130.15656 483
-6383.63135 14207.22559 -126.91030 460
-6346.75439 14127.12598 129.32950 483
-6315.20117 14287.97852 -127.99574 459
-6276.06885 14197.83496 126.69724 482
-6245.17139 14369.24707 -127.23138 459
-6207.31689 14276.76270 128.81497 465
-6178.52295 14450.55957 -130.56033 458
-6137.84961 14357.32031 129.66759 464
-6106.27148 14532.35547 -132.72102 457
-6071.19092 14445.36816 130.24751 464
-6129.81299 14841.65234 -396.91400 391
-6037.65234 14621.68555 -129.98541 415
-6000.68115 14533.94141 129.97141 463
-6076.30078 14966.25586 -400.15448 390
-5976.53320 14730.91016 -131.96872 414
-5933.04785 14625.97070 128.94232 462
-6028.79590 15115.43359 -404.28665 296
-5918.78076 14839.98730 -132.73343 413
-5866.05762 14714.09180 127.65507 461
-5853.65381 14955.44141 -136.50711 412
-5797.74023 14810.11328 128.25261 461
-5800.81006 15075.44434 -136.41788 390
-5729.83984 14900.26172 128.27844 460
-5739.59033 15202.07617 -136.32265 363
-5660.18750 14994.89746 128.89919 459
-5694.50049 15361.18164 -139.09361 362
-5591.85938 15088.90625 128.74294 453
-5644.54150 15518.37988 -142.87535 361
-5537.72607 15231.71777 129.89285 392
-5481.98779 15374.49023 130.01076 391
-5426.39502 15521.43555 127.68753 390
3396.47876 56860.20312 -2675.45996 1000
14089.66113 53728.37891 -2601.00000 1000
7944.31445 29402.06836 4135.70508 1000
942.37915 2229.97583 -63.45575 338
950.13794 2209.36621 -62.48047 426
960.44580 2235.68555 -24.89923 356
978.23114 2240.31104 -105.46497 396
959.14288 2191.05615 -61.24934 427
972.65607 2226.34985 -24.84030 312
986.09991 2219.24023 -103.41966 397
967.03094 2172.99487 -60.16936 428
1008.69849 2276.62207 -28.42047 280
993.51379 2198.84033 -101.74106 398
976.23846 2157.91748 -59.27044 461
999.12537 2174.26050 -100.05010 449
986.36621 2144.42749 -58.48086 462
1008.52600 2159.66016 -99.09989 450
996.34137 2131.20947 -58.02973 463
1017.65887 2145.12793 -98.27485 451
1006.01477 2118.69604 -57.17876 445
1024.99023 2126.33838 -96.39478 307
1016.76190 2107.02563 -56.69935 453
1032.66638 2107.50098 -95.19849 317
1027.46729 2096.87476 -56.30630 453
1040.61768 2090.83521 -93.92503 320
1038.02612 2086.15918 -55.41893 453
1048.87817 2075.21094 -92.71670 419
1048.96826 2075.68091 -54.98558 453
1058.69324 2062.77979 -92.35224 420
1059.56970 2065.49536 -55.20853 453
1068.21106 2050.64722 -91.60079 425
1070.58728 2055.70581 -54.52940 389
1077.95447 2039.66699 -91.11928 426
1082.40613 2047.49487 -54.07703 389
16709.66016 34256.87109 9668.55078 1000
1088.09839 2028.36609 -90.41856 426
1093.78406 2039.36438 -53.92572 389
1097.95935 2017.23193 -89.60062 426
1105.43518 2031.08521 -54.07090 389
1108.53467 2006.53674 -89.33012 486
1116.52917 2023.28552 -53.89655 389
1118.75732 1996.33618 -88.73769 487
1128.14221 2014.99097 -53.90028 389
1156.16528 2069.70459 -20.12751 498
1129.65967 1987.33777 -88.58218 492
1138.35730 2005.12366 -53.43459 403
1168.59119 2062.03418 -20.32540 498
1140.42126 1978.31824 -88.40162 492
1153.71423 2004.38599 -53.63726 297
1180.69800 2053.82837 -20.20193 498
1150.91711 1969.83130 -88.38335 492
1191.56763 2044.00049 -58.28244 498
1161.67932 1960.56335 -87.61481 495
1208.41235 2045.47107 -59.15449 272
1172.91113 1952.58167 -87.62046 495
1294.31934 2170.74316 -70.98674 380
20326.68945 36430.00000 2179.20947 1000
1183.84363 1944.22791 -87.20061 495
1308.31775 2165.07471 -71.68058 379
1195.42419 1935.67383 -87.48173 496
1322.11816 2158.13696 -71.84278 380
1206.64600 1928.16333 -87.03384 497
1252.71680 2007.74683 -57.82410 499
1199.54700 1925.62769 -88.25420 497
1245.38733 2005.58130 -58.63530 499
1210.59863 1918.29333 -87.84679 497
1254.69824 1993.08252 -58.48584 499
1255.68604 1994.40845 -20.09620 499
1222.35010 1910.68689 -87.60986 497
1266.88940 1985.08093 -58.41273 499
1267.87781 1986.86633 -20.70240 499
1299.01904 2039.60168 14.81957 364
1233.46326 1902.75122 -87.78146 497
1368.56079 2124.94165 -72.76785 323
1319.72009 2044.45349 52.75725 254
1245.30798 1895.31152 -87.99908 497
1381.22412 2116.43726 -72.17678 323
1332.30115 2037.71667 13.82642 381
1332.94568 2037.62634 53.18626 254
1256.87061 1887.69556 -87.95835 497
1394.29150 2108.51831 -72.47905 323
1330.57996 2006.94348 54.18505 499
1327.53125 2001.52014 92.90448 499
1350.98352 2039.62695 130.96870 368
1268.32800 1880.23865 -87.41372 497
1407.03113 2100.42236 -72.32552 323
1279.49023 1872.38184 -87.63917 497
1419.74353 2092.16431 -72.19912 323
1290.86389 1865.24768 -87.52623 497
1320.39294 1910.35522 -55.39730 380
1302.44946 1857.13843 -87.73141 497
1331.58447 1902.00354 -55.28188 499
1332.69287 1903.48352 -17.94467 499
1313.86865 1850.16431 -87.50235 497
1343.54834 1894.45776 -55.34438 499
1344.59192 1895.65454 -17.77312 499
1325.43103 1842.18005 -87.37218 497
1363.90320 1900.15283 -56.43586 499
1336.49133 1834.99548 -87.86869 497
1484.93921 2051.18726 -72.56913 323
1348.35681 1827.30872 -87.34410 497
1497.94116 2042.66577 -72.30088 323
1359.72766 1819.90027 -87.44859 497
1510.37683 2034.51453 -72.62572 323
1370.81006 1812.09167 -87.57082 497
1501.86414 1996.26086 -69.68626 374
1382.24976 1804.75378 -87.43973 497
1536.59998 2017.70251 -72.44814 323
1435.33362 1877.65015 55.51342 348
1445.57983 1892.18738 92.97751 366
1446.28235 1893.21289 131.71043 499
1393.88525 1796.72180 -87.83051 497
1548.94324 2009.31433 -72.46049 323
1405.71887 1789.32727 -87.78308 497
1561.81714 2001.28516 -72.59324 323
1416.89856 1781.53979 -87.69084 497
1574.45154 1992.22864 -72.99991 323
1428.32751 1773.99463 -88.18906 497
1587.73535 1984.03284 -73.24622 323
1439.75354 1766.52942 -87.73769 497
1600.36841 1975.76086 -72.77258 323
1451.47986 1759.08911 -87.89670 497
1613.38135 1966.84619 -73.15523 323
1462.70813 1751.69177 -88.11120 496
1626.30652 1958.31714 -73.40678 323
1474.35364 1743.54980 -88.19576 496
1639.05737 1949.52979 -73.24775 323
1486.26514 1736.18188 -88.60738 496
1651.85400 1941.01123 -73.61102 323
1497.25671 1728.40991 -88.28691 496
1664.61035 1932.13330 -73.72923 323
1509.03467 1721.06519 -88.49660 496
1676.99817 1923.62061 -73.48470 323
1520.58337 1713.28577 -88.82780 496
1690.27283 1914.65759 -73.81490 323
1616.71594 1827.10730 -25.08823 371
1532.18896 1705.36121 -89.28100 496
1702.86865 1906.50354 -74.16416 323
1543.77258 1697.44556 -89.35693 495
1716.20911 1897.61023 -73.76727 323
1555.47815 1690.31140 -89.20825 495
1566.82361 1682.17456 -89.26512 495
1580.34033 1676.29346 -89.69643 474
1595.00879 1672.53870 -90.88081 473
1609.75879 1667.56055 -91.18639 472
1625.05176 1663.43628 -92.03928 472
1640.27979 1659.38379 -92.51801 414
47461.14844 33362.65234 -13397.00293 1000
1707.39819 523.97913 -64.20508 269
1696.36255 509.19666 -62.06836 462
1699.80310 510.54877 -34.68366 462
1704.04553 511.75244 -7.23379 417
1707.66199 512.79901 20.79562 411
1697.46936 498.84171 -61.78122 499
1701.08887 500.11823 -34.56987 499
1705.31995 501.39337 -6.79253 496
1709.83276 502.53253 20.74070 440
1704.32947 490.08179 -62.60579 440
1710.63525 492.13748 -35.23787 381
4621.74365 -6.29241 -90.05849 360
4633.28955 -34.58875 -90.68467 431
25716.95508 -193.83649 4362.02734 1000
4647.27588 -62.27868 -92.38823 437
4665.21680 -89.88239 -92.92323 442
4684.74219 -118.54962 -94.18204 442
4705.46875 -147.99323 -94.40276 441
4730.59961 -177.86798 -96.72204 420
4758.16895 -207.67747 -98.12823 416
4793.83838 -237.65564 -99.55058 394
4842.15723 -270.24405 -101.37865 352
4899.12695 -302.58163 -104.16125 325
4963.53662 -337.08096 -108.29152 311
5039.52197 -372.06738 -112.30641 339
5114.32031 -409.24182 -115.13565 340
3293.55908 -581.50623 -27.55678 477
3301.82739 -583.23859 25.10139 482
4125.00098 -1396.74170 -7.77582 323
4954.57568 -1992.81799 47.04541 302
4973.45117 -2035.59546 -41.47442 368
4923.64844 -2014.00183 47.03349 338
4932.37451 -2052.35840 -40.45199 411
4910.47607 -2043.77356 46.69896 478
4877.25830 -2064.62939 -38.77661 294
4839.10352 -2082.40161 -37.45673 301
4810.43799 -2104.80371 -37.41642 367
4783.22021 -2127.97778 -36.46732 372
4759.61279 -2151.19141 -36.51256 428
4737.30615 -2175.16113 -35.45316 432
4775.32666 -2193.52881 48.10895 486
4831.73633 -2219.58569 132.53394 308
4716.58643 -2200.13892 -35.74144 435
4751.66162 -2216.78516 47.44043 486
4744.08838 -2213.05151 132.61336 498
4696.92676 -2226.99707 -34.58991 437
4728.36475 -2240.85425 48.49905 487
4728.69531 -2241.10693 131.87634 499
4678.52100 -2251.44751 -34.44470 438
4711.88818 -2269.37891 48.04473 499
4712.55371 -2269.32300 132.70979 499
4661.61768 -2279.08154 -35.26296 440
4696.26611 -2295.98511 48.35155 499
4698.26660 -2296.72217 131.95958 499
4645.40820 -2305.71631 -35.15690 441
4677.08740 -2322.43115 48.40508 499
4677.65527 -2321.86450 132.81853 499
4628.90625 -2332.59033 -34.20439 442
4661.28809 -2349.72217 48.19950 499
4663.02246 -2349.76221 133.00270 499
4615.59277 -2361.53442 -34.25310 386
4645.18555 -2377.01416 47.70760 499
4646.43896 -2377.00195 132.67052 499
4602.17871 -2389.02026 -34.43517 386
4636.03418 -2406.99561 48.61309 499
4636.87158 -2408.26465 131.85396 499
4588.58838 -2417.14697 -34.72948 385
4615.21143 -2431.33569 48.74445 499
4621.51953 -2435.00098 132.48454 499
4747.10596 -2503.38989 218.42891 497
4575.74902 -2446.83716 -35.17382 385
4603.98828 -2462.45142 47.97738 499
4605.18311 -2462.93628 133.04582 499
4658.36133 -2491.94873 218.24301 499
4563.88525 -2476.61060 -35.57583 310
4589.13672 -2489.47632 48.45654 499
4589.80273 -2490.15601 132.47435 499
4661.69336 -2530.67139 217.15443 499
4554.74316 -2505.96484 -35.31613 316
4646.08789 -2557.61963 218.21416 498
4557.46777 -2544.73096 -36.45505 255
4632.02979 -2587.65161 217.55812 499
4516.97363 -2556.91846 -35.18496 370
4641.90625 -2630.24976 218.91719 342
4499.69775 -2583.36597 -35.01875 370
4453.48877 -2666.53101 49.24050 393
4591.15039 -2749.86401 132.92412 499
4437.16357 -2692.73438 49.46836 393
4419.37256 -2718.34204 48.25083 394
4403.34375 -2745.46558 49.46746 438
4386.12842 -2772.21216 49.40858 438
4448.03857 -2849.81396 47.17323 491
4423.04688 -2871.25830 46.61338 491
4410.73975 -2901.61987 47.80241 480
38209.12500 -28081.75781 1683.77283 1000
3081.61328 -2657.86377 67.02646 415
2238.41748 -2351.32129 80.35067 337
2220.63916 -2359.95850 27.97508 355
2196.70972 -2334.16675 81.11475 361
2179.69482 -2344.03687 29.27750 355
2157.54688 -2319.03784 81.63548 362
2140.97290 -2329.01562 30.73330 362
2118.67896 -2303.47241 82.29436 364
2104.25610 -2315.30786 31.75998 364
2081.05591 -2288.43921 82.38847 365
2068.69385 -2302.26880 32.86791 365
2043.88049 -2274.39648 82.93338 367
2033.62097 -2289.47070 33.64444 366
2007.96619 -2260.40356 83.91946 368
1998.92688 -2276.93872 34.65460 368
1973.00452 -2246.25073 84.00452 369
15881.42090 -19134.10547 -5651.12256 1000
1967.23499 -2267.53296 36.00145 364
1938.55896 -2233.13525 85.12025 371
1935.36780 -2256.24707 37.29459 356
1904.95410 -2219.65527 85.28732 372
1912.16602 -2229.08716 132.17583 375
1902.24829 -2244.90771 37.83028 357
1872.78149 -2207.30493 85.87406 383
1879.99915 -2216.91821 132.45963 376
1871.90051 -2235.15942 39.00624 352
1844.94348 -2200.69580 86.22408 412
1851.38721 -2208.20093 132.63263 414
1842.79614 -2226.22852 39.89149 364
1819.06274 -2195.74438 86.27335 420
1827.11438 -2206.12915 132.43097 484
1817.28857 -2221.30811 39.94696 384
1795.44409 -2192.72754 86.81255 434
1810.82739 -2212.85376 132.15793 479
1793.19800 -2218.41968 40.86660 393
1772.32922 -2190.43408 87.06348 428
1798.92004 -2225.84937 132.10097 443
1770.70581 -2216.69946 41.07221 397
1750.34644 -2189.18506 87.31342 437
1791.29395 -2244.58545 132.46854 443
1749.17847 -2216.41528 41.90120 397
1728.72888 -2188.92700 87.77516 441
1784.17908 -2263.14331 132.15997 442
1727.34778 -2215.81885 41.78882 397
1707.79114 -2188.96582 87.38289 451
1776.06482 -2281.87061 132.44595 441
1706.82349 -2215.37695 42.13809 403
1688.03882 -2189.89795 87.80860 457
1767.98438 -2300.81689 131.88904 440
1686.50195 -2216.07959 42.74415 415
1669.23572 -2191.73169 88.25782 450
1760.45679 -2319.43286 131.83521 439
1667.49939 -2217.75342 43.22988 420
1649.59436 -2193.44214 88.34957 451
1751.91443 -2338.63501 132.40561 439
1650.70447 -2223.18164 43.54285 290
1628.73157 -2192.06030 88.07771 467
1745.12256 -2358.08545 132.51982 438
1646.81873 -2247.37354 43.10867 290
1610.30383 -2194.06689 88.64892 471
1736.93872 -2377.99170 132.54926 437
1591.82446 -2196.35791 88.79439 409
1728.41321 -2396.54346 132.27940 439
1573.97498 -2198.87183 88.54140 410
1556.66711 -2202.15039 88.82328 481
1539.19666 -2205.68237 89.30848 481
1524.66296 -2212.05444 89.08390 452
2335.97119 -6785.02393 1314.27832 1000
4198.92969 -41739.98828 -11093.78027 1000
4242.12158 -56324.44922 5710.74805 1000
-295.98929 -2411.61475 132.59535 476
-295.04724 -2409.90063 172.64243 476
-295.14941 -2409.02856 212.45944 432
-295.30728 -2407.96387 252.49438 370
-295.35953 -2407.51685 292.79391 370
-15166.64453 -67706.52344 -985.22961 1000
-489.68234 -1728.87061 102.57412 324
-489.11151 -1727.41089 132.76160 324
-488.73248 -1725.98120 162.58871 394
-488.36133 -1724.87012 192.25012 394
-488.22812 -1723.53564 222.03732 394
-487.62106 -1721.97571 251.84085 394
-486.92056 -1721.02588 281.80508 394
-486.73438 -1720.03540 311.37161 394
-500.20386 -1724.07532 102.62415 397
-499.65637 -1722.97314 132.64241 397
-499.66031 -1722.85962 162.45714 328
-499.58826 -1722.35901 192.40648 328
-499.16199 -1722.17688 222.31647 328
-4101.65674 -7943.49854 -1806.53894 1000
-9957.90918 -12999.80762 -3697.09399 1000
-16451.82227 -17099.22266 -5003.87109 1000
-20346.60938 -20609.40430 2996.10864 1000
-11371.05078 -9485.68262 865.41040 1000
-6733.66895 -4976.56836 -1405.31494 1000
-24908.17578 -14483.33887 -5123.89453 1000
-21079.12891 -9940.43164 133.83942 1000
-2262.79883 -820.45850 132.46356 454
-2270.41748 -822.81036 173.38719 332
90.12955 -2.97939 128.37390 356
-2266.88257 -805.34100 132.52696 483
-2272.66919 -807.23859 173.49623 445
90.20026 -2.88004 128.38544 314
89.28855 -3.18575 128.38667 310
-2931.69873 -1011.06946 184.73499 488
-3626.55908 -1242.04810 260.74100 490
90.22578 -2.79811 128.38586 314
89.31451 -3.09693 128.38606 310
88.27222 -3.43731 128.38623 306
90.25552 -2.71524 128.38554 314
89.33981 -3.00754 128.38756 310
88.29729 -3.34262 128.38779 306
90.28174 -2.63348 128.38530 314
89.36580 -2.91938 128.38663 310
88.32101 -3.24621 128.38562 306
90.31035 -2.54871 128.38550 314
89.39323 -2.83264 128.38536 310
88.34653 -3.15038 128.38737 306
90.33774 -2.46617 128.38620 314
89.41828 -2.74201 128.38773 310
88.37341 -3.05662 128.38582 306
90.36821 -2.38418 128.38649 314
89.44804 -2.65167 128.38670 310
88.39819 -2.96014 128.38666 306
90.39780 -2.30098 128.38651 314
89.47466 -2.56450 128.38718 310
88.42381 -2.86508 128.38536 306
87.21508 -3.20997 128.38597 302
90.42894 -2.21602 128.38727 314
89.50444 -2.47519 128.38579 310
88.45366 -2.76908 128.38512 306
87.24250 -3.10737 128.38780 302
90.45960 -2.13370 128.38641 314
89.53469 -2.38522 128.38652 310
88.47897 -2.67273 128.38559 306
87.26691 -3.00340 128.38634 302
90.49094 -2.04900 128.38640 314
89.56497 -2.29563 128.38666 310
88.50986 -2.57773 128.38779 306
87.29321 -2.90277 128.38745 302
90.52273 -1.96402 128.38690 314
89.59541 -2.20669 128.38609 310
88.53823 -2.48203 128.38644 306
87.32150 -2.79829 128.38760 302
90.55547 -1.88117 128.38760 314
89.62479 -2.11647 128.38562 310
88.56651 -2.38538 128.38707 306
87.34929 -2.69392 128.38702 302
90.58744 -1.79620 128.38712 314
89.65685 -2.02625 128.38795 310
88.59838 -2.28900 128.38512 306
87.37608 -2.58797 128.38586 302
90.62199 -1.71400 128.38609 314
89.68893 -1.93593 128.38745 310
88.22759 -2.28930 128.29034 366
87.40559 -2.48417 128.38606 302
90.65417 -1.62892 128.38654 314
89.72281 -1.84812 128.38744 310
88.04364 -2.23910 128.23788 364
87.43636 -2.38230 128.38623 302
90.68916 -1.54377 128.38577 314
89.75553 -1.75634 128.38618 310
87.85400 -2.18888 128.18492 363
87.46523 -2.27680 128.38542 302
90.72389 -1.45821 128.38542 314
87.65901 -2.13697 127.83956 361
87.66100 -2.13846 128.13306 362
87.49815 -2.17314 128.38689 302
86.06730 -2.48864 128.38770 298
90.75938 -1.37363 128.38737 314
87.48562 -2.07571 127.78815 310
87.45973 -2.08348 128.07906 360
87.45917 -2.08307 128.37170 361
86.09988 -2.37380 128.38618 298
90.79526 -1.28946 128.38763 314
87.51598 -1.97211 127.78775 310
87.25285 -2.02800 128.02214 359
87.25298 -2.02560 128.31902 359
86.13062 -2.26103 128.38783 298
90.83355 -1.20562 128.38556 314
87.55058 -1.86909 127.78931 310
87.10929 -1.95599 127.97869 452
87.10651 -1.95478 128.27936 453
86.16319 -2.14891 128.38644 298
90.87019 -1.12168 128.38527 314
87.58447 -1.76242 127.78586 310
87.02303 -1.87246 127.95087 451
87.02193 -1.87251 128.25494 452
86.19270 -2.03414 128.38611 298
90.90556 -1.03609 128.38544 314
87.61739 -1.65931 127.78624 310
86.93696 -1.78778 127.92060 451
86.93577 -1.78448 128.22609 451
86.22567 -1.92095 128.38551 298
90.94434 -0.95153 128.38782 314
87.64980 -1.55368 127.78722 310
86.84961 -1.69862 127.89304 450
86.84916 -1.70005 128.20108 451
86.26134 -1.80740 128.38713 298
90.98295 -0.86481 128.38670 314
87.68571 -1.44606 127.78828 310
86.76122 -1.61226 127.86337 449
86.76036 -1.60909 128.17325 450
86.29520 -1.69199 128.38788 298
91.02261 -0.78116 128.38567 314
87.72072 -1.34302 127.78785 310
86.66993 -1.51859 127.83481 448
86.67052 -1.51931 128.14578 449
86.32793 -1.57706 128.38661 298
91.06158 -0.69518 128.38774 314
87.75700 -1.23743 127.78615 310
86.58059 -1.43143 127.80378 447
86.57883 -1.43087 128.11967 448
86.36291 -1.46342 128.38737 298
91.10266 -0.61097 128.38545 314
87.79470 -1.13151 127.78685 310
86.54305 -1.32515 127.78928 306
86.48959 -1.33581 128.09189 447
86.40209 -1.35018 128.38565 298
91.14157 -0.52529 128.38664 314
87.83260 -1.02616 127.78640 310
86.57869 -1.21464 127.78741 306
86.39480 -1.24223 128.06230 446
86.39520 -1.24209 128.37770 447
91.18295 -0.44050 128.38776 314
87.87300 -0.91931 127.78642 310
86.61591 -1.10055 127.78703 306
86.30254 -1.14589 128.03207 492
86.30361 -1.14507 128.35280 493
91.22475 -0.35400 128.38539 314
87.90892 -0.81322 127.78674 310
86.65542 -0.98958 127.78916 306
86.27446 -1.04109 128.02116 492
86.27457 -1.03850 128.33740 493
91.26665 -0.26925 128.38553 314
87.95190 -0.70800 127.78815 310
86.69289 -0.87492 127.78620 306
86.24582 -0.93526 128.00562 492
86.24517 -0.93238 128.32295 493
91.30878 -0.18478 128.38689 314
87.99019 -0.60295 127.78677 310
86.73298 -0.75817 127.78621 306
86.21685 -0.82768 127.98805 492
86.21557 -0.82546 128.31052 492
91.35318 -0.09926 128.38699 314
88.03152 -0.49672 127.78773 310
86.77306 -0.64739 127.78596 306
86.18942 -0.71547 127.97604 491
86.18807 -0.71723 128.29672 492
91.39862 -0.01362 128.38660 314
88.07318 -0.39107 127.78812 310
86.81572 -0.53433 127.78574 306
86.15804 -0.60527 127.96121 491
86.15910 -0.60578 128.28430 492
91.44061 0.07101 128.38559 314
88.11569 -0.28569 127.78934 310
86.85614 -0.41895 127.78756 306
86.13050 -0.49679 127.94244 491
86.13047 -0.49833 128.26985 492
85.00793 -0.62054 128.38617 294
91.48711 0.15701 128.38522 314
88.15733 -0.18040 127.78851 310
86.90012 -0.30485 127.78943 306
86.10050 -0.38552 127.92978 491
86.09924 -0.38542 128.25447 492
85.04759 -0.49011 128.38623 294
91.53001 0.24270 128.38754 314
90.58121 0.15421 128.38759 310
86.94087 -0.19108 127.78585 306
86.07026 -0.27297 127.91182 490
86.06950 -0.27338 128.24059 491
85.08912 -0.36667 128.38576 294
91.57874 0.32865 128.38702 314
90.62608 0.24598 128.38628 310
86.98313 -0.07937 127.78580 306
86.03986 -0.16033 127.89800 490
86.04023 -0.16328 128.22533 491
85.13274 -0.24311 128.38480 294
91.62342 0.41260 128.38713 314
90.67155 0.33640 128.38544 310
87.02781 0.03695 127.78574 306
86.00957 -0.04956 127.87970 490
86.01112 -0.04793 128.20880 491
85.17719 -0.11832 128.38770 294
91.66990 0.49894 128.38692 314
90.71993 0.42666 128.38719 310
87.07280 0.15138 127.78687 306
86.01611 0.06962 127.87415 480
86.01483 0.06942 128.20335 481
85.22370 0.01063 128.38556 294
91.66483 0.58234 128.37128 487
90.76530 0.51910 128.38742 310
87.11756 0.26217 127.78689 306
86.04588 0.18775 127.86878 481
86.04749 0.18759 128.20129 481
85.26961 0.13479 128.38596 294
91.64359 0.66286 128.35387 486
90.81384 0.60922 128.38730 310
87.16631 0.37805 127.78792 306
86.07753 0.30768 127.86501 481
86.07867 0.30693 128.19833 482
85.31676 0.25823 128.38696 294
91.62218 0.74457 128.33472 486
90.86040 0.70116 128.38597 310
87.21077 0.49048 127.78594 306
86.11115 0.42903 127.86475 482
86.11126 0.42554 128.19560 482
85.36431 0.38592 128.38658 294
91.59811 0.82912 128.31563 486
90.91066 0.79428 128.38684 310
87.26067 0.60660 127.78794 306
86.14294 0.54879 127.86127 482
86.14101 0.54873 128.18980 483
85.41222 0.50970 128.38667 294
91.57566 0.91302 128.29654 485
90.95994 0.88287 128.38785 310
87.30751 0.71797 127.78658 306
86.17421 0.66944 127.85767 482
86.17384 0.66608 128.18806 483
85.45872 0.63441 128.38483 294
91.55538 0.99768 128.27765 485
91.00985 0.97447 128.38699 310
87.35743 0.83134 127.78735 306
86.20656 0.78576 127.85220 483
86.20815 0.78585 128.18495 484
85.51020 0.76081 128.38823 294
91.53043 1.08130 128.25728 485
91.05972 1.06773 128.38654 310
87.40977 0.94694 127.78555 306
86.23709 0.90712 127.84776 483
86.24064 0.90780 128.18007 484
85.55637 0.88614 128.38843 294
91.50773 1.17058 128.23750 484
91.11261 1.15862 128.38594 310
87.45644 1.05949 127.78804 306
86.27212 1.02776 127.84370 484
86.27180 1.02719 128.17555 485
85.61184 1.01231 128.38826 294
91.48482 1.25574 128.21663 484
91.16370 1.24954 128.38582 310
87.50774 1.17476 127.78568 306
86.30117 1.14895 127.84256 484
86.30589 1.15043 128.17384 485
85.66322 1.13746 128.38806 294
91.46151 1.34490 128.19868 484
91.21624 1.34185 128.38736 310
87.56199 1.28913 127.78722 306
86.42245 1.27219 127.85404 420
86.42443 1.27168 128.18802 420
85.71416 1.26031 128.38657 294
91.43558 1.43438 128.17577 483
91.26735 1.43113 128.38666 310
90.18442 1.42441 128.38666 306
86.54277 1.39187 127.87128 421
86.54260 1.39359 128.20189 421
85.76705 1.38824 128.38753 294
91.41180 1.52373 128.15558 483
91.32027 1.52561 128.38560 310
90.23419 1.52236 128.38573 306
86.66618 1.51443 127.88593 422
86.66546 1.51553 128.21252 423
85.82079 1.51085 128.38866 294
