# .PCD v.7 - Point Cloud Data file format
VERSION .7
FIELDS x y z rgb
SIZE 4 4 4 4
TYPE F F F U
COUNT 1 1 1 1
WIDTH 1033
HEIGHT 1
VIEWPOINT 6213.345215 -3854.735596 137.163177 -0.295153 -0.149215 -0.024782 0.943401
POINTS 1033
DATA ascii
-196.42206 1.15414 53.34737 325
-196.45709 2.96490 53.35059 325
-196.48026 4.75063 53.35138 325
-196.52122 6.60419 53.34016 325
-196.45638 8.39567 53.37179 325
-196.49945 10.18702 53.29880 325
-196.45535 12.02264 53.32762 325
-1696.03943 229.55742 71.52541 454
-1701.89160 230.48215 101.21767 399
-1691.43982 240.36409 71.49094 499
-1693.98694 240.52100 101.02689 499
-1697.36462 240.79221 130.54478 498
-1700.97168 241.38673 160.41194 487
-1693.57971 251.51503 71.65849 448
-1696.58228 252.22995 101.25327 448
-1700.34814 252.93040 130.80768 391
-2373.05127 377.65179 89.29874 485
-2380.00171 379.03864 129.83121 392
-294.69400 63.86253 39.62808 312
-2370.92700 393.02115 89.15395 454
-2373.94116 393.46057 129.95293 488
-2377.27075 393.93774 171.31708 482
-290.33829 65.60316 40.48292 341
-3092.38599 527.54022 129.55621 393
-272.27429 64.94529 38.19414 347
-288.44125 67.77152 40.92781 341
-270.37256 66.92351 38.58779 345
-289.04407 70.27456 40.64108 319
-269.54550 69.15945 38.77411 322
-271.46988 71.85738 38.17291 319
-14944.93164 4131.93018 1141.19043 1000
-46906.46875 22859.72266 -5922.35547 1000
-20811.95312 13573.33691 -5270.30029 1000
-40800.28125 33941.72266 2707.38379 1000
-37416.98828 37032.25391 -10386.24902 1000
-30985.59180 35576.73438 11936.38574 1000
-23586.44727 28140.79883 4342.34912 1000
-9216.15918 12559.08398 124.28708 461
-9178.84570 12669.50684 -134.59671 449
-9113.23340 12576.86621 122.94547 462
-9093.88184 12552.75586 379.10544 457
-35257.45312 48933.49219 -6843.41846 1000
-9077.19629 12690.90234 -130.10518 446
-9011.28711 12600.18848 123.24554 467
-8992.70312 12578.98828 380.21213 457
-8971.33008 12714.06641 -133.07533 447
-8907.69336 12622.07031 124.25851 468
-8913.26758 12629.56348 377.74475 259
-8869.50195 12736.57227 -131.78888 447
-8810.57031 12647.58105 126.69741 468
-9031.56250 12965.60645 384.44626 412
-8709.32129 12669.65430 123.80534 469
-8667.95996 12778.96094 -129.10861 448
-8607.91895 12693.58691 126.78600 469
-8566.60059 12802.50684 -127.41374 449
-8511.66113 12714.51660 125.82827 470
-8466.56836 12822.68066 -125.49497 449
-8414.50000 12740.04590 124.57906 470
-9439.91797 14277.86133 404.93619 451
-8369.10547 12843.00781 -128.85992 450
-8312.60938 12763.31250 126.96611 471
-8268.46484 12865.32812 -126.83401 450
-8218.12695 12784.31641 126.36407 471
-17760.89648 27465.50000 3342.82910 1000
-8170.26025 12886.95801 -127.57625 469
-8120.48730 12809.50488 123.42924 472
-8075.48389 12910.23145 -126.92323 469
-8025.07080 12833.13965 124.22192 472
-7975.62012 12933.68164 -124.81879 470
-7926.28662 12853.75391 126.22478 473
-7880.13721 12956.07031 -122.63726 470
-7834.11914 12875.82617 127.31632 473
-7784.89893 12980.44238 -121.08965 472
-7738.12695 12900.10156 126.32779 474
-7751.31055 12924.36133 371.04163 426
-7692.09229 13001.08301 -124.04648 473
-7641.02490 12921.76953 124.11066 474
-7654.19531 12941.98047 373.78537 426
-7595.29736 13024.66699 -119.84294 473
-7549.96240 12945.49707 127.36451 475
-7560.84180 12961.35547 371.69559 427
-7500.87402 13042.47656 -123.24344 474
-7454.52539 12967.33691 124.54486 475
-7468.95264 12989.44629 373.48001 422
-7404.46143 13068.65039 -122.19054 474
-7360.81836 12987.37598 125.76987 483
-7375.80615 13018.56934 372.25659 398
-7309.92578 13089.18164 -119.11467 474
-7270.05957 13011.57617 125.90675 483
-7218.85010 13112.79980 -120.76576 475
-7176.24219 13032.76660 127.60972 484
-7125.33691 13134.12305 -118.82406 475
-7082.56396 13054.45996 126.45921 484
-7031.76270 13153.48926 -119.94836 476
-6988.03516 13079.10645 126.54195 485
-6939.72559 13177.99805 -116.60977 476
-6898.61426 13102.04395 126.19811 485
-6846.66699 13197.54395 -115.92858 476
-6807.48291 13123.65137 125.69649 485
-6754.80176 13218.66895 -115.96220 477
-6713.73242 13144.86719 127.01521 486
-6663.31543 13242.53418 -118.43088 477
-6624.08984 13168.82812 126.49397 489
-6570.00488 13264.60156 -116.48830 477
-6534.98828 13189.99707 125.28655 490
-6478.90674 13281.64453 -116.62173 478
-6442.35547 13213.19043 127.00926 490
-6387.44482 13307.72363 -117.41776 478
-6355.78809 13234.23438 125.66200 490
-6296.17627 13325.05664 -116.05846 478
-6266.53076 13258.58008 127.89846 491
-6205.19580 13346.13867 -113.66325 479
-6173.71582 13280.04785 125.21686 491
-6115.00537 13368.40723 -115.34867 479
-6084.48633 13303.35840 128.27803 491
-6026.34814 13391.80762 -114.80532 479
-5996.38330 13322.80176 128.28972 491
-5935.27197 13410.73926 -114.55817 480
-5906.66309 13345.35449 126.56035 492
-6216.12061 14036.30371 376.60818 485
-5846.66016 13433.98828 -112.96257 480
-5818.11426 13366.37207 125.13046 492
-6116.73291 14044.77930 377.49301 485
-6143.10107 14106.28906 630.36646 407
-5756.39697 13450.76855 -113.39081 480
-5731.18652 13390.95215 127.42812 492
-6020.20752 14051.81934 378.29788 486
-6044.16797 14117.98633 629.33221 407
-5667.96289 13473.22754 -114.86775 480
-5639.42822 13411.08887 125.60918 492
-5921.29639 14059.79297 378.67303 486
-5949.35010 14129.77539 631.36963 407
-5579.32227 13493.34180 -113.47109 481
-5555.15723 13434.58496 125.49555 493
-5820.01074 14067.79297 377.93265 487
-5851.40088 14140.69824 627.03387 408
-5490.93604 13513.63281 -110.94862 481
-5466.68799 13453.99609 126.20848 493
-5721.12744 14073.65234 375.18787 487
-5752.27002 14150.54395 629.30078 408
-5401.67188 13533.70117 -113.41546 481
-5375.55957 13476.77148 125.57809 493
-5622.08643 14080.33105 375.32941 487
-5655.71191 14159.61133 629.43042 408
-5313.36719 13558.50488 -110.02677 481
-5288.92920 13499.75391 127.88615 493
-5524.39355 14091.12500 375.13687 488
-5558.64014 14174.33691 627.32056 408
-5222.83643 13576.99805 -110.80265 481
-5201.27002 13519.99414 126.37652 494
-5426.61084 14097.57812 372.66971 488
-5460.20361 14183.62793 627.35376 409
-5136.76318 13598.02539 -112.13602 482
-5116.15723 13541.30566 125.74837 494
-5332.09863 14105.40918 372.79343 489
-5364.67676 14193.43750 626.55096 409
-5048.70947 13619.57812 -109.00421 482
-5027.11182 13563.33594 127.71711 494
-5239.22168 14125.78027 372.44907 497
-5273.63623 14217.41602 626.08795 415
-4989.45898 13722.06641 -349.83319 479
-4960.92578 13640.01270 -110.98932 482
-4942.02490 13586.89453 128.54781 494
-5150.34326 14148.25684 375.84207 498
-4903.40430 13741.01074 -349.54987 479
-4872.39307 13658.23633 -110.59583 482
-4855.47803 13608.40137 128.40306 497
-5058.80664 14170.26270 372.00537 498
-4812.44092 13762.09082 -351.91458 479
-4782.55127 13680.50781 -111.73898 482
-4765.52393 13630.28223 125.89771 497
-4968.68359 14190.95508 374.65213 498
-4725.51367 13785.64355 -351.10580 480
-4698.41211 13700.53906 -108.06450 483
-4678.37158 13651.16992 127.14969 497
-4876.57910 14218.27051 375.58289 498
-4637.04932 13805.42676 -348.71524 480
-4609.33252 13719.91895 -107.72256 483
-4594.17920 13671.41602 127.01270 497
-4787.92480 14237.34375 374.23010 498
-4548.89600 13824.18750 -350.59106 480
-4521.59326 13744.12305 -107.96121 483
-4507.31787 13693.77637 125.91349 497
-4696.34229 14261.56543 374.12994 498
-4461.58740 13846.15234 -347.85876 480
-4436.78467 13761.08301 -109.84727 483
-4419.09180 13717.57324 125.96102 498
-4609.22949 14282.30859 375.67014 499
-4375.47949 13865.19727 -348.02844 480
-4347.51074 13784.60352 -109.69952 483
-4334.07373 13740.55664 126.14730 498
-4516.57471 14305.72559 371.70322 499
-4286.96924 13888.26758 -349.13467 480
-4263.50342 13804.16504 -107.06847 491
-4249.59375 13762.13281 128.56749 498
-4405.31152 14259.32324 371.34650 418
-4442.36768 14372.61133 621.15332 499
-4199.02539 13907.75781 -346.93851 480
-4175.39795 13827.41895 -106.93848 491
-4162.29980 13781.80859 129.32631 498
-4314.97363 14275.44238 374.38132 418
-4352.10938 14393.39551 620.76123 499
-4112.05420 13924.49609 -349.72354 480
-4088.70557 13843.91602 -110.04838 491
-4076.71240 13805.29004 127.72456 498
-4222.80811 14296.11328 371.14154 404
-4259.31934 14417.00391 619.17548 499
-4311.90283 14591.40332 877.64795 453
-4024.82617 13947.27930 -347.63934 481
-4001.42554 13869.65137 -107.88957 491
-3991.04346 13828.82812 129.15158 447
-4133.58545 14314.64355 372.42459 404
-4171.57959 14437.54297 622.63983 499
-4210.01758 14575.40234 875.10321 487
-3938.79468 13967.70215 -349.42520 481
-3915.18115 13889.17188 -109.31918 491
-3905.64014 13848.89941 129.37090 464
-4067.38525 14413.53320 373.81430 499
-4079.97559 14459.09961 621.76965 451
-4149.75928 14702.37695 878.17352 325
-3851.62305 13988.09375 -345.69327 481
-3829.28101 13911.18848 -106.58305 491
-3818.88135 13873.13965 126.56239 424
-3967.01660 14405.63770 372.09424 453
-3972.83813 14420.33105 620.51245 452
-3974.36597 14434.52539 864.94238 452
-3764.32861 14006.61426 -346.23264 481
-3740.10522 13930.56152 -107.84833 492
-3736.29028 13900.88477 127.41858 424
-3864.37915 14366.78027 370.17920 454
-3865.74292 14380.82715 618.04474 453
-3869.82739 14398.23730 860.27386 453
-3677.82495 14027.16895 -347.72882 481
-3654.92700 13950.98242 -109.38019 492
-3650.76514 13928.12109 128.46523 302
-3759.16504 14331.02441 370.88144 454
-3759.36499 14344.70508 613.07715 454
-3765.64380 14360.06445 857.07001 454
-3588.27930 14047.93066 -348.50070 481
-3568.01978 13972.72656 -109.25645 492
-3570.80713 13971.90527 129.21059 302
-3654.09790 14293.88281 371.84164 499
-3655.17383 14307.63184 612.50391 455
-3662.83179 14320.25391 854.48389 455
-3504.04053 14070.26758 -347.42236 481
-3482.56885 13994.17676 -107.20187 492
-3487.57642 14014.42090 127.20029 296
-3565.10742 14316.56641 369.29355 499
-3567.84033 14323.90234 610.49213 499
-3567.53491 14328.62793 854.86725 499
-3622.38647 14530.12793 1109.23157 448
-3416.28442 14089.54492 -348.22714 481
-3396.04419 14013.61523 -108.71388 492
-3464.87158 14284.31055 127.17153 499
-3469.67651 14306.31152 368.79312 499
-3471.10767 14312.17871 613.22260 499
-3478.66162 14349.91699 855.95465 499
-3559.58350 14667.01367 1118.96729 480
-3329.87012 14108.73535 -348.18460 481
-3309.96094 14037.40039 -106.96462 492
-3376.97095 14305.43652 129.91248 499
-3380.57227 14329.39648 368.52948 499
-3385.50415 14336.89941 610.58252 499
-3392.01807 14374.53125 854.92505 499
-3469.67090 14692.85059 1118.15710 480
-3445.64282 14592.29590 1608.40747 373
-3447.01953 14591.63086 1855.63147 489
-3241.01245 14129.18262 -345.18921 481
-3225.02466 14057.47363 -108.04165 492
-3286.51807 14327.71582 130.26324 499
-3292.44263 14351.32715 370.77579 499
-3294.09058 14356.37207 612.54944 499
-3301.80249 14393.67773 853.81415 499
-3379.97217 14716.26953 1117.49219 480
-3155.65283 14151.48535 -346.50677 481
-3136.07959 14079.08887 -107.70509 492
-3200.19312 14348.41309 127.45603 499
-3206.93213 14372.14062 371.68829 499
-3207.09302 14380.73340 612.37097 499
-3215.52881 14417.73828 855.30853 499
-3276.31152 14687.35547 1113.87573 475
-3069.40088 14171.35840 -344.59286 481
-3052.41553 14097.66504 -107.90778 492
-3112.73071 14371.14453 126.64424 499
-3117.02734 14394.61426 370.22476 499
-3119.60840 14398.71484 610.91199 499
-3126.29907 14437.16699 853.59424 391
-3200.27466 14759.72559 1121.58716 471
-2981.85791 14191.52246 -346.80606 481
-2966.22705 14120.65723 -108.74596 492
-3022.29565 14392.74902 126.84013 499
-3029.68359 14418.81738 369.51028 499
-3031.76709 14420.60059 611.85773 499
-3040.56079 14466.70410 857.21399 391
-3107.66968 14784.53516 1121.94971 471
-2891.17871 14212.16504 -347.32098 482
-2879.22559 14141.52246 -107.69440 492
-2935.77515 14415.33496 130.53259 499
-2940.07788 14440.17773 370.40997 499
-2944.52026 14444.87207 612.74365 499
-2952.90088 14494.24512 857.40887 391
-3020.13208 14805.72168 1119.55811 471
-2805.02881 14231.99707 -347.76309 482
-2791.12817 14162.11523 -107.23354 491
-2849.98853 14435.35156 129.82381 499
-2851.36255 14460.72754 368.57596 499
-2854.27563 14464.91406 610.82153 499
-2866.40845 14521.57812 854.78107 391
-2927.63818 14833.14648 1121.19214 471
-2719.68921 14254.00488 -347.74915 482
-2704.95923 14182.99512 -108.13017 491
-2758.56250 14457.35449 128.07516 499
-2770.92407 14512.57715 372.81689 499
-2772.45825 14519.20215 611.54889 499
-2776.21558 14548.90430 855.63519 391
-2838.36060 14855.80957 1122.84277 471
-2630.06445 14273.57617 -346.29227 482
-2617.51392 14204.98145 -107.57520 491
-2626.98511 14235.84863 127.51343 430
-2679.91602 14532.17676 369.45023 499
-2681.04077 14539.07227 611.66010 499
-2622.44263 14217.04590 839.43878 498
-2748.61450 14879.82812 1122.30115 470
-2546.11230 14294.99023 -348.34308 482
-2532.80908 14227.36914 -106.48584 491
-2538.37402 14254.65137 129.82794 431
-2593.61206 14554.12012 372.02866 499
-2595.54443 14553.12207 614.53955 478
-2602.37720 14603.06934 857.48792 382
-2657.58716 14902.24121 1122.42688 470
-2456.41382 14315.67773 -348.50809 482
-2445.37842 14246.53125 -107.94046 491
-2448.80884 14271.26270 129.40193 431
-2474.59912 14419.38672 369.33069 470
-2463.37207 14356.44922 605.83832 456
-2515.22217 14628.50098 860.70300 382
-2566.53003 14930.69531 1122.97180 470
-2369.13013 14334.47656 -347.40140 482
-2359.54224 14267.66016 -109.08997 491
-2365.24536 14298.27832 128.11032 437
-2415.96704 14598.07324 372.22763 499
-2416.61035 14606.74707 615.88074 498
-2428.58154 14656.97754 861.33905 382
-2477.60034 14953.17090 1123.49182 470
-2284.86011 14357.51758 -346.12924 482
-2274.97339 14290.74512 -109.43358 491
-2276.93652 14324.66016 130.08371 387
-2326.57764 14620.58301 369.43378 499
-2328.03369 14627.63086 612.45837 498
-2339.62646 14682.94238 858.75189 381
-2197.29468 14375.66699 -348.00961 482
-2184.96680 14313.10547 -109.28014 494
-2229.78760 14585.55664 130.44264 499
-2238.41602 14639.97461 373.66687 498
-2240.65039 14647.38086 616.23938 498
-2249.34814 14708.09668 862.07019 381
-2108.74658 14398.81543 -347.92395 482
-2098.22974 14331.62695 -106.31948 494
-2138.68970 14606.76172 129.99156 499
-2154.91528 14707.72266 374.10638 449
-2156.58740 14706.18164 616.48529 449
-2168.47925 14800.39746 865.50214 354
-2020.94946 14418.38477 -345.67670 481
-2011.95789 14355.68359 -109.81161 494
-2053.45483 14627.37012 128.07945 498
-2076.63452 14791.77441 372.13055 448
-2075.66675 14793.39551 617.58972 448
-2091.63159 14909.31055 869.83850 355
52.53290 265.26642 158.53310 1000
-1934.98071 14439.91895 -348.62988 481
-1923.77502 14378.95312 -107.93179 494
-1962.71826 14649.95410 128.16096 498
-1993.68726 14856.68164 374.83719 470
-1996.29419 14873.08594 620.06323 447
-2013.66003 15016.06445 873.57300 354
-1843.23718 14459.21680 -348.60406 481
-1834.96558 14397.62695 -109.85053 493
-1879.21619 14702.52734 128.75635 412
-1907.59790 14913.91309 376.69824 469
-1912.96582 14959.19238 622.95038 446
-1758.90332 14479.53320 -347.16025 481
-1750.46130 14418.40430 -109.46054 493
-1795.45288 14784.35645 130.49870 411
-1822.58667 14969.79590 376.55466 468
-1670.46655 14499.97559 -350.23654 481
-1662.40686 14442.72363 -109.00699 493
-1727.35266 14967.99414 129.53435 469
-1735.13586 15027.43555 375.27325 468
-1582.26282 14520.60059 -347.93704 481
-1574.87927 14462.35449 -109.48822 493
-1640.93579 15026.94141 128.01001 468
-1494.73071 14544.57227 -348.04697 481
-1488.13965 14485.01367 -106.82917 493
-1551.20557 15069.83496 127.58665 443
-1404.77332 14565.10742 -349.06366 480
-1398.95215 14505.60352 -110.62475 495
-1319.20117 14585.85352 -348.04105 480
-1311.93640 14530.31348 -109.11431 495
-1229.88477 14607.40527 -348.44144 480
-1223.24866 14549.56250 -110.50118 495
-1138.82556 14628.42383 -349.80325 488
-1134.42236 14576.14258 -108.46951 494
-1050.78088 14646.69434 -351.77457 487
-1045.27991 14596.91699 -107.90526 494
-961.88196 14669.70020 -352.43915 487
-957.32794 14620.71387 -110.61217 494
-871.65283 14692.37402 -350.52435 487
-867.90588 14643.79395 -108.23055 493
-782.42096 14713.86816 -351.88742 487
-779.70612 14663.42383 -110.89783 493
-690.82349 14737.36230 -354.30942 486
-692.90692 14686.99707 -112.59610 493
-601.79303 14758.61816 -355.39304 486
-601.14532 14711.02637 -111.82835 493
-514.52417 14782.63770 -356.06650 486
-508.32800 14732.22461 -109.57876 492
-423.95660 14804.54492 -355.18716 485
-420.61945 14753.15430 -110.45332 492
-460.58557 15871.88184 4107.70850 1000
-329.68024 14826.40918 -356.22977 485
-330.91635 14778.28125 -110.01356 492
-241.82422 14850.50879 -357.43472 485
-237.75963 14800.55078 -113.21910 491
-151.89757 14956.39160 -605.63556 474
-149.19614 14870.78809 -356.64081 485
-149.48477 14826.22168 -112.47799 491
-57.33036 14975.90039 -605.45752 474
-59.84692 14893.99414 -358.26572 484
-57.42750 14848.53516 -112.37348 491
34.25927 14997.16016 -605.03705 473
33.78184 14916.42773 -357.34473 484
32.44881 14871.64551 -112.87840 490
126.15865 15020.95703 -607.45599 473
125.32473 14939.38379 -359.93481 483
126.21260 14893.67383 -115.10149 490
217.44997 15042.53613 -607.96356 473
215.70790 14963.08594 -360.58304 483
215.35323 14918.08301 -115.02623 489
310.60818 15063.33594 -609.09143 472
67.23879 4609.85400 -151.49117 483
310.16672 14939.23047 -113.13678 489
403.51285 15087.75977 -610.23822 472
402.25586 15009.06445 -358.86880 482
401.15710 14961.26660 -114.44263 489
498.06149 15109.66113 -612.81537 472
494.25790 15031.17285 -363.55524 482
493.19092 14988.63867 -116.03291 488
592.40173 15131.03027 -613.46765 471
590.06342 15053.52148 -361.97388 482
588.57031 15008.92188 -114.59719 488
684.91455 15156.92480 -612.97632 471
682.99213 15077.29785 -361.61133 481
681.33240 15036.97949 -116.82018 371
780.37335 15177.82617 -616.69104 470
776.04352 15098.11621 -364.30893 481
775.15216 15069.31934 -118.08125 371
874.81238 15202.14746 -615.48401 470
868.74878 15122.20117 -363.95673 480
870.00507 15101.28418 -117.15079 371
967.91620 15222.61719 -618.03644 470
966.34741 15147.01367 -367.21918 480
963.38879 15130.78223 -116.55702 437
1064.55115 15246.29492 -618.54553 469
1061.55884 15168.87109 -365.67499 479
1057.23145 15151.78320 -117.57553 437
1162.22180 15269.98242 -620.61853 469
1156.89978 15194.20996 -369.84561 479
1155.55420 15171.32324 -119.54316 436
1260.03125 15291.67578 -622.26855 468
1253.35303 15216.55957 -366.93127 479
1248.97302 15195.84473 -116.56699 436
1354.46997 15321.95703 -624.37463 454
1345.58264 15240.31055 -370.60333 478
1346.70337 15216.99121 -118.90302 403
1451.38879 15358.98535 -625.62323 454
1443.46313 15262.41406 -370.96350 478
1442.46143 15255.61523 -121.46836 403
1551.09741 15395.92773 -629.48663 455
1543.49243 15292.17480 -372.03293 455
1541.82141 15293.89258 -119.17612 315
1650.79346 15440.37598 -629.79480 455
1643.36121 15331.96484 -373.19931 455
1639.76270 15340.29883 -120.64442 315
1753.05042 15478.99023 -635.80200 454
1740.74219 15371.59473 -376.15091 454
1775.99084 15710.29102 -129.57556 411
1852.54553 15518.00977 -638.14709 453
1838.89648 15410.61035 -375.81665 453
1880.40320 15740.02734 -128.70602 411
1953.28833 15556.45508 -636.40070 453
1941.28027 15450.32617 -378.91687 453
1936.75476 15412.71680 -122.35710 473
2058.51294 15611.66309 -639.86487 408
2042.19885 15492.62598 -379.75256 452
2037.37646 15450.17676 -123.33445 474
2164.65820 15680.75000 -646.66754 408
2144.42261 15530.52441 -383.39651 451
2324.02417 16878.74023 -145.66696 447
2275.53003 15769.24512 -649.42065 385
2248.40601 15574.12402 -382.80380 452
2430.14429 16882.23242 -146.56580 466
2386.98730 15855.52930 -656.12158 384
2352.65039 15621.61035 -383.49490 408
2500.61255 15944.84863 -663.06689 383
2461.61938 15693.89551 -388.88950 407
2615.15430 16053.00781 -664.95654 356
2571.82642 15768.55078 -389.48645 406
2684.96338 15840.33887 -396.34479 405
2672.18872 15764.12988 -129.15707 374
2795.56494 15917.50781 -397.24020 383
2778.88330 15819.02734 -129.59453 431
2917.42188 16018.43652 -399.16721 356
2893.14355 15889.97363 -131.39120 428
3041.96899 16142.03125 -406.98383 355
3009.49072 15979.71973 -135.41751 333
3166.20996 16265.29199 -410.73093 354
748.48718 1789.81897 -87.28174 376
756.85144 1778.51282 -86.05621 498
759.06427 1783.91309 -55.12079 497
761.49756 1790.00525 -24.68470 478
768.70990 1776.41650 -86.63994 464
771.39178 1782.31763 -55.70750 414
774.92487 1793.38123 -25.34330 485
24087.01758 47957.70312 -3382.70117 1000
6797.83496 6108.94336 -2292.90820 1000
51166.77344 35619.75000 -4928.53955 1000
2524.70166 1427.15869 -97.58167 415
2518.02124 1403.29688 -96.13216 455
2517.00098 1382.89563 -94.65712 456
2517.18213 1362.45776 -94.21364 467
2517.75781 1343.98523 -93.20309 468
2519.40332 1324.85034 -93.22874 483
2522.58862 1307.28088 -92.13586 483
460.85880 243.32487 -42.36540 461
2529.76172 1272.78809 -91.79499 460
2534.91870 1256.08752 -91.28078 465
2539.97363 1239.69446 -91.40833 464
2545.18140 1223.06384 -90.99693 464
2550.12500 1207.05957 -90.72223 465
2556.07251 1190.99121 -90.94149 466
2563.20898 1175.24365 -90.23000 393
2569.74854 1159.71985 -90.36298 393
2576.61157 1144.82837 -90.55945 393
2635.21191 1171.82080 -49.79834 499
2583.30859 1129.06616 -90.36318 393
2643.82910 1156.18335 -49.76553 499
2591.05811 1113.87927 -90.44855 393
2597.93994 1098.62830 -90.65268 393
2605.48560 1083.06897 -90.73473 393
2613.02979 1068.09949 -90.66137 392
2621.04932 1053.34619 -91.13713 392
2628.75684 1037.80481 -90.78009 391
2636.64722 1022.89929 -90.89337 392
2700.94922 1048.72131 -50.05212 498
2745.81274 1066.97375 40.31096 445
2643.94775 1007.90515 -90.95849 392
2709.16919 1033.79810 -50.47952 497
2768.99609 1057.24353 -7.19140 346
2746.98169 1048.73267 40.78727 496
2651.47803 992.11035 -91.33752 392
2790.12891 1045.84973 -7.95796 497
2762.61841 1035.39819 40.13633 400
2658.99365 976.88464 -91.68630 392
2767.06982 1017.77179 40.77610 497
2768.01514 1018.36151 87.49725 469
2666.71411 962.41809 -91.86721 391
2674.06470 946.52655 -91.81425 391
2888.97583 1025.27991 -61.13929 497
181.79626 65.16850 -15.70829 391
2809.53027 977.04449 -55.53247 496
2689.19189 915.62225 -91.97323 391
2728.37500 929.96246 -49.09046 496
2697.09180 900.55975 -91.93436 391
2736.80029 913.96472 -49.83855 496
2704.71924 885.38446 -92.31847 391
2711.70801 869.99432 -92.66065 391
2719.07104 854.36597 -92.76202 391
2887.77441 908.53302 38.12402 469
2907.53027 915.04199 85.76707 495
2727.08350 838.91235 -93.13977 391
2802.40869 862.89825 -5.56011 399
2812.10547 865.70856 40.78596 487
2820.71045 868.70831 86.97731 413
2734.81714 823.50275 -93.49817 463
2743.23755 807.85272 -93.40253 463
2750.99194 792.54932 -93.67274 463
2758.97412 776.70398 -93.72645 462
2766.84033 760.96753 -93.96339 462
2774.71606 745.64160 -94.67779 462
2783.32373 730.23486 -94.70698 462
2790.80493 714.64410 -95.10040 461
2799.44946 699.11578 -95.82995 461
2807.27759 682.99310 -95.93841 461
2946.93604 718.00598 -58.84938 491
2816.03101 667.08002 -96.25176 460
2824.08911 651.44928 -96.43680 460
2832.20874 635.20660 -96.60738 460
2839.95459 619.54932 -97.28954 459
2854.86035 604.66455 -98.19292 431
2870.06958 590.81189 -98.89828 430
2885.99365 575.98608 -100.57922 362
22370.81836 3164.94849 -223.31216 1000
48648.16016 573.86597 -11165.83887 1000
25687.12695 -3662.78345 5728.07422 1000
2408.35815 -478.03064 -60.78235 494
2415.04028 -479.04828 -22.27216 492
2420.51196 -480.38522 16.38465 490
2407.28491 -492.99658 -61.07534 476
14827.54004 -4197.60449 -1371.94421 1000
34941.85156 -10862.85254 -1649.81299 1000
4730.33789 -2310.62598 -35.82661 442
4729.71338 -2345.67236 -36.74578 447
4732.06152 -2383.33057 -37.27958 445
4736.63818 -2420.51416 -37.51994 441
4741.19775 -2459.78760 -38.99732 441
4745.05908 -2499.45312 -39.94881 435
4757.71484 -2542.33862 -40.15220 417
4778.73975 -2592.44385 -41.44916 368
4815.30664 -2649.40430 -43.93010 340
4864.71191 -2715.46753 -47.14951 347
4910.30371 -2781.89380 -48.59591 347
4959.10205 -2850.77295 -51.91999 346
3316.31665 -2193.02295 5.52985 274
4078.64087 -4208.96777 37.80922 270
4029.64307 -4210.63379 38.68038 349
3986.24023 -4213.70703 39.17358 350
3898.04956 -4327.49707 132.69365 291
3884.87793 -4313.89697 226.04277 273
3830.30127 -4303.81348 132.81995 480
3815.29663 -4287.73145 224.95731 465
3793.57007 -4315.76318 132.98212 481
3791.22388 -4312.73291 224.81819 497
3737.65723 -4303.39648 40.45001 471
3763.35083 -4333.25000 132.59364 498
3762.60107 -4331.40820 224.95175 498
3708.04248 -4320.62939 39.44279 474
3733.04956 -4352.27881 132.28151 498
3732.19946 -4351.30029 224.64577 498
3676.65015 -4339.24121 39.63599 475
3700.95703 -4367.21924 131.78392 498
3699.56665 -4366.33887 225.25636 483
3647.65332 -4358.32080 40.08929 440
3671.43384 -4385.67822 131.88866 498
3670.25244 -4384.79883 224.56589 498
39813.25000 -48735.69141 4255.20166 1000
3620.16284 -4378.39258 40.65254 441
3643.27979 -4406.79785 132.98088 274
3645.12476 -4408.06104 224.94992 498
3592.10181 -4398.02051 40.13230 446
3617.18555 -4429.35986 132.27367 498
3614.34521 -4427.42090 224.27243 498
3564.47241 -4420.51123 40.55262 384
3586.80298 -4447.80029 132.12360 499
3587.52124 -4447.55664 224.30084 499
3537.54980 -4442.04053 40.30882 384
3557.52856 -4467.86963 132.72205 499
3557.26978 -4466.19189 224.77364 499
3563.51147 -4475.57373 317.18378 485
3630.21851 -4618.96826 132.58189 499
3607.36694 -4588.24512 321.13828 267
3547.61133 -4568.39404 320.46109 492
3551.53198 -4633.70020 322.21613 351
26521.63086 -35440.58203 11206.98633 1000
3425.17065 -4701.35693 132.29761 496
3314.52295 -4604.32568 131.46660 311
3280.28003 -4616.58691 132.04343 394
3251.31128 -4632.56592 132.52530 394
3233.91162 -4670.31641 131.74071 487
14902.52637 -22338.34375 -6116.51416 1000
3235.61890 -4734.25098 132.24478 484
3203.46924 -4748.54590 131.49646 489
2153.07812 -3892.52979 133.81351 459
28429.52930 -58593.53906 5485.40039 1000
1512.83789 -3188.89233 132.86169 320
1464.88892 -3131.51245 133.41075 321
1437.98303 -3124.17212 77.34293 323
1418.17737 -3076.70093 132.69516 323
1394.39404 -3074.70459 77.84770 317
1373.53479 -3023.61060 133.37309 324
1351.95032 -3025.29565 79.52573 313
1329.86145 -2972.37915 133.12321 325
1311.46814 -2978.69604 80.48836 315
1292.09180 -2932.24609 133.31792 362
1272.96558 -2937.09180 81.35139 344
1261.55725 -2908.50317 133.05287 387
1243.14441 -2914.43994 81.96963 356
1233.86987 -2889.98950 132.44238 391
1214.63953 -2895.54492 81.56091 361
1206.67236 -2872.96362 133.01054 406
1230.59448 -2936.20630 184.27853 462
1188.40344 -2879.54150 82.39880 366
1181.07812 -2859.26270 132.96878 414
1214.55542 -2948.72314 184.89960 462
1162.63049 -2865.09814 82.97550 374
1156.59448 -2848.94385 133.20267 424
1199.09595 -2961.47827 184.54724 461
1138.58411 -2852.87939 83.13917 386
1133.12378 -2839.68408 132.63272 435
1183.15552 -2975.86841 184.76180 463
1115.18176 -2843.33911 82.92890 395
1110.23303 -2830.61011 133.15483 427
1167.29895 -2988.82227 185.12569 462
1092.07007 -2833.41479 83.75977 397
1088.50610 -2823.13623 132.65402 432
1151.69617 -3001.97632 185.11099 462
1069.06836 -2823.05029 83.66608 398
1066.19250 -2815.13086 133.01840 430
1135.51990 -3014.87598 185.01186 461
1048.35352 -2820.29419 83.81486 298
1044.41284 -2808.90015 133.01099 421
1118.56812 -3028.01001 184.65015 461
1034.36365 -2837.24243 83.38671 298
1023.55823 -2803.88818 132.27405 404
1102.83386 -3041.10986 185.45528 460
1020.88397 -2854.73169 83.39679 298
1008.87360 -2816.39331 132.71719 289
1091.11292 -3068.74829 185.50879 354
1024.93408 -2926.70044 133.04930 273
12274.74414 -38184.42578 5414.23926 1000
5107.64404 -26680.04297 577.23022 1000
-3811.54761 -33602.95312 -5458.66357 1000
-4675.42725 -24836.98047 3036.97534 1000
-853.19751 -2813.02905 374.59604 356
-722.33887 -2119.90112 131.51344 496
-721.68561 -2117.71338 168.68361 496
-720.97125 -2115.58545 206.07283 497
-720.19141 -2113.59033 243.19449 496
-719.62347 -2111.95630 279.73254 496
-718.89056 -2110.63794 317.48746 471
-718.25342 -2108.78491 354.62546 471
-574.65894 -1416.51843 80.52094 498
-573.69812 -1415.14343 106.05870 498
-572.98840 -1413.10596 131.79199 498
-572.15057 -1411.42322 157.32246 499
-571.19250 -1409.61133 182.64746 492
-570.71564 -1408.00916 208.37157 492
-569.86047 -1406.24609 233.81111 492
-569.13184 -1404.62183 259.11478 492
-568.22723 -1403.04919 284.70959 492
-567.44916 -1401.34473 310.21371 461
-12395.96875 -16600.26758 -4361.44482 1000
-3497.18701 -2760.42969 -315.77866 1000
-34397.85547 -25814.56055 -7718.62549 1000
90.11183 -2.99712 128.24638 353
89.72614 -3.13240 128.38615 310
90.22656 -2.88078 128.27049 355
89.75313 -3.04471 128.38564 310
88.75091 -3.39313 128.38750 306
90.33749 -2.76830 128.29507 356
89.78101 -2.95968 128.38777 310
88.77551 -3.30154 128.38809 306
90.45050 -2.65836 128.31792 357
89.80875 -2.87221 128.38652 310
88.80223 -3.20793 128.38644 306
90.55725 -2.55015 128.33899 359
89.83849 -2.78516 128.38695 310
88.82900 -3.11535 128.38567 306
90.66527 -2.44128 128.36205 360
89.86788 -2.69747 128.38600 310
88.85732 -3.02169 128.38792 306
90.77090 -2.33665 128.38213 361
89.89629 -2.61116 128.38651 310
88.88342 -2.93037 128.38618 306
87.71559 -3.29339 128.38681 302
90.81786 -2.25040 128.38614 314
89.92754 -2.52286 128.38710 310
88.91283 -2.83336 128.38576 306
87.74409 -3.19306 128.38821 302
90.84962 -2.16909 128.38710 314
89.95833 -2.43538 128.38649 310
88.94218 -2.74117 128.38676 306
87.77213 -3.09344 128.38785 302
90.88065 -2.08661 128.38617 314
89.98809 -2.34996 128.38559 310
88.96970 -2.64763 128.38640 306
87.79870 -2.99035 128.38692 302
90.91409 -2.00405 128.38559 314
90.02145 -2.26143 128.38673 310
88.99960 -2.55433 128.38556 306
87.82743 -2.88920 128.38596 302
90.94827 -1.92334 128.38695 314
90.05114 -2.17309 128.38533 310
89.03030 -2.46019 128.38524 306
87.85599 -2.78876 128.38795 302
90.98204 -1.84014 128.38721 314
90.08499 -2.08521 128.38693 310
89.06203 -2.36502 128.38655 306
87.88622 -2.68808 128.38797 302
91.01692 -1.75852 128.38603 314
90.11833 -1.99636 128.38602 310
89.09408 -2.27130 128.38782 306
87.91569 -2.58536 128.38580 302
86.54655 -2.95014 128.38470 298
91.05076 -1.67624 128.38602 314
90.15194 -1.91017 128.38553 310
89.12782 -2.17591 128.38519 306
87.94741 -2.48488 128.38748 302
86.57484 -2.83964 128.38599 298
91.08640 -1.59288 128.38672 314
90.18652 -1.82209 128.38731 310
89.15982 -2.08096 128.38730 306
87.97975 -2.38106 128.38634 302
86.60534 -2.73043 128.38672 298
91.12337 -1.51157 128.38737 314
90.22043 -1.73463 128.38646 310
88.10656 -2.25751 128.12558 367
88.01060 -2.28095 128.38756 302
86.63395 -2.61987 128.38716 298
91.15958 -1.42735 128.38742 314
90.25731 -1.64547 128.38783 310
87.92300 -2.20494 128.07460 366
87.92117 -2.20588 128.35934 366
86.66444 -2.50867 128.38528 298
91.19575 -1.34604 128.38684 314
90.29250 -1.55586 128.38612 310
87.73267 -2.15605 128.01891 364
87.73428 -2.15607 128.30862 365
86.69691 -2.40049 128.38538 298
91.23521 -1.26244 128.38751 314
90.32903 -1.46785 128.38710 310
87.53698 -2.10462 127.96574 363
87.53701 -2.10459 128.26126 364
86.73027 -2.28870 128.38614 298
91.27178 -1.18004 128.38658 314
90.36668 -1.38004 128.38771 310
87.33674 -2.05150 127.91066 362
87.33887 -2.04963 128.20915 362
86.76285 -2.17640 128.38550 298
91.31032 -1.09861 128.38757 314
90.40322 -1.29105 128.38771 310
87.14455 -1.99240 127.85364 454
87.14169 -1.99302 128.15631 455
86.79743 -2.06429 128.38690 298
91.35058 -1.01418 128.38618 314
90.44155 -1.20445 128.38579 310
87.05743 -1.90746 127.82737 453
87.05844 -1.90925 128.12947 454
86.83167 -1.95422 128.38560 298
91.38842 -0.93118 128.38675 314
90.48135 -1.11400 128.38704 310
86.97269 -1.82315 127.80001 452
86.97286 -1.82186 128.10254 453
86.86546 -1.84346 128.38629 298
91.42943 -0.84924 128.38660 314
90.51853 -1.02661 128.38675 310
86.96409 -1.71916 127.78863 306
86.88543 -1.73703 128.07658 452
86.88468 -1.73647 128.38168 453
91.46944 -0.76584 128.38651 314
90.56020 -0.93801 128.38753 310
86.99911 -1.61072 127.78574 306
86.79728 -1.64699 128.05170 451
86.79642 -1.64775 128.35980 452
91.50980 -0.68280 128.38635 314
90.59918 -0.84902 128.38533 310
87.03419 -1.49925 127.78870 306
86.71041 -1.55887 128.02266 451
86.71191 -1.55919 128.33206 451
85.33603 -1.81198 128.38571 294
91.55207 -0.59789 128.38568 314
90.64087 -0.76032 128.38649 310
87.07177 -1.38757 127.78910 306
86.61754 -1.46981 127.99331 450
86.61990 -1.46736 128.30603 450
85.37441 -1.68978 128.38625 294
91.59489 -0.51482 128.38644 314
90.68291 -0.67085 128.38737 310
87.11012 -1.27924 127.78593 306
86.52862 -1.37575 127.96700 449
86.52576 -1.37729 128.28023 449
85.41010 -1.56859 128.38628 294
91.63815 -0.43249 128.38708 314
90.72324 -0.58152 128.38705 310
87.14863 -1.16900 127.78890 306
86.43460 -1.28362 127.93587 448
86.43437 -1.28599 128.25546 449
85.44888 -1.44356 128.38800 294
91.68044 -0.34967 128.38701 314
90.76611 -0.49165 128.38754 310
87.18624 -1.05582 127.78842 306
86.34167 -1.18863 127.90903 447
86.34061 -1.19149 128.22853 448
85.48631 -1.32610 128.38803 294
91.72346 -0.26544 128.38733 314
90.81033 -0.40373 128.38702 310
87.22672 -0.94497 127.78895 306
86.28698 -1.08553 127.88879 492
86.28661 -1.08746 128.20973 493
85.52522 -1.20418 128.38582 294
91.76691 -0.18170 128.38776 314
90.85247 -0.31544 128.38789 310
87.26917 -0.83397 127.78855 306
86.25703 -0.97872 127.87336 492
86.25859 -0.97858 128.19495 493
85.56628 -1.08067 128.38446 294
91.79276 -0.10238 128.38167 472
90.89550 -0.22527 128.38628 310
87.31190 -0.72337 127.78724 306
86.22876 -0.87461 127.85793 492
86.22954 -0.87163 128.17914 493
85.60526 -0.95985 128.38458 294
91.81620 -0.02161 128.37491 473
90.94017 -0.13753 128.38625 310
87.34961 -0.61253 127.78941 306
86.20205 -0.76413 127.84462 492
86.20316 -0.76447 128.16652 493
85.64838 -0.83709 128.38586 294
91.80629 0.05496 128.36096 489
90.98591 -0.04773 128.38736 310
87.39575 -0.50103 127.78691 306
86.17280 -0.65376 127.82705 492
86.17255 -0.65465 128.15184 492
85.68935 -0.71471 128.38658 294
91.78691 0.13146 128.34286 489
91.03265 0.04061 128.38759 310
87.43566 -0.39025 127.78790 306
86.14267 -0.54449 127.81244 491
86.14262 -0.54397 128.13710 492
85.73558 -0.59372 128.38815 294
91.76575 0.20698 128.32480 488
91.07878 0.12947 128.38638 310
87.48243 -0.27724 127.78594 306
86.11182 -0.43451 127.79688 491
86.11066 -0.43281 128.12207 492
85.77704 -0.46998 128.38713 294
91.74598 0.28511 128.30550 488
91.12584 0.21929 128.38556 310
87.52466 -0.16766 127.78739 306
86.12067 -0.31695 127.78663 302
86.08200 -0.32383 128.10756 492
85.82250 -0.35078 128.38577 294
91.72446 0.36338 128.28749 488
91.17300 0.30722 128.38525 310
87.57043 -0.05392 127.78687 306
86.16502 -0.19809 127.78558 302
86.04905 -0.20859 128.09312 492
85.86785 -0.22938 128.38611 294
91.70171 0.44401 128.27054 488
91.22095 0.39683 128.38611 310
87.61604 0.05432 127.78621 306
86.20997 -0.07743 127.78610 302
86.02012 -0.09682 128.07968 491
85.91238 -0.10506 128.38617 294
91.68079 0.52241 128.25169 487
91.26859 0.48598 128.38557 310
87.66373 0.16691 127.78680 306
86.25451 0.04177 127.78623 302
86.00230 0.02063 128.06528 480
85.96210 0.01565 128.38585 294
91.66029 0.60388 128.23222 487
91.31684 0.57610 128.38626 310
87.71017 0.27628 127.78823 306
86.30236 0.16246 127.78706 302
86.03319 0.14065 128.06320 480
86.00885 0.13719 128.38637 294
91.63650 0.68392 128.21159 487
91.36671 0.66579 128.38571 310
87.75898 0.38760 127.78722 306
86.34782 0.28106 127.78779 302
86.06635 0.26203 128.05962 481
86.05804 0.25856 128.38576 294
91.61493 0.76711 128.19322 487
91.41596 0.75316 128.38750 310
87.80605 0.50233 127.78660 306
86.39893 0.40390 127.78858 302
86.09591 0.38206 128.05666 481
86.09713 0.37894 128.38496 482
91.59211 0.85023 128.17415 486
91.46658 0.84344 128.38724 310
90.41935 0.77488 128.38544 306
86.44501 0.52273 127.78790 302
86.13119 0.50194 128.05109 482
86.13079 0.50380 128.37961 483
91.57116 0.93437 128.15491 486
91.51728 0.93029 128.38570 310
90.46973 0.87005 128.38693 306
86.49598 0.64256 127.78876 302
86.16399 0.62264 128.04707 482
86.16365 0.62469 128.37639 483
91.54887 1.01911 128.13440 486
91.54779 1.01984 128.38141 487
90.52235 0.96838 128.38779 306
86.54602 0.76320 127.78825 302
86.19221 0.74432 128.04350 483
86.19344 0.74307 128.37329 483
91.52356 1.10571 128.11420 485
91.52444 1.10412 128.36316 486
90.57505 1.06083 128.38741 306
86.59881 0.88414 127.78798 302
86.22802 0.86352 128.04120 483
86.22792 0.86645 128.37186 484
91.50133 1.18995 128.09444 485
91.50144 1.19277 128.34279 486
90.62600 1.15826 128.38522 306
86.65086 1.00244 127.78667 302
86.25829 0.98552 128.03700 484
86.26024 0.98670 128.36682 484
91.47768 1.27878 128.07365 485
91.47810 1.27888 128.32455 486
90.67970 1.25292 128.38698 306
86.70287 1.12338 127.78821 302
86.29366 1.10905 128.03270 484
86.29226 1.10528 128.36261 485
91.45421 1.36663 128.05409 484
91.45368 1.36685 128.30383 485
90.73406 1.34678 128.38515 306
86.75749 1.24095 127.78659 302
86.38432 1.23082 128.04030 418
86.38045 1.23040 128.37105 419
91.43008 1.45530 128.03320 484
91.43070 1.45594 128.28488 485
90.78838 1.44415 128.38623 306
86.81124 1.36247 127.78620 302
86.50439 1.35591 128.05362 419
86.50355 1.35398 128.38327 420
91.40678 1.54714 128.01012 484
91.40506 1.54715 128.26465 485
90.84183 1.53898 128.38521 306
86.86679 1.48279 127.78596 302
86.62795 1.47741 128.06505 420
86.58350 1.47723 128.38799 294
91.38222 1.63864 127.98857 483
91.38060 1.63764 128.24409 484
90.89970 1.63331 128.38742 306
86.92065 1.60066 127.78809 302
86.74976 1.59804 128.08177 421
86.63826 1.59751 128.38499 294
91.35684 1.73035 127.96749 483
91.35822 1.73058 128.22421 484
90.95367 1.72953 128.38646 306
89.75275 1.72598 128.38734 302
86.86804 1.72063 128.09163 423
86.69820 1.71924 128.38753 294
