# .PCD v.7 - Point Cloud Data file format
VERSION .7
FIELDS x y z rgb
SIZE 4 4 4 4
TYPE F F F U
COUNT 1 1 1 1
WIDTH 1268
HEIGHT 1
VIEWPOINT 6904.214844 -2639.476807 133.261063 -0.609277 -0.116639 -0.086789 0.779516
POINTS 1268
DATA ascii
-195.33383 1.79936 53.28303 324
-195.35365 3.60396 53.27026 324
-195.33746 5.43014 53.31007 324
-195.32132 7.24653 53.32145 324
-195.29460 8.99190 53.25428 324
-195.31088 10.80845 53.25678 324
-16637.42969 2634.06494 684.84094 453
-290.61340 64.38030 40.20433 314
-16564.96875 2726.67627 683.26825 457
-16467.44141 2709.50122 954.32733 474
-288.61896 66.52160 40.50375 341
-16498.51562 2820.73901 677.03760 463
-16403.32617 2804.51904 950.26495 475
-270.58121 65.70505 38.31034 347
-287.04626 68.66407 40.85149 319
-16434.71484 2915.18506 675.96521 464
-16341.53125 2897.39551 948.70319 475
-268.77805 67.75262 38.62698 345
-288.95532 71.36024 40.27952 318
-16372.72656 3007.36401 676.85547 464
-16277.45996 2990.92944 945.61096 476
-269.27557 70.18512 38.38092 322
-16308.03906 3098.12549 675.70984 465
-16212.46191 3082.17505 944.31616 477
-16247.59863 3190.72388 673.40582 465
-16153.50879 3173.08545 940.22852 477
-16188.60645 3285.03394 672.86389 466
-16093.00000 3263.57739 939.36383 478
-16127.50586 3376.72925 668.02936 467
-16029.55176 3356.75073 938.51135 479
-16066.12793 3465.61646 670.17877 467
-15972.50684 3447.06787 934.06287 479
-16004.08008 3554.96265 665.89642 468
-15910.99414 3536.05737 932.74506 480
-15944.92188 3647.14697 667.63379 468
-15854.03418 3625.69092 932.95471 480
-15884.10352 3736.83667 662.44385 469
-15792.01660 3714.94897 929.45868 481
-15826.80371 3825.88525 665.21277 469
-15732.89746 3804.09399 926.70026 481
-15762.66699 3914.78003 662.64276 470
-15677.93750 3892.76318 925.66840 482
-15706.46387 4003.47803 661.67065 470
-15618.56250 3981.44604 924.30402 482
-15644.95605 4092.19189 657.44128 471
-15560.81641 4069.04126 920.25464 483
-15586.76270 4176.16699 659.31732 471
-15500.73145 4154.50342 918.81610 483
-15528.97363 4264.12695 655.35254 472
-15442.29492 4244.20166 920.49817 484
-15471.41406 4353.34326 655.75208 472
-15387.60547 4332.39746 916.02570 484
-15413.99609 4438.89502 656.54333 472
-15330.60645 4416.41992 914.79962 485
-15355.64160 4525.25928 656.03833 473
-15273.16699 4500.30713 912.08838 485
-15298.13672 4613.32422 652.58844 473
-15215.48438 4585.70117 913.25555 486
-15241.72461 4697.87207 649.57037 474
-15162.32227 4674.28467 911.68823 486
-15183.24609 4783.87207 652.68195 474
-15102.13672 4756.95654 907.81335 486
-15128.93750 4869.83838 648.55109 475
-15045.61621 4843.26172 905.81860 487
-15070.06152 4954.02197 650.30688 475
-14993.93750 4926.18799 904.38782 487
-15015.07617 5039.27832 647.96637 475
-14938.14160 5012.07910 906.03308 488
-14956.29883 5122.56201 646.15747 476
-14879.81055 5094.34326 902.33545 488
-14899.38379 5204.40234 647.38452 476
-14823.85254 5177.10840 903.92572 491
-14845.98242 5289.88721 646.01349 476
-14768.71680 5260.34766 899.67377 491
-14789.31250 5371.64355 642.12134 477
-14717.16406 5344.94287 897.88855 492
-14735.58789 5454.21729 643.34100 477
-14659.21289 5428.09814 900.48462 492
-8109.47949 3039.16675 280.29062 477
-14605.82715 5513.00146 895.65540 492
-15324.67578 5780.99658 1203.15930 479
-14622.72656 5622.38037 641.52411 478
-14552.26855 5591.70166 894.67194 493
-15249.18262 5861.24854 1200.75281 480
-14568.09668 5702.20312 641.93402 478
-14498.91504 5674.26416 895.53644 493
-15173.48145 5937.80225 1197.81567 481
-14512.84766 5786.78125 641.31348 478
-14442.76758 5758.40576 893.56342 493
-15098.59180 6019.61719 1197.49292 481
-14457.01855 5867.47217 640.05798 479
-14388.18457 5837.55566 890.87274 494
-15022.20605 6093.64844 1194.50342 482
-14401.76855 5947.26172 638.52509 479
-14333.79785 5919.84912 893.48260 494
-14950.24219 6173.58350 1191.49414 482
-14348.92383 6029.92822 639.09027 479
-14280.14648 6001.82617 890.99689 494
-14877.45996 6252.82715 1190.42236 483
-14294.43359 6109.96533 636.87195 480
-14228.40918 6081.74072 888.97931 494
-14805.13379 6326.43652 1187.89941 483
-14241.06445 6191.97021 635.50525 480
-14176.90625 6163.34912 887.88690 494
-14729.86133 6405.83252 1185.12280 484
-14186.24219 6272.28320 637.84979 480
-14122.99023 6244.73975 890.10931 495
-14668.11230 6487.45850 1183.75098 495
-14132.61133 6353.59375 633.77460 480
-14066.04883 6324.53076 888.85919 495
-14614.38965 6570.51807 1181.23450 495
-14075.77246 6432.60205 637.04578 481
-14016.11621 6408.28174 885.97028 495
-14556.44531 6652.18994 1177.85889 496
-14022.29590 6513.50537 635.75757 481
-13959.95508 6486.78027 884.53717 495
-14499.33398 6735.68799 1177.24719 496
-13968.89941 6595.84766 631.71063 481
-13907.13184 6564.87891 883.29236 496
-14441.57617 6817.88525 1178.18823 496
-13916.47656 6673.11914 631.93469 481
-13856.06152 6648.99023 886.33630 496
-14386.46973 6900.06934 1174.14746 496
-13862.38379 6755.35645 634.18506 481
-13802.02051 6727.81152 881.60992 496
-14333.17676 6983.99365 1176.18640 497
-34313.83594 16907.39648 -4295.54980 1000
-13807.64453 6835.26855 633.67407 482
-13749.79102 6806.40479 881.96051 496
-14219.54980 7039.65723 1170.24109 311
-13849.65430 6959.36816 379.95486 479
-13752.84180 6912.38184 632.47046 482
-13697.67969 6884.65723 881.89996 496
-14137.40430 7103.85400 1165.35400 417
-13794.31641 7039.90039 378.49167 479
-13701.16113 6993.58496 631.40448 482
-13645.74512 6965.71289 882.69598 497
-14079.30371 7185.49756 1164.91064 403
-14196.12695 7244.59668 1439.75769 497
-13739.17578 7117.96045 378.54620 479
-13648.08691 7072.05664 632.05115 482
-13594.73926 7042.92969 882.37457 497
-14024.94727 7268.38281 1165.87988 404
-14140.89941 7328.44092 1438.47803 497
-13689.08691 7198.57812 377.19061 479
-13595.35840 7152.21973 630.54846 490
-13540.07520 7122.12354 879.59003 497
-13967.80664 7346.33594 1163.80591 404
-14087.31934 7412.06348 1434.47327 497
-14206.86426 7471.23291 1713.97827 463
-13633.54102 7280.45117 378.48071 480
-13543.36816 7229.67969 631.43274 490
-13488.94727 7203.63965 878.86200 497
-13922.38281 7432.56738 1165.89819 372
-14028.96387 7493.14160 1434.43494 498
-14184.99707 7570.85303 1715.61389 390
-13579.62891 7359.37109 376.98346 480
-13487.66895 7309.29834 628.24457 491
-13435.09570 7280.99707 879.86646 497
-13927.09180 7548.96484 1167.31555 442
-13927.14258 7545.79004 1432.34290 442
-13947.49805 7555.62354 1693.03442 356
-13527.62109 7440.39404 377.49179 480
-13437.10938 7390.16553 629.37250 491
-13380.65039 7361.69287 880.63220 497
-13811.53613 7595.91797 1162.33997 443
-13806.67578 7595.34814 1424.11584 443
-13818.65723 7601.82178 1685.40649 356
-13470.38281 7518.10547 378.49576 480
-13380.76953 7469.41992 627.57483 491
-13332.28418 7439.85254 880.02155 497
-13698.73828 7643.33447 1156.13794 444
-13695.06934 7643.11475 1415.51758 444
-13696.65332 7642.31055 1677.30383 357
-13418.82129 7596.57129 379.63138 480
-13331.96875 7546.63232 629.93073 491
-13280.52637 7521.81396 880.21399 376
-13588.94043 7693.93945 1151.94348 498
-13584.12891 7691.89307 1412.68506 498
-13578.49316 7690.13770 1668.34253 391
-13368.07227 7675.40869 379.10492 480
-13278.33203 7626.70850 628.03241 491
-13229.40527 7600.20752 877.96106 447
-13533.69531 7772.09766 1154.38794 498
-13530.09766 7771.59814 1408.66296 498
-13528.06641 7771.34766 1666.87085 391
-13701.30566 7867.29102 1952.76306 441
-13691.58398 7863.34424 2213.37939 441
-13683.13184 7861.75635 2475.07812 440
-13675.29590 7856.64307 2741.93188 440
-13673.83301 7853.70850 3009.74048 468
-13313.48340 7754.24805 379.00165 480
-13222.67871 7705.31152 628.93243 491
-13177.26660 7676.89014 876.59711 447
-13452.98633 7838.26367 1149.02344 499
-13449.45801 7833.27588 1408.88696 498
-13475.32129 7847.80127 1670.47534 391
-13751.87109 8011.36328 1963.70129 479
-13260.04785 7834.33545 377.80792 480
-13170.50781 7781.78711 629.99573 491
-13124.32129 7756.53955 878.02905 447
-13400.85254 7917.27197 1151.47485 499
-13395.61133 7917.39160 1407.62268 499
-13420.91895 7927.65137 1667.43799 391
-13698.61035 8092.66211 1962.57446 479
-13207.25098 7914.53955 378.12704 481
-13118.84668 7859.94482 626.94678 491
-13072.19141 7836.50244 878.39087 447
-13345.93945 7997.48340 1148.34326 499
-13342.27051 7994.81982 1407.00562 499
-13367.10156 8010.19434 1669.05627 391
-13591.34766 8143.51123 1957.32129 453
-13153.19238 7992.15820 375.55228 481
-13068.98828 7943.27979 625.88507 491
-13020.94434 7911.93652 876.57758 447
-13292.99023 8075.51416 1150.24438 499
-13289.08984 8073.08252 1404.30798 499
-13311.99609 8089.77148 1665.04688 391
-13548.40234 8234.26953 1957.06458 478
-13098.66797 8068.70605 376.00211 481
-13014.14258 8019.74658 629.52643 491
-12970.01758 7992.18359 876.69641 464
-13238.18457 8157.57275 1148.25854 499
-13233.82422 8152.20459 1406.28625 499
-13260.06152 8170.08594 1667.99011 391
-13531.63477 8338.11523 1962.79407 471
-13044.52441 8149.25049 377.45044 481
-12964.72266 8096.67090 629.30731 492
-12915.47754 8067.81934 877.75867 464
-13187.43945 8235.02539 1146.66846 499
-13179.24902 8231.40527 1404.46704 499
-13208.83398 8249.65625 1664.10986 391
-13476.96094 8417.20410 1959.96643 471
-12993.38477 8226.79590 375.35162 481
-12910.14551 8176.03271 628.24359 492
-12867.06641 8149.14404 876.79767 464
-13132.33887 8316.89844 1149.64343 499
-13126.01270 8313.51270 1406.74634 499
-13156.13867 8331.54199 1665.95605 391
-13421.15625 8499.29492 1962.16541 471
-12937.97949 8308.71484 377.15494 481
-12860.14062 8253.69434 628.00720 492
-12815.71973 8226.95020 877.13763 464
-13075.34766 8395.34473 1147.11963 499
-13072.04395 8391.62305 1403.92810 499
-12936.41699 8307.14355 1644.13574 346
-13370.17188 8580.08398 1958.33362 471
-12885.35938 8383.79395 375.47617 481
-12806.60645 8333.08887 626.58850 492
-12765.17383 8307.41504 875.33783 424
-13046.88965 8490.77051 1150.23157 499
-13042.56055 8486.54102 1407.55774 499
-12758.23047 8304.27832 1629.56848 499
-13312.70312 8660.40039 1962.21069 471
-12832.71973 8462.29492 376.56943 481
-12751.80371 8409.73438 627.78986 492
-12711.37109 8384.17969 878.34735 424
-12995.95801 8568.76074 1150.40833 499
-12973.46289 8556.17773 1405.95056 479
-12704.63965 8380.83984 1631.34070 499
-13260.55078 8741.82324 1959.10315 471
-12782.53516 8543.87695 375.17804 481
-12700.69238 8488.03516 627.44745 492
-12660.83301 8466.08105 874.61346 424
-12797.45801 8553.17773 1136.88672 477
-12734.16406 8514.28125 1385.61047 463
-12654.28125 8458.12988 1629.57361 499
-13205.18945 8823.59863 1957.88196 471
-12725.74805 8619.95312 375.38980 481
-12647.73438 8566.65820 625.31250 492
-12610.47363 8543.81250 875.82922 424
-12886.82129 8726.66016 1149.91748 499
-12880.05469 8725.27539 1406.67102 499
-12600.36230 8536.32031 1631.72656 499
-13149.91113 8905.80566 1959.71912 471
-1947.23108 1392.45374 90.00645 477
-1952.72351 1395.89319 130.54590 375
-12676.00195 8701.25879 377.94107 481
-12595.96582 8644.67285 624.92798 492
-12559.86426 8624.61426 875.45306 424
-12832.23438 8808.37793 1149.22864 499
-12828.56543 8807.72559 1406.96570 499
-12544.43457 8613.81055 1629.24646 499
-13094.65137 8989.10059 1961.54138 471
-1938.65442 1404.98914 89.87298 464
-1942.87012 1407.95703 130.41826 417
-12619.77051 8779.55273 376.22311 481
-12541.35645 8726.75781 628.37256 492
-12512.67383 8701.71191 875.22034 301
-12779.48730 8888.47461 1149.84692 499
-12773.13477 8885.56543 1407.88049 499
-12777.03516 8885.54980 1664.75745 382
-13038.61523 9071.01172 1958.75232 474
-12567.42285 8857.70605 375.60098 481
-12489.24121 8805.22754 628.03937 492
-12466.24512 8785.09180 878.72003 301
-12762.49316 8991.27637 1150.70630 459
-12756.41113 8987.92578 1411.04187 459
-12774.07227 9000.61426 1670.85730 363
-13004.99707 9163.45996 1964.92773 457
-12516.64648 8937.50195 377.79144 481
-12438.27148 8882.99707 627.76312 492
-12417.40723 8868.34473 876.80432 296
-12753.01758 9105.35449 1157.81665 477
-12750.65723 9101.68262 1413.02368 458
-12783.71973 9128.07617 1679.71106 363
-12977.46387 9263.29492 1967.72729 462
-12461.91309 9014.26367 377.34470 481
-12385.37988 8960.53125 625.74481 492
-12372.32812 8949.53418 878.45081 296
-12725.90820 9203.72070 1156.83032 477
-12744.67383 9220.99902 1417.72827 458
-12793.43555 9251.58301 1687.12451 362
-12409.38379 9094.07910 377.84253 481
-12333.39746 9038.79785 629.11835 491
-12326.53418 9033.42480 879.39697 296
-12699.71094 9303.64551 1159.14197 476
-12740.59863 9336.14746 1426.61621 475
-12354.81055 9170.85449 375.91397 481
-12279.56738 9118.90527 628.22192 491
-12283.41309 9117.65430 879.08911 296
-12674.11914 9404.64746 1162.73975 476
-12711.93945 9433.37207 1426.59546 475
-12301.37695 9251.01758 375.72672 481
-12228.09180 9197.87402 626.32684 491
-12480.97363 9386.36523 893.84766 419
-12645.51270 9507.89062 1164.83264 475
-12248.07129 9327.48535 378.71082 481
-12177.75293 9273.01855 628.55688 491
-12476.78711 9499.66016 897.00739 419
-12197.13672 9407.12891 376.76639 480
-12123.85059 9354.56152 628.23883 491
-12460.20801 9609.15332 898.88452 403
-12143.75195 9487.27051 375.90070 480
-12072.68359 9431.83008 627.41675 491
-12426.72266 9708.06543 900.51428 402
-12086.98535 9564.54688 376.53296 480
-12017.79199 9511.44629 629.31671 491
-12398.45605 9806.30957 902.78516 402
-12035.94141 9647.38477 377.76849 480
-11964.57324 9589.87109 629.24463 491
-12364.53809 9907.17871 906.35797 402
-11980.05957 9724.54883 378.47058 480
-11913.03711 9670.20020 629.38354 491
-13141.19727 10660.52734 958.66895 420
-11928.30273 9804.16406 376.34885 480
-11859.02148 9749.27832 627.86041 491
-13084.73828 10747.56055 956.75342 415
-11873.55176 9880.66699 375.42493 480
-11806.79004 9826.73242 627.31616 490
-11818.60254 9962.46094 379.35382 480
-11752.13281 9903.61426 631.19312 490
-11768.87109 10040.01270 379.21280 480
-11701.55273 9986.49609 627.85065 490
-11713.58691 10120.71387 378.35559 479
-11646.26758 10066.24121 631.47705 490
-11657.07617 10201.65332 378.21530 479
-11592.49805 10144.28320 629.04724 490
-11607.71484 10279.27832 378.12198 479
-11539.48828 10224.78027 630.75391 490
-11552.55273 10361.15820 380.12631 479
-11485.63672 10304.66699 630.48230 489
-11497.81934 10441.92285 379.72681 479
-11432.68457 10384.42090 629.21167 489
-11442.53906 10518.63477 377.77133 478
-11378.38477 10463.12207 633.30603 489
-11388.69824 10602.44531 377.20987 478
-11328.88574 10542.56641 632.46106 489
-11333.60938 10679.97559 378.97974 478
-11273.55273 10621.96973 632.10339 488
-11278.95410 10762.99316 379.18436 478
-11217.53516 10703.95508 631.91705 488
-11225.30566 10840.16504 381.13898 478
-11162.51855 10784.81543 632.39697 488
-11171.55762 10921.63184 380.04501 477
-11111.69922 10863.42676 632.89008 488
-11120.99023 10874.69141 890.79749 429
-11112.66992 11005.03809 381.61768 477
-11054.67480 10945.89062 636.54083 487
-11064.62891 10956.47363 890.20679 428
-11062.46777 11084.24316 381.67242 477
-11002.79102 11027.46289 634.47229 487
-11010.93945 11038.00879 894.49194 428
-11004.39941 11166.42773 381.50558 477
-10945.70898 11110.34375 635.65387 487
-10953.01562 11117.67480 894.21765 424
-10950.03125 11246.05664 380.07126 476
-10892.08594 11189.66797 636.45758 487
-10902.71094 11203.38672 894.55725 396
-10895.86133 11329.40918 382.95761 476
-10836.64160 11273.10645 637.41302 486
-10853.86426 11288.19531 897.64429 395
-10838.26172 11413.80664 381.29382 476
-10783.61621 11353.87988 638.27051 486
-10781.91211 11493.64648 381.70386 475
-10728.03613 11438.31934 638.51038 486
-10726.13574 11577.25781 382.69315 475
-10672.24316 11518.48340 638.77643 485
-10670.44238 11661.02539 382.39142 475
-10617.47266 11601.32324 639.49030 488
-10613.86230 11740.25098 382.70795 474
-10559.89844 11682.84863 639.81372 490
-10561.56836 11829.41992 383.03912 465
-10504.58691 11768.34668 641.17615 490
-10512.93750 11924.13770 383.65430 465
-10449.98340 11850.00977 644.08514 489
-10468.63867 12018.45312 383.80582 464
-10394.86035 11934.28711 642.37817 489
-10420.54297 12117.00195 385.30743 464
-10343.63281 12027.01953 646.48065 470
-10376.18652 12212.40625 385.01904 463
-10298.44824 12122.67285 646.50879 469
-10325.32617 12309.86426 388.85303 462
-10248.75879 12218.51758 647.26373 469
-10280.72852 12406.41211 386.92969 462
-10203.62988 12313.82324 650.18494 468
-10231.61621 12504.62500 387.38495 461
-10154.03809 12413.60742 650.78583 468
-10193.22852 12614.13086 389.40927 420
-10109.08496 12508.83398 650.42682 467
-10165.90332 12739.91211 388.73831 419
-10059.24316 12609.04688 654.78918 466
-10138.43555 12865.84766 393.80200 397
-10013.32324 12710.34375 655.73260 467
-10114.11914 12996.82520 393.38235 396
-9970.38184 12813.82812 655.40942 410
-10092.25879 13134.25098 392.79117 395
-9939.22852 12937.92578 656.81274 409
-10078.55664 13284.83691 394.15469 369
-9906.40527 13064.15430 661.17212 418
-10095.42969 13477.53125 397.69717 301
-9876.55859 13190.31152 665.32367 417
-9844.15625 13315.13867 664.76361 416
-9820.51758 13459.11621 668.14807 369
-9815.83008 13620.58105 672.46753 369
-9802.87793 13787.41016 678.62262 368
-9830.85645 14000.71875 682.66718 304
-9648.30469 17575.39844 -2524.26538 1000
-14731.01855 27539.69727 -396.34256 1000
-15723.08594 39933.42188 7201.38232 1000
-363.27002 2256.93799 55.95332 365
-370.34479 2289.02490 92.94651 311
-344.82092 2233.80054 56.86928 367
-351.50073 2269.05322 93.27847 349
-340.76459 2287.69849 16.59005 341
-326.60562 2212.04419 57.60436 402
-336.40332 2265.37573 93.68008 304
-320.79233 2259.18140 18.64554 342
-309.64673 2198.40894 58.18821 409
-331.40042 2317.49341 92.33707 322
-301.36288 2228.06274 19.82623 397
-293.68918 2185.84326 58.47038 411
-320.67883 2337.26001 92.49922 291
-284.19452 2212.34521 21.23666 398
-277.71774 2172.99438 58.99332 412
-266.80890 2188.54810 22.38791 301
-262.74374 2164.21826 59.58799 413
-249.69049 2167.52075 23.75391 304
-247.77347 2155.63428 59.84124 414
-233.01167 2148.73657 24.42275 384
-232.83171 2146.91138 59.88229 414
-218.10524 2136.25635 25.48007 385
-218.33598 2139.03247 60.31496 415
-202.90417 2125.95850 25.83072 396
-203.77209 2131.64331 61.14376 425
-188.35777 2116.00146 26.42311 396
-189.60854 2125.38965 61.32109 367
-174.02342 2105.75635 27.20422 397
-175.84975 2120.78149 61.11143 367
-159.81360 2097.12158 27.67456 449
-162.34384 2115.89990 61.31692 367
-145.98097 2089.32495 27.75602 460
-148.43376 2111.04834 61.86705 368
-132.26093 2082.62866 28.72437 461
-134.69264 2105.90894 62.18154 370
-118.89484 2076.47510 28.81055 462
-121.99519 2105.83765 62.36010 289
-128.23634 2169.73096 95.56271 475
-105.32339 2069.65869 29.03514 463
-114.33407 2163.19873 60.09971 476
-114.57992 2164.68848 95.99570 476
-94.83112 2099.18701 -6.77500 456
-91.85461 2064.09058 29.67369 470
-100.12814 2157.78857 60.44499 477
-100.23595 2154.08228 95.75070 477
-81.66900 2092.93115 -6.08278 457
-79.10346 2058.24072 29.86481 471
-86.32522 2153.28174 60.65644 477
-89.42831 2190.36670 95.66779 327
-68.15337 2086.42212 -5.96240 456
-65.68615 2053.07080 29.99945 471
-73.73077 2158.06567 60.63513 350
-76.34076 2189.64844 95.62214 449
-55.19023 2080.39111 -5.08023 456
-52.92477 2047.61353 30.55711 471
-62.41089 2189.06567 59.48104 349
-67.42795 2258.05713 94.56636 325
-41.60363 2074.49146 -4.59959 465
-39.88914 2043.55786 30.61232 476
-50.85814 2221.58936 58.41317 348
-28.96266 2070.43457 -4.45283 466
-26.72767 2038.85657 31.33529 476
-39.19119 2254.75244 57.47055 346
-15.94116 2065.44141 -4.08077 467
-14.34859 2034.35388 31.48849 477
-19.59019 2133.40430 61.58257 480
-2.89958 2061.00879 -3.96972 467
-1.51571 2030.20288 31.69801 477
-5.71647 2120.73071 62.01353 481
9.70548 2056.28149 -3.19462 468
11.08477 2025.33167 31.62116 478
7.59110 2118.12915 62.31641 481
7.40056 2119.82837 96.78035 481
22.31903 2051.70459 -3.22426 468
23.84476 2021.05273 32.07477 479
20.32763 2116.56177 62.10231 341
20.33636 2115.27588 96.68401 482
35.18311 2047.32776 -2.75528 448
36.15137 2017.18262 32.40386 479
32.42808 2150.55762 61.11048 483
33.02766 2146.98901 96.46421 340
48.28800 2040.30688 -1.98720 332
48.88757 2012.42969 32.53162 480
44.71173 2189.47827 59.47379 483
45.77439 2157.31226 96.23349 439
45.41219 2172.05029 131.30345 443
45.22338 2171.23486 167.02010 483
60.61522 2034.30212 -1.91799 332
60.76595 2008.22815 32.75011 480
58.75313 2154.77197 131.24898 294
73.21555 2027.85791 -1.51982 332
73.66514 2003.91382 33.25509 481
71.80673 2179.77319 131.66669 438
85.44334 2022.25488 -0.88543 333
85.88077 1999.75159 33.02940 481
85.05350 2175.74121 167.13194 484
98.22398 2016.11267 -0.82948 333
98.16185 1995.32434 33.34141 482
98.31673 2050.26807 64.49475 485
98.31741 2190.90967 167.13931 333
110.42967 2010.43713 -0.04282 333
110.16787 1991.07397 33.71646 482
110.93748 2046.05640 64.29218 486
110.37859 2047.49792 97.97008 486
111.80973 2179.18384 274.59637 333
122.43117 2004.28345 0.03124 333
121.94960 1986.89331 33.81474 483
123.51025 2052.90796 64.46153 445
123.43716 2059.66846 97.89834 273
134.35616 1998.61902 0.41358 334
134.48062 1982.88086 34.28815 483
137.22072 2102.12256 62.72151 328
136.41869 2086.88818 97.38504 255
146.66769 1992.90771 0.89202 334
146.45598 1978.52551 34.40192 484
150.65506 2141.23608 61.72236 327
150.52866 2121.66357 96.84468 319
158.98340 1986.90063 1.17907 334
158.18413 1974.56348 34.67932 484
165.46172 2181.52319 60.29666 332
164.48395 2159.72754 96.06982 312
170.55823 1981.57397 1.84998 334
170.44946 1970.26575 34.49283 484
179.84567 2201.16309 59.30285 488
180.06439 2204.84326 95.58955 275
182.86508 1975.86218 1.95202 335
182.36292 1966.42920 35.15717 454
194.50342 1970.38318 2.47200 335
194.31607 1962.32446 34.93018 454
198.09023 2034.76416 65.15867 425
198.21738 2040.08435 98.42835 407
206.07602 1964.61768 2.89040 335
205.83856 1958.34839 35.22696 455
212.54301 2071.20166 97.63313 313
211.47852 2054.96558 198.97279 384
217.73022 1959.28271 2.91296 335
217.51695 1954.20044 35.58967 455
228.42789 2117.26660 96.96325 306
227.19128 2101.75757 165.95456 319
229.87950 1954.08289 3.03743 433
229.31186 1950.79517 35.74350 455
245.56834 2178.83154 60.01196 490
245.06866 2167.83130 96.21837 490
243.82132 2150.46118 166.90689 317
241.15089 1949.88062 3.73244 434
241.12508 1946.82068 35.88290 456
4521.12061 57223.93359 14492.71680 1000
253.09961 1945.21875 3.49908 434
252.60606 1942.92908 36.01124 456
264.50632 1940.44751 3.98005 434
264.49457 1938.95984 35.84187 456
276.08505 1936.23291 4.19116 435
275.85294 1934.98462 36.25966 456
287.93329 1931.63831 4.25150 435
287.47440 1931.07324 36.55173 457
298.99689 1927.09094 4.42555 435
298.98285 1927.25293 36.43326 457
310.53976 1922.53516 4.82077 436
310.39850 1923.39209 36.82058 457
322.17432 1918.05640 5.16865 436
322.16470 1919.34277 36.89450 458
333.28217 1914.17908 5.09977 436
333.41696 1916.03113 36.72400 458
344.84918 1909.32068 5.29997 436
345.05408 1912.10046 37.11911 458
355.89288 1904.98096 5.68606 437
356.23431 1907.93921 37.08518 458
367.50082 1900.56677 5.67695 437
367.76819 1904.15002 37.13623 459
378.38110 1896.48438 6.02075 437
379.36169 1900.30627 37.50877 459
400.09528 2038.60718 64.13454 495
389.69391 1892.64331 6.24950 443
390.34073 1896.83057 37.41980 463
401.65833 1892.68591 5.97066 443
402.43051 1896.95923 37.40016 463
413.54245 1893.29932 6.00719 443
414.76984 1898.57178 37.32879 390
425.86655 1894.31580 5.70013 347
427.16937 1901.73743 36.73766 300
438.51315 1897.78333 5.55042 346
479.42404 2120.62378 26.05748 465
493.89059 2124.78711 -9.97082 346
493.20947 2122.01660 25.86027 379
508.23074 2128.86377 -10.49392 346
507.34125 2125.94092 25.66791 324
2523.62573 12390.62891 129.76793 1000
784.57642 821.89276 -10.12288 404
788.35175 826.09412 6.90995 336
784.67847 811.65692 -27.00953 490
786.65680 813.83862 -9.73458 490
788.89801 816.49536 7.83072 458
791.49445 819.63953 25.33721 461
793.68146 822.13721 42.80978 453
789.23633 806.71771 -27.03455 499
791.19159 808.95160 -9.57118 499
793.08026 811.17474 7.89159 499
795.41180 813.80383 25.55582 498
798.02271 816.61182 43.14757 495
798.96472 817.75323 60.72739 491
795.33014 803.56299 -27.30460 483
797.22620 805.73737 -9.62039 483
799.46228 808.20428 7.88000 443
802.02826 811.37207 25.17417 457
804.10785 813.47144 43.07285 386
806.89319 806.66724 -10.63267 388
1652.49646 1265.75073 32.65860 1000
33966.43359 15153.64941 1336.71497 1000
42498.52734 12724.05859 -10968.55273 1000
3745.83325 1001.69586 -54.41255 365
3757.94189 980.72040 -54.62579 417
3774.76196 960.80109 -54.91210 431
3791.54810 940.67474 -56.47688 443
3810.72168 921.78015 -56.96613 449
3831.66284 902.27307 -57.71698 448
3851.63770 882.63678 -58.34864 449
3874.28247 864.14044 -59.53782 438
3900.18872 844.63489 -60.53613 432
3929.30371 826.61755 -61.28949 421
3959.91797 808.31171 -62.81738 407
3998.08887 791.71405 -63.92091 373
4049.24561 776.42511 -66.72158 361
4104.08203 761.39398 -69.19552 360
4158.97070 745.83142 -71.60348 359
4215.75781 730.35028 -73.89963 357
4268.36816 713.37158 -76.67742 264
4334.85059 697.87018 -79.85882 353
2598.20483 146.97493 -74.20218 454
2608.85107 147.55740 -33.44270 332
2594.94092 130.94263 -73.51669 485
2600.89209 131.37192 -32.39247 485
2607.78638 132.12230 8.39806 487
2611.37354 116.62227 -75.08677 321
58592.55859 894.09961 3004.37329 1000
13847.00684 -1742.33276 -1004.56470 1000
3575.76831 -462.79327 -98.68267 491
3584.56567 -464.35114 -40.45396 491
3583.77417 -485.55612 -98.66306 309
4539.68799 -843.42584 -90.66016 319
4582.79199 -851.20978 -17.24346 288
4503.77588 -864.37604 -89.19070 413
4547.75781 -873.17590 -16.53759 454
4482.69775 -888.49188 -88.28504 415
4628.97510 -917.95941 -18.78322 452
4463.78174 -912.34381 -86.49734 457
4507.27002 -921.08588 -15.35323 480
4446.52100 -937.20239 -86.11693 485
4431.99463 -961.14478 -85.95076 485
4416.59180 -986.26093 -86.12567 486
4402.92383 -1010.85388 -85.62289 489
4389.63281 -1035.05981 -85.43852 489
4380.34570 -1060.86060 -84.58590 493
4437.25488 -1075.04077 -14.66507 317
4518.77637 -1095.57361 58.41984 289
4367.01123 -1085.94324 -84.12040 494
4411.25049 -1097.38989 -13.87759 489
4433.20801 -1103.32556 58.81836 317
4353.64404 -1111.06226 -83.54555 497
4396.33936 -1122.04041 -13.79202 490
4392.63770 -1119.98560 59.98101 499
4346.88672 -1136.84265 -84.47932 498
4383.17676 -1146.55542 -12.78624 499
4384.86279 -1147.17834 60.12712 499
4336.52588 -1161.17737 -83.50179 498
4375.45898 -1172.06152 -12.51117 499
4377.41260 -1172.77527 60.04583 499
4324.73291 -1186.02747 -83.44019 499
4368.77100 -1198.73438 -13.06517 499
4370.08301 -1199.04309 59.58415 499
4318.40771 -1213.17981 -83.47293 499
4355.23389 -1223.81519 -13.07708 499
4358.08301 -1223.53552 59.35090 499
4601.96777 -1294.57239 132.83530 481
4605.14648 -1294.68591 209.17383 481
4607.33008 -1295.06970 286.05582 479
4309.03613 -1238.40881 -83.40620 458
4348.14502 -1249.62451 -12.22002 499
4351.15088 -1250.41174 59.36573 499
4299.08154 -1263.59521 -83.61873 499
4341.10059 -1275.62146 -12.72068 499
4342.94971 -1277.06665 60.04606 499
4295.19824 -1290.39465 -83.65711 499
4339.30176 -1303.80530 -13.00244 499
4341.57471 -1303.94214 60.01529 499
4287.71631 -1316.02942 -83.17514 499
4331.31885 -1330.00452 -12.68641 499
4333.30273 -1330.80969 59.59617 499
4277.64355 -1341.17480 -83.35459 499
4324.08643 -1356.07971 -13.13070 499
4327.14307 -1356.61877 59.85986 499
4465.01221 -1401.23218 133.07248 496
4272.95020 -1368.39148 -84.06886 499
4316.29492 -1382.62976 -12.81840 499
4319.13232 -1382.97400 60.16928 499
4397.27588 -1408.72192 132.55780 499
4265.10352 -1394.02563 -84.22705 499
4309.59521 -1408.69556 -13.29195 499
4311.49658 -1410.15540 59.79967 499
4369.75244 -1429.56628 133.02516 499
4255.43945 -1419.27563 -84.25040 499
4415.12158 -1474.23596 132.94629 281
4251.03174 -1446.86157 -83.53070 499
4374.33301 -1489.12488 132.31947 498
4242.99121 -1472.96851 -83.68214 499
4234.10205 -1498.10352 -83.76905 499
4228.83838 -1524.75024 -83.96543 499
4221.95996 -1550.96057 -84.56422 498
4211.74268 -1575.62231 -83.98729 498
4207.46924 -1603.79395 -84.97002 498
4364.62207 -1664.33728 -18.26996 489
4199.88965 -1629.93616 -85.28316 498
4484.82129 -1742.93152 -22.13157 387
4189.89697 -1654.25891 -85.11005 498
4229.06738 -1670.49268 -13.39401 386
4185.61865 -1682.27222 -84.75420 498
4175.86523 -1708.19507 -84.70934 476
4461.29492 -1827.13696 -22.76036 411
4167.66016 -1733.98926 -84.73291 497
4270.61377 -1777.13928 -15.68081 494
4166.78662 -1762.97571 -86.12551 436
4254.22461 -1800.93762 -15.83460 494
4249.61133 -1829.49341 -90.55846 433
4238.16504 -1824.48108 -15.83599 495
4244.89355 -1857.32544 -90.62735 423
4194.95361 -1834.87927 -14.87570 472
2872.81055 -1921.30444 -33.24024 493
2881.22607 -1927.20032 21.11289 357
2027.13281 -1875.92273 -44.50013 373
2009.27197 -1858.50769 0.72620 374
1997.10498 -1869.52954 -42.52226 374
1978.91199 -1851.99585 2.40946 376
1966.83545 -1862.74023 -41.13446 374
1944.06543 -1839.46130 3.72714 332
1938.02332 -1855.73303 -39.27847 376
1914.90637 -1833.07910 5.19646 386
1958.22778 -1876.83044 45.15685 369
1909.64062 -1850.47034 -38.20358 382
1887.41736 -1827.11926 5.91192 387
1902.78284 -1843.22498 47.53897 353
1882.01184 -1845.11804 -36.29921 383
1859.60803 -1821.18445 7.35765 388
1875.31226 -1836.97693 47.97464 388
1855.43127 -1839.43616 -34.75173 384
1832.76929 -1815.94250 8.86517 354
1847.75146 -1831.84912 48.87091 371
1829.11987 -1834.27649 -33.76717 386
1806.91260 -1810.64307 9.59208 391
1949.92102 -1962.65747 43.94092 455
1803.40808 -1829.27148 -32.21828 387
1783.65930 -1808.72351 10.69235 393
1946.24976 -1982.52344 43.38094 454
1778.30310 -1824.26306 -30.96682 388
1758.47656 -1803.37878 11.31326 394
1941.41382 -2001.69409 43.10347 454
1752.74963 -1819.52112 -29.31081 389
1733.08105 -1797.73523 12.79402 395
1930.55371 -2014.66223 42.61385 406
1728.63293 -1814.85535 -28.30109 381
1708.40857 -1792.58337 13.40275 396
1713.78552 -1798.84119 52.54262 399
1704.11938 -1809.96265 -26.69749 369
1684.02551 -1787.46912 14.15924 398
1690.81177 -1795.31824 53.25232 400
1680.00049 -1805.09290 -25.60257 370
1659.60425 -1782.12634 15.49112 399
1666.71338 -1790.23682 53.87770 401
1656.60229 -1800.33667 -24.54044 371
1637.07629 -1777.79712 16.00752 409
1643.99426 -1785.43506 54.69452 403
1633.19629 -1795.48706 -23.24875 374
1615.99487 -1775.55554 17.04979 428
825.97314 -965.01550 -41.50979 432
1611.33044 -1792.50342 -21.63639 381
1597.08032 -1774.91858 17.39428 439
1602.97375 -1782.01331 55.76259 437
1592.18567 -1791.42566 -20.88083 400
1578.08032 -1775.25378 18.11048 446
1586.79834 -1784.80701 55.72702 491
1573.33691 -1791.58752 -20.46130 404
1560.90808 -1775.78699 18.74155 451
1574.03601 -1792.65625 55.97337 487
1555.76294 -1792.46082 -19.93754 408
1543.85156 -1777.86560 19.04336 450
1564.52234 -1803.08936 55.98166 429
1538.69653 -1793.85315 -18.68546 406
1526.97192 -1779.23596 19.48226 457
1560.26624 -1820.74841 55.66561 428
1522.01855 -1795.62219 -18.34579 407
1510.50952 -1781.00781 20.46778 458
1556.36536 -1838.29919 55.29266 428
1505.97839 -1797.68567 -18.14842 407
1494.98035 -1783.00012 20.46175 463
1552.12317 -1856.10779 54.78593 427
1489.55872 -1799.51440 -17.07154 413
1479.10718 -1785.29614 20.73549 469
1547.47363 -1874.64453 54.40523 426
1474.29126 -1802.17371 -17.01599 414
1463.88538 -1788.63416 21.20206 470
1543.19568 -1892.79895 54.05901 425
1458.93896 -1805.32922 -16.29237 424
1449.36609 -1792.65918 21.39812 473
1539.10815 -1910.85315 53.65948 424
1444.41907 -1808.62964 -16.30083 424
1435.26770 -1796.29651 21.73511 474
1534.16553 -1929.35559 53.17532 427
1429.87329 -1812.35010 -15.79956 430
1421.08875 -1800.41699 21.86406 468
1530.50366 -1948.44434 52.96949 422
1415.97632 -1816.68774 -15.10853 431
1407.11975 -1804.13367 22.02723 469
1525.15649 -1966.85706 52.01153 420
1401.52026 -1820.24133 -15.05821 437
1392.58386 -1807.60547 22.48874 469
1520.89246 -1986.61145 51.65549 419
1387.54272 -1823.53003 -14.43431 438
1378.93005 -1811.91077 22.85381 468
1373.30115 -1826.92297 -14.10266 437
1365.41284 -1815.48962 23.09149 469
1365.72815 -1840.70508 -15.02777 279
1352.06909 -1820.62952 23.36486 466
1368.45618 -1868.90149 -16.18623 276
1338.73804 -1824.74133 23.07883 468
1325.55225 -1829.52307 23.48256 464
1312.65552 -1834.52295 23.69525 464
1300.41663 -1840.61414 23.85088 379
12566.68359 -35854.43359 -9342.48145 1000
2529.08105 -19216.01953 -3049.39893 1000
-88.73228 -3127.49585 185.80722 312
-88.31173 -3124.62939 237.32364 384
-458.67068 -2501.59448 49.58508 492
-458.86334 -2500.34058 92.14460 498
-458.23019 -2498.23022 133.73456 498
-457.55008 -2497.12646 175.29866 480
-457.71262 -2495.65137 217.20737 480
-457.03674 -2494.96948 259.37885 439
-7699.72900 -23357.34766 5466.49951 1000
-813.94446 -1878.98706 64.68992 488
-813.98932 -1878.68677 98.82287 499
-813.57391 -1878.12158 132.68803 499
-813.26361 -1878.06396 167.29266 499
-812.99207 -1877.62463 201.18753 486
-812.99530 -1877.70496 235.28687 486
-812.84796 -1877.30103 269.64618 485
-20606.66797 -39595.56250 7533.02930 1000
-16297.48340 -21678.22852 -2983.83740 1000
-42929.57422 -49542.91797 12096.74609 1000
-24511.70703 -26971.78516 -1649.23596 1000
-26329.30859 -22921.63672 1286.58289 1000
-46928.07812 -32872.57812 4848.77832 1000
-3969.15552 -2155.96851 207.13515 485
-3349.45312 -1773.15527 132.18806 449
-3362.34082 -1753.98059 132.45447 396
-2747.22046 -1398.49426 131.36110 493
-2751.06055 -1400.64441 184.23830 408
90.11150 -2.99516 127.50640 363
90.11295 -2.99633 127.75323 363
90.11258 -2.99572 127.99470 364
90.11240 -2.99606 128.23451 364
89.68979 -3.12505 128.38782 298
90.22109 -2.88832 127.52615 364
90.21887 -2.88793 127.76870 365
90.22192 -2.88653 128.01050 365
90.22133 -2.88664 128.25032 365
89.73638 -3.03175 128.38666 298
88.44608 -3.41728 128.38667 294
90.32602 -2.78222 127.54462 365
90.32579 -2.78208 127.78484 366
90.32578 -2.78071 128.02504 366
90.32741 -2.78102 128.26353 367
89.77946 -2.94045 128.38593 298
88.49090 -3.31954 128.38705 294
90.43195 -2.67708 127.56150 367
90.43137 -2.67563 127.80237 367
90.43112 -2.67763 128.04012 368
90.43236 -2.67580 128.27649 368
89.82766 -2.84896 128.38760 298
88.53753 -3.21727 128.38762 294
90.53483 -2.57322 127.57893 368
90.53519 -2.57446 127.81725 369
90.53406 -2.57312 128.05489 369
90.53345 -2.57377 128.29076 369
89.87160 -2.75820 128.38600 298
88.58244 -3.11690 128.38556 294
90.63582 -2.47157 127.59378 369
90.63745 -2.47101 127.83277 370
90.63491 -2.47263 128.06740 370
90.63576 -2.47179 128.30145 371
89.92039 -2.66739 128.38570 298
88.63047 -3.01878 128.38669 294
90.73553 -2.37135 127.61166 371
90.73683 -2.37015 127.84641 371
90.73581 -2.37089 128.08180 372
90.73684 -2.37159 128.31468 372
89.96632 -2.57585 128.38544 298
88.67672 -2.91797 128.38696 294
90.83659 -2.27134 127.62584 372
90.83607 -2.27256 127.86123 372
90.83598 -2.27159 128.09314 373
90.83649 -2.27288 128.32648 373
90.01612 -2.48430 128.38577 298
88.72389 -2.81846 128.38518 294
90.93319 -2.17285 127.64124 373
90.93393 -2.17332 127.87293 374
90.93426 -2.17477 128.10579 374
90.93384 -2.17350 128.33559 375
90.06527 -2.39465 128.38625 298
88.77361 -2.71988 128.38765 294
87.22594 -3.11253 128.38786 290
91.03124 -2.07730 127.65501 374
91.03178 -2.07681 127.88576 375
91.02999 -2.07768 128.11684 375
91.03033 -2.07684 128.34596 376
90.11465 -2.30372 128.38676 298
88.82378 -2.62094 128.38644 294
87.27460 -3.00279 128.38580 290
91.12687 -1.98027 127.66695 376
91.12754 -1.98190 127.89826 376
91.12676 -1.98230 128.12950 377
91.12775 -1.98085 128.35725 377
90.16465 -2.21324 128.38712 298
88.87440 -2.52151 128.38557 294
87.32470 -2.89308 128.38731 290
91.22130 -1.88608 127.67990 377
91.22203 -1.88712 127.91183 377
91.22124 -1.88643 128.13969 378
91.22138 -1.88730 128.36725 378
90.21505 -2.12130 128.38617 298
88.92325 -2.42403 128.38530 294
87.37754 -2.78458 128.38524 290
91.31537 -1.79303 127.69346 378
91.31517 -1.79213 127.92361 379
91.31590 -1.79315 128.15048 379
91.31453 -1.79269 128.37747 380
90.26559 -2.03021 128.38596 298
88.97614 -2.32495 128.38725 294
87.42847 -2.67578 128.38741 290
91.36356 -1.71093 127.69460 464
91.36152 -1.71045 127.92371 465
91.36323 -1.71099 128.15021 466
91.36266 -1.70968 128.37610 466
90.31713 -1.93942 128.38654 298
89.02613 -2.22392 128.38672 294
87.47865 -2.56699 128.38771 290
91.38332 -1.63346 127.68493 464
91.38377 -1.63288 127.91643 465
91.38304 -1.63235 128.14357 466
91.38376 -1.63238 128.36888 467
90.37034 -1.84916 128.38557 298
89.07919 -2.12677 128.38736 294
87.53161 -2.45816 128.38765 290
91.40403 -1.55763 127.67794 465
91.40393 -1.55739 127.90805 466
91.40360 -1.55535 128.13507 467
91.40505 -1.55588 128.36221 468
90.42281 -1.76053 128.38574 298
88.07628 -2.24900 128.19170 360
87.58562 -2.34979 128.38686 290
91.42587 -1.47861 127.67091 466
91.42502 -1.48006 127.90045 467
91.42474 -1.47849 128.12878 468
91.42445 -1.48022 128.35431 468
90.47602 -1.67003 128.38728 298
87.87278 -2.19342 128.14197 359
87.64029 -2.24272 128.38759 290
91.44476 -1.40274 127.66147 466
91.44459 -1.40292 127.89154 467
91.44578 -1.40100 128.12143 468
91.44549 -1.40119 128.34593 469
90.53036 -1.57995 128.38737 298
87.66805 -2.13867 128.09512 357
87.66827 -2.13774 128.38103 358
91.46567 -1.32408 127.65305 467
91.46674 -1.32416 127.88425 468
91.46503 -1.32439 128.11388 469
91.46705 -1.32367 128.33913 470
90.58446 -1.49038 128.38766 298
87.45408 -2.08198 128.04691 356
87.45132 -2.08224 128.33640 356
91.48782 -1.24735 127.64559 468
91.48605 -1.24632 127.87630 469
91.48627 -1.24685 128.10435 470
91.48749 -1.24561 128.33331 470
90.64121 -1.40213 128.38672 298
87.23287 -2.02068 127.99586 355
87.23191 -2.02214 128.29018 355
85.92103 -2.26002 128.38617 286
91.50754 -1.16917 127.63720 468
91.50777 -1.16964 127.86723 469
91.50685 -1.16812 128.09853 470
91.50859 -1.16820 128.32523 471
90.69743 -1.31280 128.38702 298
87.09562 -1.94346 127.96109 451
87.09584 -1.94638 128.25713 451
85.97928 -2.14245 128.38483 286
91.52853 -1.09119 127.62842 469
91.52946 -1.09024 127.85961 470
91.52844 -1.08968 128.09033 471
91.52968 -1.09162 128.31764 472
90.75223 -1.22267 128.38730 298
87.00716 -1.85757 127.93224 450
87.00731 -1.85795 128.23291 451
86.03574 -2.01997 128.38593 286
91.54930 -1.01105 127.62112 470
91.54909 -1.01222 127.85220 471
91.54926 -1.01281 128.08264 471
91.54999 -1.01210 128.30936 472
90.81023 -1.13178 128.38667 298
86.92027 -1.76916 127.90632 449
86.92006 -1.76886 128.20961 450
86.09402 -1.90231 128.38843 286
91.57008 -0.93313 127.61245 470
91.57152 -0.93336 127.84438 471
91.56979 -0.93400 128.07426 472
91.57001 -0.93413 128.30127 473
90.86726 -1.04275 128.38776 298
86.82975 -1.67948 127.87827 448
86.82961 -1.67774 128.18277 449
86.15620 -1.78581 128.38817 286
91.59312 -0.85453 127.60329 471
91.59209 -0.85535 127.83587 472
91.59257 -0.85562 128.06477 473
91.59245 -0.85451 128.29364 473
90.92404 -0.95536 128.38544 298
86.73768 -1.58566 127.85080 447
86.73772 -1.58609 128.15962 448
86.21499 -1.66268 128.38632 286
91.61427 -0.77519 127.59496 471
91.61343 -0.77673 127.82668 472
91.61378 -0.77596 128.05804 473
91.61360 -0.77697 128.28577 474
90.98282 -0.86732 128.38643 298
86.64375 -1.49377 127.82542 446
86.64340 -1.49136 128.13525 447
86.27618 -1.54773 128.38593 286
-8.82932 -1.21959 -2.38807 472
91.63464 -0.69625 127.81826 473
91.63481 -0.69572 128.04825 474
91.63294 -0.69719 128.27701 475
91.04343 -0.77733 128.38753 298
86.54977 -1.39940 127.79729 446
86.54950 -1.39805 128.10852 446
86.33865 -1.42966 128.38693 286
91.65604 -0.61610 127.57486 473
91.65610 -0.61800 127.80804 474
91.65507 -0.61575 128.04016 474
91.65624 -0.61674 128.26871 475
91.10197 -0.68859 128.38757 298
86.55180 -1.28877 127.78924 294
86.45343 -1.30375 128.08308 445
86.40029 -1.30896 128.38576 286
91.67611 -0.53687 127.56644 473
91.67729 -0.53826 127.80035 474
91.67777 -0.53849 128.03120 475
91.67799 -0.53817 128.26256 476
91.16425 -0.60094 128.38683 298
86.61037 -1.17224 127.78571 294
86.35699 -1.20763 128.05544 444
86.35809 -1.20412 128.36844 445
91.69929 -0.45608 127.55836 474
91.69825 -0.45819 127.79028 475
91.69884 -0.45655 128.02226 476
91.69805 -0.45592 128.25334 476
91.22285 -0.51293 128.38635 298
86.67225 -1.05883 127.78953 294
86.29294 -1.10333 128.03502 494
86.28999 -1.10245 128.34924 494
91.72010 -0.37726 127.54766 474
91.72083 -0.37597 127.78320 475
91.71935 -0.37624 128.01367 476
91.71960 -0.37739 128.24417 477
91.28503 -0.42551 128.38531 298
86.72941 -0.94158 127.78791 294
86.26174 -0.99535 128.02072 493
86.26366 -0.99605 128.33546 494
91.74144 -0.29676 127.53909 475
91.74139 -0.29544 127.77387 476
91.74171 -0.29701 128.00639 477
91.74201 -0.29625 128.23734 477
91.34592 -0.33753 128.38626 298
86.79271 -0.82742 127.78689 294
86.23385 -0.88500 128.00594 493
86.23451 -0.88504 128.32199 494
91.76222 -0.21537 127.52911 475
91.76217 -0.21611 127.76489 476
91.76362 -0.21432 127.99632 477
91.76393 -0.21503 128.22873 478
91.41023 -0.25118 128.38762 298
86.85299 -0.71182 127.78667 294
86.20232 -0.77499 127.99147 493
86.20351 -0.77404 128.31013 494
91.78446 -0.13396 127.51880 476
91.78404 -0.13288 127.75395 477
91.78563 -0.13495 127.98862 478
91.78622 -0.13358 128.22014 479
91.47264 -0.16454 128.38745 298
86.91714 -0.59366 127.78584 294
86.17291 -0.66481 127.97437 493
86.17461 -0.66371 128.29430 493
91.80666 -0.05187 127.50896 476
91.80694 -0.05174 127.74419 477
91.80786 -0.05234 127.97865 478
91.80705 -0.05258 128.21158 479
91.53651 -0.07629 128.38568 298
86.97989 -0.47930 127.78705 294
86.14300 -0.55112 127.95945 492
86.14537 -0.55270 128.27835 493
91.81373 0.02879 127.49433 487
91.81334 0.02839 127.73211 488
91.81393 0.02817 127.96668 489
91.81385 0.02719 128.19821 490
91.59814 0.00992 128.38632 298
87.04013 -0.36436 127.78587 294
86.11165 -0.44208 127.94349 492
86.11429 -0.44131 128.26704 493
91.79133 0.10634 127.47425 487
91.79305 0.10736 127.71174 488
91.79203 0.10729 127.94707 489
91.79296 0.10514 128.17914 490
91.66441 0.09529 128.38675 298
87.10516 -0.24969 127.78822 294
86.08530 -0.32626 127.92667 492
86.08527 -0.32747 128.24916 493
91.77090 0.18550 127.45097 487
91.77005 0.18686 127.69102 488
91.77053 0.18682 127.92584 488
91.77254 0.18692 128.16042 489
91.72809 0.18235 128.38594 298
87.17043 -0.13357 127.78787 294
86.05202 -0.21203 127.91029 492
86.05424 -0.21347 128.23738 492
91.74878 0.26656 127.43005 486
91.74955 0.26684 127.66900 487
91.74966 0.26626 127.90736 488
91.74957 0.26547 128.14206 489
91.74970 0.26645 128.37646 490
87.23573 -0.01936 127.78703 294
86.02055 -0.09947 127.89550 491
86.02108 -0.09941 128.21928 492
91.72844 0.34687 127.40784 486
91.72867 0.34860 127.64842 487
91.72823 0.34618 127.88684 488
91.72887 0.34815 128.12387 489
91.72716 0.34895 128.35930 490
90.58849 0.28298 128.38692 294
85.99886 0.01860 127.88029 484
85.99890 0.01870 128.20880 484
84.88765 -0.04671 128.38699 282
91.70699 0.42899 127.38560 486
91.70647 0.42825 127.62799 487
91.70586 0.43003 127.86664 488
91.70559 0.42976 128.10513 488
91.70443 0.42895 128.34267 489
90.65689 0.37698 128.38637 294
86.03453 0.13845 127.87268 484
86.03403 0.13774 128.20154 485
84.96634 0.08382 128.38652 282
91.68279 0.51377 127.36359 485
91.68371 0.51305 127.60477 486
91.68319 0.51242 127.84676 487
91.68407 0.51272 128.08775 488
91.68307 0.51217 128.32426 489
90.72552 0.47066 128.38585 294
86.06398 0.26036 127.86599 485
86.06329 0.25928 128.19682 485
85.03904 0.21405 128.38858 282
91.66079 0.59518 127.33936 485
91.66075 0.59760 127.58536 486
91.66137 0.59589 127.82720 487
91.66036 0.59560 128.06789 488
91.66000 0.59546 128.30783 489
90.79475 0.56275 128.38783 294
86.09730 0.37707 127.86311 485
86.09900 0.37917 128.18733 486
85.11404 0.34121 128.38618 282
91.63841 0.67989 127.31808 485
91.63830 0.68080 127.56279 486
91.63789 0.68079 127.80676 487
91.63831 0.68137 128.04855 487
91.63870 0.68002 128.28885 488
90.86633 0.65596 128.38765 294
86.12827 0.49942 127.85477 486
86.13122 0.49907 128.18236 486
85.19122 0.47060 128.38470 282
91.61526 0.76669 127.29308 484
91.61670 0.76691 127.54099 485
91.61670 0.76672 127.78671 486
91.61618 0.76661 128.02959 487
91.61590 0.76669 128.27007 488
90.93443 0.74898 128.38678 294
86.16068 0.61993 127.84663 486
86.16222 0.61869 128.17607 487
85.26974 0.59615 128.38477 282
91.59380 0.85324 127.27094 484
91.59148 0.85144 127.51844 485
91.59235 0.85206 127.76560 486
91.59216 0.85166 128.00838 487
91.59402 0.85336 128.25137 488
91.00774 0.84093 128.38724 294
86.19303 0.74117 127.83976 486
86.19543 0.74241 128.17097 487
85.35071 0.72465 128.38654 282
91.56856 0.93940 127.24761 484
91.57028 0.94000 127.49701 485
91.56969 0.93994 127.74318 486
91.57052 0.94029 127.98866 486
91.56956 0.94042 128.23457 487
91.07823 0.93365 128.38521 294
86.22610 0.86194 127.83356 487
86.22826 0.86309 128.16580 487
85.42786 0.85236 128.38831 282
91.54520 1.02836 127.22210 483
91.54603 1.02829 127.47280 484
91.54395 1.02714 127.72163 485
91.54530 1.02925 127.97090 486
91.54668 1.02869 128.21614 487
91.14954 1.02554 128.38608 294
86.25816 0.98458 127.82816 487
86.25773 0.98307 128.15608 488
85.50822 0.97929 128.38560 282
91.52013 1.11606 127.19956 483
91.52274 1.11716 127.45159 484
91.52041 1.11685 127.70065 485
91.52175 1.11771 127.94883 486
91.52243 1.11601 128.19519 486
91.22185 1.11551 128.38588 294
86.29421 1.10638 127.82272 488
86.29311 1.10476 128.15198 488
85.59031 1.10229 128.38640 282
