# .PCD v.7 - Point Cloud Data file format
VERSION .7
FIELDS x y z rgb
SIZE 4 4 4 4
TYPE F F F U
COUNT 1 1 1 1
WIDTH 1087
HEIGHT 1
VIEWPOINT 6808.831543 -2971.011475 142.458832 -0.581047 -0.125095 -0.082611 0.799944
POINTS 1087
DATA ascii
-196.54495 0.80783 53.34284 324
-196.54265 2.62848 53.36588 324
-196.62379 4.40651 53.32714 324
-196.58473 6.22524 53.30457 324
-196.57463 8.01884 53.34175 324
-196.56712 9.81122 53.32716 324
-196.59207 11.64294 53.34528 324
-284.64273 59.91881 35.56379 317
-264.04184 59.04261 34.27164 320
-278.48993 61.41436 36.96706 323
-294.80460 63.98731 39.72121 313
-259.93375 60.64498 35.29208 350
-274.65201 63.08214 37.90019 346
-290.68372 65.75367 40.59861 341
-258.03598 62.56437 35.65787 350
-272.61139 65.08400 38.30602 347
-288.80286 67.85030 40.91294 341
-256.15640 64.44397 36.09314 351
-270.70370 67.06232 38.71408 345
-289.78351 70.49224 40.58915 318
-254.30139 66.27872 36.56371 351
-270.05402 69.21610 38.73428 321
-252.48518 68.17509 36.97293 349
-271.98599 71.90971 38.19537 318
-253.86891 70.70030 36.42284 322
-274.29272 74.75223 37.43686 318
-255.94798 73.37740 35.80168 321
-257.98007 76.03410 35.08070 321
-16063.25586 3869.79297 684.84924 453
-15944.84180 3841.18384 950.31714 458
-15988.23340 3955.77466 682.07843 453
-15869.16211 3922.93921 947.34131 469
-15915.98340 4041.22534 680.00562 463
-15803.27637 4011.70410 942.92200 475
-15846.09082 4125.82178 679.33093 464
-15733.34766 4098.11768 941.59674 475
-15777.04102 4213.87793 679.62415 464
-15667.46680 4182.96338 941.44720 476
-15711.20703 4301.17920 676.46619 465
-15600.16309 4271.13037 937.01605 476
-15640.16699 4386.32178 675.18231 465
-15533.52734 4356.11328 938.29822 477
-15572.11035 4471.92188 673.92792 466
-15466.61816 4439.14990 936.41821 478
-15508.86719 4554.04492 674.12744 467
-15403.98340 4523.69482 931.18109 478
-15439.55273 4642.09424 671.88934 467
-15340.25098 4607.52100 930.75183 479
-15372.68457 4722.75391 667.54767 468
-15273.27148 4694.67334 931.58911 479
-15309.54492 4809.57324 668.21735 468
-15206.02832 4774.58008 928.65790 480
-15240.56641 4888.32861 668.09442 469
-15143.21875 4860.29248 925.47235 480
-15176.90820 4970.85059 664.34015 469
-15080.51562 4943.26514 922.34174 481
-15112.05273 5053.25684 667.43585 470
-15017.51758 5023.10352 922.14905 481
-15045.57812 5135.58447 665.12366 470
-14953.98633 5106.04932 921.33044 482
-14980.10938 5220.42822 661.74634 471
-14891.24023 5185.09619 919.90955 482
-14916.52344 5301.25781 660.09344 471
-14824.84570 5268.07275 919.06818 483
-14854.12598 5383.47217 660.10205 472
-14761.98047 5348.49951 916.49542 483
-14791.50879 5460.95654 660.49457 472
-14701.78516 5426.69141 913.47949 484
-14725.16504 5542.23975 658.86530 472
-14638.69727 5509.61133 913.81610 484
-14664.91113 5622.52344 660.28418 473
-14577.57812 5587.50195 911.07300 485
-14600.82715 5701.21484 655.02203 473
-14513.06641 5668.54199 911.09106 485
-14537.57324 5779.79443 655.51660 474
-14453.88965 5747.62402 910.34216 486
-14473.21289 5861.49023 656.27075 474
-14392.13477 5824.38037 910.07843 486
-14412.93555 5939.31348 654.96307 475
-14327.98535 5905.64551 905.16107 487
-14349.71289 6016.68066 653.10181 475
-14270.14258 5985.14990 905.68195 487
-14288.46289 6096.64014 653.36981 475
-14208.42090 6062.56494 904.63031 487
-14226.56836 6172.42822 652.45117 476
-14147.85352 6136.38916 902.25671 488
-14162.04980 6251.56787 649.34686 476
-14087.00977 6214.65381 902.82782 488
-14103.16699 6327.35400 652.54150 476
-14024.95703 6293.05957 901.70111 488
-14042.06445 6405.85449 649.37744 477
-13965.54980 6370.44824 900.58179 489
-13981.02344 6481.57910 648.64197 477
-13908.35547 6446.33887 901.13245 489
-20698.21484 9735.36914 -4030.80957 1000
-13919.38086 6556.90332 647.81268 477
-13848.68750 6525.27930 898.85010 489
-13857.79004 6634.00391 648.64374 478
-13788.00391 6601.87109 898.95563 490
-14464.85840 6919.64502 1199.45557 481
-13801.54199 6709.59668 646.86328 478
-13728.15820 6674.99365 896.45728 490
-14385.92285 6994.17480 1196.94019 481
-13739.11328 6788.43018 647.67804 478
-13670.35547 6750.81348 895.55273 490
-14307.78418 7063.58398 1192.18970 482
-13679.49902 6862.52979 645.87225 479
-13610.64160 6830.58887 892.56049 491
-14228.87695 7133.74219 1189.43848 482
-13617.69043 6938.44775 643.77698 479
-13549.44434 6902.81201 891.09235 491
-14149.11719 7206.65576 1187.73804 483
-13558.33105 7015.04541 644.80573 479
-13491.69434 6979.92773 894.45264 491
-14073.55957 7278.99170 1184.23425 483
-13496.21777 7090.10205 644.48993 480
-13435.69043 7055.39307 890.51379 494
-13997.38672 7348.94531 1186.24683 484
-13438.40234 7162.04932 643.29352 480
-13375.63379 7129.63770 890.67719 494
-13917.89941 7417.28564 1183.19653 484
-13378.66602 7237.28760 640.95422 480
-13316.70312 7202.87842 891.06866 495
-13843.89062 7487.61670 1179.85999 495
-13321.98633 7314.78760 643.15112 480
-13261.00000 7279.50977 890.21417 495
-13782.55566 7563.26562 1180.32629 496
-13351.53906 7438.59082 395.37219 478
-13260.86035 7389.33447 639.79553 481
-13202.48730 7356.25928 888.26227 495
-13720.90332 7639.89062 1178.88525 496
-13291.80273 7512.94629 394.53156 478
-13200.72754 7461.01562 643.19214 481
-13145.45996 7427.35303 886.24799 495
-13661.67188 7720.40088 1178.04675 496
-13231.10156 7589.31348 394.71454 478
-13142.54199 7536.13672 639.04663 481
-13085.59961 7502.76465 887.84613 496
-13599.66406 7796.16797 1176.76184 496
-13173.21680 7662.70557 392.44357 478
-13081.83789 7610.79004 641.77246 481
-13027.06250 7577.84912 887.92780 496
-13538.29590 7874.00781 1175.98828 497
-13115.21680 7736.39355 392.50201 479
-13025.03418 7684.45898 638.87207 482
-12970.71973 7650.23193 886.15973 496
-13478.64453 7950.37402 1175.45764 497
-13053.71484 7810.02637 393.87497 479
-12967.86816 7756.45068 641.33350 482
-12911.17383 7726.89648 885.79419 496
-13417.93945 8027.08789 1173.64429 497
-12995.55664 7885.17432 392.48639 479
-12909.00879 7832.52197 638.15240 482
-12857.70605 7800.07861 883.89197 496
-13286.54883 8059.95312 1167.43091 429
-12938.30371 7960.05176 390.99728 479
-12847.58594 7904.35742 638.82025 482
-12796.00781 7874.93945 885.94812 497
-13216.67676 8130.59668 1165.49658 417
-12877.72656 8031.94824 393.46747 479
-12791.20801 7980.69141 638.37726 490
-12740.04199 7944.86475 884.31812 497
-13157.37012 8204.17871 1163.71619 404
-13268.82324 8274.48926 1429.58337 497
-12821.43555 8105.14648 392.89166 479
-12732.96875 8054.16211 638.68542 490
-12683.11621 8022.83203 884.46417 497
-13095.47363 8276.67090 1163.45105 404
-13209.74902 8352.31250 1431.28882 498
-12759.66992 8178.38281 390.88550 480
-12677.14941 8126.70801 639.78821 491
-12626.46094 8095.62158 882.71698 463
-13033.88086 8351.39355 1164.84595 404
-13147.73438 8426.23828 1429.53113 498
-13264.64551 8497.69434 1701.79712 464
-12702.78320 8254.37598 393.01917 480
-12618.49121 8199.07227 638.51648 491
-12572.56348 8168.63867 881.61224 463
-12991.99023 8437.83008 1164.42383 370
-13086.28418 8500.93066 1429.88599 498
-13228.73828 8593.28320 1706.65186 388
-12643.50000 8327.73633 392.49463 480
-12562.08203 8273.02637 635.51575 491
-12517.30176 8244.67773 883.88806 464
-12981.55176 8548.08203 1166.91101 444
-12982.37109 8545.10840 1422.58105 444
-12998.43359 8557.30762 1681.75269 357
-12583.86035 8401.21582 391.49719 480
-12502.08789 8344.48438 635.25690 491
-12462.05664 8317.02148 880.69525 424
-12864.49414 8584.67480 1163.86853 445
-12867.94238 8584.68945 1420.03674 445
-12875.88379 8595.01758 1674.52222 357
-12525.62500 8474.11230 393.21399 480
-12445.86914 8418.13867 638.22644 491
-12408.97559 8395.49512 883.57806 424
-12748.14844 8624.76465 1156.20056 446
-12752.16797 8624.83203 1409.90686 446
-12760.26172 8629.20312 1666.26880 358
-12467.03223 8548.44434 392.79025 480
-12386.45020 8493.61426 637.25623 491
-12350.72852 8469.37305 883.84692 424
-12640.86914 8665.25781 1151.69568 499
-12637.62891 8658.90137 1405.68713 447
-12639.91992 8662.39453 1657.89966 358
-12410.94141 8621.51465 390.76886 480
-12331.09082 8567.49023 636.78265 491
-12305.13086 8546.37500 883.56287 302
-12580.95898 8737.23438 1152.59131 499
-12575.66016 8732.79980 1405.06628 498
-12577.09863 8735.04102 1658.86011 391
-12729.82129 8837.81836 1935.11890 439
-12731.29883 8837.62500 2195.69873 439
-12351.25195 8693.89746 391.77454 481
-12274.61816 8640.27344 635.74261 491
-12259.21680 8627.99121 881.57373 301
-12496.98730 8794.52441 1150.23438 499
-12491.97656 8789.23535 1402.09985 499
-12523.26758 8809.03809 1658.48132 391
-12782.91113 8989.94922 1949.43250 479
-12294.94434 8764.36230 389.99667 481
-12216.66113 8710.75098 637.27344 491
-12213.62793 8710.72852 881.45178 296
-12440.37012 8867.66504 1148.27283 499
-12435.22461 8865.59375 1401.26746 499
-12467.56641 8886.41211 1656.41699 391
-12719.95996 9065.40918 1947.36157 479
-13097.96973 9336.68066 2271.93311 401
-13098.00098 9334.24707 2540.91577 487
-12233.17578 8839.16309 390.40158 481
-12156.46875 8784.39355 637.63239 491
-12368.10938 8936.42578 896.04413 499
-12380.38965 8942.37207 1150.09375 499
-12377.61621 8937.21289 1400.79163 499
-12407.67676 8963.53223 1659.70361 391
-12661.03223 9141.69629 1947.14880 471
-12174.44336 8912.99219 391.81128 481
-12101.18848 8856.67090 635.74573 492
-12311.22754 9008.29004 896.27728 499
-12321.83105 9015.13477 1150.90601 499
-12316.79004 9011.35156 1400.95251 499
-12353.05371 9037.08887 1660.23462 391
-12561.92773 9189.94043 1941.10645 477
-12118.63672 8982.83691 393.21854 481
-12043.04199 8927.12109 636.96301 492
-12251.90820 9083.91895 896.68671 499
-12261.36816 9091.83105 1150.43726 499
-12259.14648 9085.37402 1401.65771 499
-12298.14453 9117.60645 1658.17932 391
-12543.86816 9297.51465 1948.93359 471
-12059.41602 9055.68066 390.18350 481
-11986.16895 9000.56543 634.16345 492
-12194.36328 9155.77539 894.22473 499
-12202.43457 9163.50977 1148.45312 499
-12201.52930 9161.02246 1401.74500 499
-12243.78125 9190.52246 1660.66333 391
-12486.27734 9371.54395 1945.92310 471
-12000.90820 9129.25293 392.11301 481
-11928.48145 9072.72461 638.04675 492
-12133.72754 9228.57520 897.40808 499
-12143.45898 9239.00977 1149.73560 499
-12142.88672 9234.96387 1399.48718 499
-12189.04199 9267.72754 1659.02698 391
-12427.85156 9448.53320 1947.72986 471
-11942.06055 9203.76660 390.21692 481
-11874.37402 9148.03418 635.88861 492
-12077.77051 9305.27051 896.94189 499
-12085.71191 9312.00195 1146.14514 499
-12081.45703 9307.51367 1398.05725 499
-12132.47168 9346.24219 1660.85889 391
-12368.47656 9526.20605 1948.35010 471
-11885.79492 9277.02246 391.33850 481
-11815.57227 9221.81543 637.22235 492
-12020.09375 9378.10352 894.56232 499
-12051.28809 9401.42383 1147.95886 499
-12049.19141 9401.03711 1403.34351 499
-12075.31348 9420.39258 1660.28992 391
-12308.99609 9601.50684 1949.82715 471
-11827.55469 9348.56836 389.09476 481
-11758.52539 9293.15430 635.54822 492
-11958.96191 9452.11426 894.35162 499
-11992.30566 9478.68164 1149.84473 499
-11978.01953 9467.16895 1402.13403 479
-12018.58789 9497.74023 1659.50781 391
-11771.12207 9420.05176 389.78641 481
-11698.47266 9366.97461 636.25500 492
-11902.63574 9526.79883 894.97046 499
-11800.77344 9442.58984 1136.85693 476
-11741.86621 9399.60742 1381.64368 462
-11962.73535 9575.39844 1660.28210 382
-11710.45215 9492.79980 393.06140 481
-11642.36621 9439.25781 636.35699 492
-11840.08594 9599.34180 893.63269 499
-11876.45508 9625.94531 1150.55737 499
-11729.00586 9507.40723 1385.78699 296
-11904.48730 9650.05566 1660.88293 382
-11651.85254 9564.83008 391.22107 481
-11586.49609 9512.15430 636.57007 492
-11785.12695 9670.54199 893.97815 499
-11816.15332 9700.40430 1151.64172 499
-11814.15137 9694.05566 1400.97791 499
-11847.76465 9726.37012 1658.72461 382
-11594.19336 9639.33008 392.89569 481
-11529.50586 9583.94141 635.43689 492
-11724.62598 9745.59277 895.65417 499
-11758.89551 9773.20605 1151.65222 499
-11754.12598 9770.29590 1404.46387 499
-11790.88965 9802.36426 1659.42371 382
-11539.20020 9711.11426 391.50089 481
-11471.83496 9656.71484 636.75281 492
-11666.50293 9820.03613 895.42291 499
-11719.31152 9863.52051 1153.85449 458
-11709.57031 9853.85352 1405.93774 458
-11765.88672 9898.83887 1663.24658 361
-11479.47949 9782.98145 391.58170 481
-11413.50488 9729.72949 636.02087 492
-11426.39746 9739.80566 884.03619 431
-11704.09375 9976.75879 1156.27161 457
-11698.38867 9969.82227 1410.19775 457
-11763.83691 10027.62012 1674.93262 360
-11420.79980 9857.28223 391.42477 481
-11355.63281 9800.87891 638.51538 492
-11369.19141 9814.33887 884.00793 431
-11683.30273 10081.23047 1160.14990 476
-11684.04004 10084.17090 1416.58069 456
-11768.55469 10154.84961 1683.56873 361
-11360.41602 9929.08398 390.51428 481
-11299.66016 9877.08789 638.32562 491
-11308.98633 9884.16211 886.04474 431
-11650.53027 10177.38770 1161.85767 475
-11670.05859 10196.41406 1420.91553 455
-11304.12793 10003.42188 392.00662 482
-11243.45898 9950.41992 637.23077 491
-11251.43555 9956.49219 883.03125 431
-11619.05371 10277.10840 1164.84241 475
-11654.23730 10308.66895 1423.68237 474
-11246.94531 10077.18652 393.46805 482
-11185.96387 10021.20410 637.61139 491
-11193.23926 10031.26758 885.68573 438
-11583.92676 10375.24609 1169.21790 474
-11187.20508 10148.48340 393.66501 482
-11125.20410 10092.78027 638.21930 491
-11141.98438 10107.77734 885.44324 438
-11128.04785 10222.70410 389.57309 482
-11067.63574 10166.72754 639.31006 491
-11419.84961 10485.15723 907.81494 416
-11068.62207 10294.41113 391.06799 482
-11011.30664 10239.07227 637.17413 491
-11400.89648 10600.59277 912.52252 401
-11014.11328 10369.20508 391.59888 482
-10953.55273 10312.11719 639.45428 494
-10955.08008 10440.87891 389.93594 482
-10898.53418 10384.75488 640.23535 494
-1495.20520 1521.08813 61.78197 484
-1498.07227 1523.94287 97.53246 484
-10895.86035 10515.78125 393.34274 482
-10838.01855 10458.32227 640.35242 494
-1488.01782 1532.34204 61.62774 453
-1495.59717 1539.90344 97.25517 265
-10835.58496 10587.32715 392.72107 481
-10780.46387 10532.58887 640.17078 494
-10777.16699 10659.01953 393.05270 481
-10724.65918 10605.77539 640.82819 493
-10718.06641 10732.14648 391.91394 481
-10665.06738 10682.61426 641.38397 493
-10660.40625 10808.17871 391.28186 481
-10608.59375 10754.33789 641.75378 493
-10599.50879 10882.32324 393.37466 481
-10550.98047 10826.58594 642.27490 493
-10541.46289 10954.54590 393.06372 481
-10492.87109 10904.75098 640.64282 495
-10484.96875 11030.12793 392.76636 480
-10434.09375 10976.99609 642.08588 495
-10424.04102 11102.54785 392.03555 480
-10375.33789 11050.27734 643.47003 495
-10365.77441 11178.14648 395.09448 480
-10317.15430 11127.29785 642.01752 495
-10306.76172 11252.54395 393.02032 488
-10261.59082 11199.68652 643.44336 494
-10247.43555 11327.15430 393.66138 487
-10201.78223 11278.22852 643.67694 494
-10189.35352 11401.86133 394.04587 487
-10142.12695 11351.49609 642.73260 494
-10128.03320 11478.17285 395.48914 487
-10085.36328 11425.64551 643.25446 494
-10066.94727 11551.74609 396.12238 487
-10025.46973 11502.43457 645.30353 493
-10008.17969 11627.70215 394.70526 486
-9964.49219 11578.76758 643.61871 493
-9949.68750 11703.50391 395.63510 486
-9905.82227 11654.34277 646.63507 493
-9888.42188 11776.79297 397.95728 486
-9846.95117 11727.17773 648.94202 492
-9830.35938 11855.89746 394.89340 486
-9790.82812 11805.91211 646.11896 492
-9769.78906 11930.85547 396.89883 485
-9729.99609 11882.98828 647.94281 492
-9708.82617 12009.71387 397.38754 485
-9669.55176 11958.09766 650.93066 491
-9651.77441 12083.19922 396.46866 485
-9609.65430 12035.02148 649.31799 491
-9588.16602 12159.21191 398.14108 484
-9547.95117 12111.36328 651.28119 491
-9527.36621 12239.52637 400.27853 484
-9486.69141 12190.90039 651.89270 490
-9465.14844 12316.02246 399.48318 484
-9427.93457 12265.82715 652.13184 490
-9404.62109 12391.73828 398.12692 483
-9367.59668 12344.33691 653.11475 490
-9346.04199 12470.92871 399.74619 483
-9309.71777 12421.63965 652.00745 489
-9283.87891 12549.19629 399.76407 482
-9245.04785 12499.87207 655.07941 489
-9221.81348 12632.92578 400.35095 462
-9185.53613 12583.10449 653.69592 486
-9239.37988 12819.95703 143.94926 459
-9170.64844 12723.54688 400.51532 462
-9130.35254 12663.46484 657.76141 485
-9185.94531 12911.15430 143.00027 461
-9116.07910 12812.45801 399.83133 461
-9070.89062 12747.27051 658.15039 485
-24886.91016 35215.45703 -11403.26074 1000
-9130.09082 12999.47656 141.61185 460
-9063.57520 12907.12988 404.45010 461
-9012.20801 12830.72559 656.96045 484
-9078.05176 13094.90820 144.64258 460
-9011.28223 12997.06934 404.47421 461
-8951.83691 12915.82520 661.84656 484
-9030.45898 13198.40039 145.02219 418
-8953.47754 13091.56738 404.98743 461
-8893.46484 13003.41699 662.49805 467
-8992.57715 13319.76465 144.91896 395
-8899.59375 13180.66699 404.67163 460
-8841.13184 13098.10352 662.18982 467
-8961.36523 13451.47656 143.32083 394
-8841.55762 13275.49512 403.65686 459
-8791.65137 13196.89062 662.31384 466
-8927.47070 13580.41016 145.14867 394
-8789.84766 13377.08301 407.48944 417
-8740.82031 13296.72949 668.19269 458
-8893.41504 13710.58789 142.38220 393
-8754.10449 13492.41406 405.72583 417
-8689.75195 13400.97852 669.45312 457
-8866.85352 13857.91406 143.03416 366
-8712.72266 13613.72852 407.29272 416
-8643.01758 13502.72363 670.55164 456
-26472.02344 41638.68750 -7158.49121 1000
-8672.36035 13736.01172 408.80185 415
-8591.61328 13607.53613 669.81677 458
-8631.11426 13861.21484 413.13571 393
-8539.16406 13711.92285 673.38745 458
-8598.41797 13996.78027 413.86096 366
-8488.04297 13819.27930 674.95020 325
-8576.03613 14157.54004 417.22513 365
-8459.95605 13966.49512 678.64502 313
-8555.10254 14318.81836 416.28146 365
-18512.80664 44511.12109 -2998.81348 1000
-1742.29651 16107.08301 -922.75458 1000
-5482.65283 67303.03125 14749.19434 1000
126.57097 2301.59448 20.03951 341
140.50021 2272.27246 21.58528 395
153.37788 2253.87207 22.52383 409
154.94511 2293.60059 57.68703 311
168.31508 2290.71802 -17.19755 369
166.54799 2237.38184 23.04439 411
169.77711 2331.84912 56.92633 380
181.57997 2268.06567 -15.87085 370
180.22847 2222.02222 23.63030 437
194.75435 2241.21387 -14.07694 287
193.37595 2211.12378 24.42590 423
208.19934 2236.40063 -50.72429 422
206.59714 2207.31543 -11.69184 294
205.95059 2200.99023 24.57306 424
220.65332 2221.64038 -49.64407 423
218.88524 2187.64844 -10.72444 381
219.12978 2190.57642 25.19405 424
233.58855 2207.45728 -48.11670 424
231.39046 2173.79199 -9.87953 399
232.27702 2181.21387 25.44828 376
246.40392 2195.42554 -47.23594 451
243.71391 2161.42236 -8.91069 400
245.30762 2175.33936 25.84060 377
259.12982 2185.52856 -46.94121 452
256.86948 2150.92310 -8.75856 456
258.06528 2168.85425 26.07189 377
271.70694 2175.66138 -46.15164 453
269.12701 2141.09033 -7.71809 457
270.68619 2162.98682 26.59548 376
284.58716 2166.13086 -45.68162 453
281.23392 2131.68262 -7.60601 467
283.79800 2159.85059 26.54803 298
4077.28442 44485.64844 3808.46436 1000
296.77887 2156.78418 -44.68644 459
293.88660 2122.95752 -7.05030 468
296.94485 2155.88989 26.69661 431
309.20459 2147.74121 -44.00263 460
305.95053 2114.51196 -6.36265 469
327.54065 2328.50659 18.23169 377
321.54312 2139.10669 -43.61583 460
318.29761 2106.88306 -5.99761 471
342.20734 2329.31738 17.52300 379
333.94550 2130.53174 -42.77288 461
330.23758 2099.36108 -5.57680 472
357.14258 2331.31616 17.57892 321
345.95627 2121.66650 -42.28053 461
342.43170 2091.96143 -5.46489 472
371.89941 2335.19897 17.41595 323
358.09314 2113.28687 -41.89174 462
354.68933 2084.52246 -4.60382 480
365.07507 2167.21631 25.83879 489
370.46982 2104.34937 -41.27549 322
366.72565 2078.16479 -4.64049 480
377.85599 2161.84741 25.97027 490
382.18631 2194.01025 60.11031 296
4084.85156 29996.67969 5137.03857 1000
381.88867 2093.21777 -40.71319 322
379.14291 2071.58105 -4.55269 481
390.86261 2155.88550 25.88916 490
390.11832 2153.58716 61.43545 334
393.36807 2081.43530 -39.52323 324
391.19629 2065.62524 -4.08335 455
403.37366 2150.70166 26.25480 491
404.69705 2070.84814 -39.04538 325
403.30582 2060.19824 -3.65391 458
416.22058 2145.87012 26.13230 459
435.83554 2273.87817 57.69153 335
416.25916 2060.59326 -38.00774 327
415.33810 2055.04492 -3.50893 458
436.35468 2190.58252 23.60239 301
427.49121 2052.33716 -37.96310 426
427.49594 2049.88745 -3.43800 459
458.84793 2240.66504 21.08912 300
439.33951 2044.74146 -37.39536 427
439.69684 2045.23694 -3.11424 459
450.99036 2038.89221 -36.77104 431
451.19678 2040.06323 -3.09433 460
463.20718 2032.82129 -36.87390 432
463.42203 2035.40918 -2.92013 460
479.23749 2122.34180 26.79041 493
474.73508 2027.69885 -36.48779 432
475.31564 2030.58911 -2.80648 461
491.58600 2116.66699 26.73793 493
486.64120 2021.80139 -36.37808 432
487.23019 2025.76709 -2.62353 461
503.23938 2105.75879 27.58592 494
498.39224 2016.01562 -35.72381 433
499.17261 2021.08459 -2.56828 461
515.63824 2100.00806 27.33539 494
525.59198 2151.58301 132.94301 383
510.08624 2009.88049 -35.88006 433
511.32773 2016.14648 -2.19627 461
540.80042 2157.87329 24.40247 415
540.35242 2154.53003 60.85689 494
536.61676 2136.65332 132.68243 470
521.67334 2004.41248 -35.66169 433
523.33820 2011.59436 -2.17938 462
550.78760 2138.67334 61.01008 495
549.31494 2131.57471 132.54335 497
533.40942 1998.94946 -35.25807 433
535.39374 2007.61377 -2.02502 388
563.44800 2134.85278 132.74327 455
544.79633 1993.54785 -34.87413 434
547.24249 2002.87549 -2.24522 388
574.30487 2122.78735 132.77156 495
556.74475 1987.58813 -34.82844 434
559.07611 1999.02869 -2.06938 388
598.08765 2163.43506 205.18217 267
567.94269 1982.20715 -34.65658 494
571.15094 1995.05164 -1.85793 388
579.55780 1977.27734 -34.52362 494
582.81836 1990.44690 -1.67769 388
592.98517 2030.03516 29.72729 496
591.53241 1972.22327 -33.98282 494
594.89484 1986.16309 -1.79586 388
604.65106 2025.02942 29.84744 496
603.07947 1966.97131 -33.85664 494
607.11719 1982.38794 -1.75261 388
630.76398 2072.92603 27.60536 288
614.23212 1961.87488 -34.07072 495
618.56750 1977.88452 -1.54574 389
665.77814 2154.03345 23.03817 287
626.01331 1956.69873 -33.66277 495
630.28748 1973.90308 -1.27168 389
637.19507 1951.73975 -33.73492 495
642.11377 1969.55359 -1.39726 389
649.11926 1946.81372 -33.46584 495
654.34338 1965.63184 -1.59316 389
660.26495 1942.12415 -33.34980 496
666.12701 1960.83899 -1.17342 389
671.88385 1936.92578 -33.42916 496
678.33093 1957.94629 -1.19988 295
696.42603 2018.95886 63.38680 383
696.78076 2019.73291 97.86625 498
683.05035 1932.05920 -33.25135 496
690.58704 1956.11646 -1.35641 295
750.01849 2148.09180 22.06744 498
746.71558 2137.92212 59.38523 498
712.17920 2026.94861 132.41959 499
694.46039 1926.59033 -32.98120 496
702.93585 1953.99512 -1.84436 295
754.54633 2117.89355 132.59998 276
705.82050 1921.56018 -32.91402 496
783.76013 2163.00391 -16.59382 378
717.60663 1916.89990 -32.86064 496
729.46191 1952.93384 -2.13806 455
728.87946 1912.02600 -32.58204 497
741.20959 1948.61499 -2.12278 446
739.97382 1907.10303 -32.56635 497
822.95105 2149.29834 -16.51072 378
751.45013 1901.97974 -32.72969 497
836.28900 2144.53760 -16.29825 378
762.74109 1896.77563 -32.41608 497
849.00928 2139.70215 -16.05524 378
774.09131 1891.96960 -32.45229 496
862.61371 2135.94727 -16.32286 322
796.40436 1917.37219 -68.85614 459
785.42987 1886.79724 -32.17288 496
875.92615 2132.29834 -16.48575 322
807.75714 1911.73486 -68.39349 459
797.05737 1882.29663 -32.12729 496
889.63837 2128.59473 -16.66649 322
819.52319 1906.25977 -68.46722 459
808.01526 1877.16699 -32.54648 496
902.76337 2124.86426 -16.72573 322
16771.73438 43550.76562 -2153.86621 1000
830.47467 1900.99500 -68.38530 459
819.48962 1872.35693 -32.42834 497
916.27478 2121.03345 -16.69846 322
842.18909 1895.75427 -68.26811 459
830.97540 1867.41479 -32.14083 497
927.80377 2112.57227 -16.59717 416
841.96985 1862.82422 -32.13096 497
896.56171 1996.80396 -8.84070 380
896.21674 1996.66113 26.81176 380
853.37817 1857.73328 -32.46286 497
864.97400 1852.81531 -32.23506 497
877.11737 1850.62244 -32.26811 487
890.21881 1849.09766 -32.62374 486
903.11414 1847.92236 -32.94420 486
915.92932 1846.23633 -33.37338 485
928.75513 1845.54700 -33.85976 456
941.97638 1844.35425 -34.24300 456
39077.89453 53757.84375 3484.49097 1000
1624.77539 1428.72888 -428.64716 1000
1187.13062 754.43536 -42.41159 438
1191.64355 757.40771 -20.83536 438
1199.39502 762.81647 0.44751 487
1189.72620 746.38501 -42.33686 498
1193.35168 748.59155 -20.68154 498
1197.05798 751.25659 1.19980 497
1200.75159 753.37531 22.87444 491
1195.92542 740.48181 -42.56264 462
1200.34045 743.46002 -21.04726 462
1209.73816 749.64691 0.08280 323
23334.07031 13299.29590 -3824.52710 1000
59859.79297 27653.99609 4479.32324 1000
48895.92578 20070.06055 12459.68066 1000
4132.09521 716.86108 -137.08397 458
4149.71338 694.47272 -136.96449 438
4431.21387 742.54181 -83.33666 330
4169.15381 672.51544 -138.04007 422
4401.55127 710.54938 -82.17308 451
4191.05420 650.19751 -139.77577 416
4391.93945 682.08832 -81.34211 451
4212.18164 627.60706 -141.33286 415
4381.77051 653.68414 -80.77457 452
4235.25195 604.69714 -141.81883 414
4372.52979 625.03033 -79.73239 452
4260.06201 582.48779 -143.14085 397
4361.96289 597.04602 -79.65048 453
4288.21484 559.59351 -144.87682 391
4352.00195 568.26929 -78.61474 454
4320.11865 537.45148 -147.63371 384
4346.12256 541.37811 -78.34193 475
4355.59082 515.91736 -149.26590 372
4361.32080 515.70453 -79.06225 401
4403.95752 494.63342 -152.46480 340
4405.40430 494.25180 -81.00684 361
4463.94824 474.11313 -155.81644 337
42285.44141 4310.82422 -5451.08594 1000
4524.53857 453.89316 -159.38275 344
4585.76172 432.03473 -163.80455 343
4729.06348 445.04074 -96.46742 373
4649.05859 408.83160 -167.27576 343
4719.19092 415.11136 -96.72655 377
4716.49854 387.43283 -172.35965 343
4781.61426 362.78409 -176.28600 347
2951.73950 -42.86031 -102.66650 339
2941.59253 -59.66908 -101.80289 498
2949.97681 -60.11203 -55.33462 485
19554.56836 -888.14911 -3415.57739 1000
3879.03027 -740.66986 -121.08371 481
4820.66992 -1169.48267 -107.78091 353
4769.11279 -1187.14417 -105.32449 476
4749.11133 -1211.96863 -105.02457 474
4729.78467 -1237.31274 -104.61594 480
4709.65967 -1262.52771 -104.07004 480
63120.31250 -17237.87891 4399.53857 1000
4691.99268 -1288.85632 -104.02538 485
4674.61963 -1313.23022 -103.13523 485
4658.49609 -1339.52319 -102.38142 488
4643.19385 -1365.80774 -102.43867 468
4627.82471 -1391.12476 -102.57104 469
4752.67969 -1430.07544 51.31792 281
4614.43848 -1417.60645 -101.34545 471
4736.48828 -1456.07336 -28.88300 314
4636.42871 -1424.49304 53.17363 477
4600.46826 -1443.14807 -100.96626 472
4639.30859 -1456.05273 -24.95872 316
4625.89893 -1452.17371 53.57418 477
4588.49658 -1469.92468 -101.89409 472
4626.59521 -1483.56580 -25.88378 499
4615.52148 -1479.96436 53.50502 484
4575.81299 -1496.88428 -101.03378 473
4617.29932 -1510.00183 -24.59933 499
4605.84717 -1507.37402 52.92189 484
4563.91260 -1523.86230 -101.16564 474
4607.44824 -1538.30859 -25.01775 499
4596.84473 -1534.67334 52.43523 353
4551.60449 -1550.43811 -101.35129 474
4592.21533 -1564.19702 -24.74164 499
4600.36816 -1566.33911 52.72176 422
4541.57617 -1577.37061 -101.23222 474
4581.70996 -1591.80981 -24.71836 499
4589.64648 -1594.27246 52.49077 422
4531.59912 -1604.59314 -100.92367 474
4572.36182 -1618.36389 -25.49967 499
4571.85010 -1619.02075 52.57446 417
4521.02490 -1630.92236 -100.91743 474
4567.83838 -1648.96448 -25.74891 499
4568.17871 -1649.32642 53.28604 422
4510.14502 -1657.94971 -101.20774 472
4557.78174 -1675.58264 -25.23762 499
4556.93066 -1675.40442 52.68499 422
4500.19971 -1685.31287 -100.71211 472
4547.88770 -1703.58142 -25.09872 499
4545.47900 -1703.29382 52.37254 422
4650.36914 -1743.25671 131.05600 429
4490.10742 -1711.89929 -100.89803 497
4537.88477 -1730.42871 -25.56749 499
4535.06689 -1730.71790 52.83896 422
4634.30615 -1769.19556 130.81715 467
4480.54053 -1740.26160 -100.42167 497
4470.26416 -1766.53430 -100.92347 497
4650.11377 -1839.30066 131.52837 464
4460.45752 -1794.17310 -101.73079 497
4635.32178 -1866.01636 130.73682 408
4451.23877 -1821.66187 -100.61909 497
4440.48730 -1848.35571 -101.10343 497
4430.54102 -1876.07300 -101.32623 497
4424.30420 -1905.32153 -101.00779 499
4413.89502 -1932.03564 -102.31187 499
4402.22754 -1958.69958 -101.61339 499
4395.09766 -1987.24377 -101.39672 499
4385.28174 -2015.62476 -101.73502 498
4372.23633 -2041.70178 -102.27789 498
4476.39014 -2090.08911 -28.06761 488
4368.75732 -2072.35815 -102.47162 441
4456.87549 -2114.25781 -28.34257 493
4444.47363 -2141.56763 -106.94501 435
4437.97412 -2138.41235 -28.06875 493
4437.44482 -2171.94604 -107.49965 428
4391.90479 -2148.78589 -26.25511 468
3070.05762 -2139.09277 -49.09370 468
2231.29736 -2024.07886 -61.52164 354
2208.31152 -2002.36584 -11.62206 355
2193.01074 -2012.31152 -58.59814 354
2163.10962 -1983.67017 -8.87258 319
2155.05518 -2000.07349 -56.59328 356
2126.32324 -1972.19165 -7.43484 364
2119.17163 -1989.78406 -54.41045 363
2090.44067 -1961.69958 -5.95719 366
2085.00269 -1980.05701 -52.17140 364
2056.52734 -1951.29041 -4.21905 337
2050.96753 -1969.94250 -50.52839 365
2023.03003 -1941.78259 -2.92270 368
2018.24573 -1961.28967 -48.63452 366
1993.28638 -1935.97375 -1.32932 370
1985.87329 -1952.08557 -46.85453 368
1960.72729 -1926.13342 0.18949 371
1955.13232 -1943.32031 -44.45565 363
1928.97009 -1916.25232 1.43945 373
1924.67603 -1935.25415 -42.91670 355
1897.22351 -1906.79150 2.69524 374
1906.51172 -1916.61865 45.32729 377
1894.51917 -1926.61084 -41.05401 356
1867.19385 -1897.68164 3.95524 375
1876.52710 -1907.63452 46.48040 378
1864.03137 -1918.37537 -39.20178 357
1839.59900 -1891.19971 4.96679 404
1846.96692 -1898.92432 46.97631 401
1836.13330 -1910.83789 -37.92134 356
1815.40271 -1888.42761 6.04185 418
1822.75964 -1896.18579 47.33078 417
1811.10181 -1906.35999 -36.26355 376
1792.81897 -1886.76331 7.13749 426
1803.86023 -1898.68604 48.33258 486
1788.60095 -1904.97559 -35.47000 383
1771.89465 -1886.59424 7.84231 437
1789.40540 -1906.12146 47.91172 481
1767.17627 -1903.98486 -34.70833 392
1751.35620 -1886.40869 8.42003 431
1780.22546 -1919.67102 48.05990 444
1745.70850 -1904.12524 -33.29401 395
1731.10010 -1887.06287 8.70558 440
1775.00757 -1936.83533 47.79398 443
1726.33264 -1904.58752 -32.45284 396
1712.48962 -1887.80103 9.73822 446
1769.38123 -1954.40234 47.14724 442
1706.89709 -1905.68384 -32.02778 402
1693.58850 -1889.75488 10.32836 454
1763.17163 -1972.24756 47.29065 441
1688.30994 -1906.71411 -31.12853 402
1675.67786 -1892.04431 10.92702 455
1758.07556 -1989.99390 46.53098 441
1670.49731 -1908.99048 -30.77889 414
1658.89807 -1895.25073 11.26641 460
1752.13416 -2007.94250 46.75507 440
1652.66382 -1911.77307 -29.80233 421
1642.38025 -1898.53503 11.80121 461
1746.06531 -2026.07922 45.85467 439
1636.02332 -1914.53955 -29.01358 421
1625.34668 -1901.48132 11.79210 455
1740.37573 -2044.58496 45.91673 438
1618.77954 -1917.32874 -28.54039 426
1608.42102 -1904.35437 12.31137 457
1734.32947 -2062.96582 45.33759 438
1601.88916 -1920.02209 -28.01497 427
1592.16663 -1907.74866 12.40238 455
1728.76758 -2082.02393 45.42755 437
1584.65869 -1922.45239 -27.54315 427
1576.33484 -1911.55188 12.89508 459
1733.58862 -2114.91602 44.30655 286
1583.14502 -1945.39258 -28.93427 284
1560.52917 -1915.64539 13.36379 456
1582.45435 -1968.74280 -29.98324 284
1545.69629 -1920.26929 13.88193 458
1530.51562 -1924.58459 13.88985 454
1516.18652 -1929.67346 14.01769 392
14019.02344 -38394.64062 -6669.04346 1000
28.92896 -3117.81641 77.04724 471
28.49487 -3116.34253 128.78944 496
28.57681 -3116.10596 179.25537 473
28.70792 -3117.36621 230.96944 428
-294.34778 -2474.80542 47.34816 499
-294.35660 -2473.65015 88.29663 499
-294.13553 -2472.55957 129.42397 491
-293.88971 -2471.75513 170.08099 458
-294.24210 -2471.30981 211.13284 458
-294.00061 -2472.12720 252.63626 406
-600.29449 -1823.24854 66.51352 497
-599.51434 -1822.06897 98.65050 497
-599.30017 -1820.75940 130.41360 495
-598.48639 -1819.59229 162.17055 495
-598.35925 -1818.96191 194.19724 470
-598.13599 -1817.85034 225.87234 470
-597.97864 -1817.67480 257.93640 422
-43777.02734 -53145.57031 11473.75879 1000
-51.86244 -131.52679 158.35973 1000
-47374.52734 -35428.65234 13926.09375 1000
-3759.26440 -1867.93994 202.02550 498
-3126.57275 -1537.30420 189.66667 438
-2496.58423 -1218.11047 131.51570 488
-2500.56641 -1220.30310 178.30005 487
-2510.06592 -1204.14575 131.79788 388
88.70926 -3.40676 127.62794 256
88.70738 -3.40825 127.90263 256
88.70467 -3.40996 128.17319 256
88.44895 -3.47062 128.38672 302
90.11670 -2.99309 128.00452 377
90.11581 -2.99170 128.25378 377
89.63245 -3.10368 128.38774 306
88.48587 -3.37121 128.38763 302
90.21675 -2.89104 128.02286 378
90.21688 -2.89072 128.27141 379
89.67026 -3.01550 128.38773 306
88.52344 -3.27517 128.38524 302
90.31709 -2.79069 128.03882 379
90.31789 -2.78969 128.28677 380
89.70702 -2.92353 128.38640 306
88.56067 -3.17689 128.38654 302
90.41614 -2.69148 128.05563 381
90.41702 -2.69168 128.30199 381
89.74547 -2.83519 128.38535 306
88.59748 -3.08067 128.38571 302
90.51516 -2.59407 128.07254 382
90.51313 -2.59413 128.31860 383
89.78471 -2.74456 128.38564 306
88.63699 -2.98273 128.38493 302
90.61056 -2.49548 128.08728 383
90.61230 -2.49705 128.33226 384
89.82603 -2.65574 128.38524 306
88.67492 -2.88519 128.38629 302
87.33224 -3.15701 128.38586 298
90.70889 -2.39993 128.10410 384
90.70746 -2.40000 128.34627 385
89.86642 -2.56457 128.38643 306
88.71429 -2.78784 128.38684 302
87.37311 -3.04889 128.38834 298
90.80215 -2.30353 128.11887 386
90.80386 -2.30530 128.35855 386
89.90639 -2.47457 128.38562 306
88.75360 -2.69235 128.38770 302
87.41321 -2.94460 128.38490 298
90.89642 -2.21129 128.13177 387
90.89655 -2.21210 128.37431 387
89.94695 -2.38442 128.38560 306
88.79533 -2.59387 128.38583 302
87.45098 -2.84024 128.38629 298
90.99067 -2.11816 128.14783 388
90.99050 -2.11666 128.38670 389
89.98968 -2.29494 128.38614 306
88.83566 -2.49803 128.38756 302
87.49234 -2.73380 128.38828 298
91.08308 -2.02635 128.15930 389
91.03548 -2.03321 128.38770 310
90.03177 -2.20223 128.38515 306
88.87720 -2.39805 128.38524 302
87.53409 -2.62625 128.38744 298
91.17480 -1.93536 128.17358 391
91.07904 -1.94835 128.38710 310
90.07372 -2.11236 128.38538 306
88.91969 -2.30251 128.38576 302
87.57405 -2.52206 128.38641 298
91.26325 -1.84370 128.18655 392
91.12377 -1.86538 128.38628 310
90.11755 -2.02153 128.38776 306
88.96168 -2.20377 128.38751 302
87.61495 -2.41550 128.38826 298
91.35104 -1.75252 128.19595 471
91.16736 -1.78214 128.38713 310
90.16269 -1.93235 128.38559 306
88.07536 -2.24680 128.18216 347
87.66093 -2.30882 128.38512 298
86.07354 -2.54785 128.38635 294
91.37320 -1.67448 128.19202 471
91.21313 -1.69674 128.38655 310
90.20690 -1.84184 128.38596 306
87.83858 -2.18309 128.12186 346
87.70380 -2.20498 128.38760 298
86.11616 -2.43342 128.38829 294
91.39462 -1.59570 128.18552 472
91.26007 -1.61343 128.38708 310
90.25407 -1.75219 128.38550 306
87.59499 -2.12052 128.05853 344
87.59644 -2.12045 128.35588 345
86.15907 -2.31707 128.38716 294
91.41409 -1.51527 128.17792 473
91.30620 -1.52911 128.38634 310
90.29749 -1.66250 128.38678 306
87.34357 -2.05185 127.99687 343
87.34450 -2.05140 128.29597 343
86.20320 -2.20374 128.38467 294
91.43619 -1.43572 128.17087 473
91.35156 -1.44438 128.38615 310
90.34494 -1.57113 128.38622 306
87.12617 -1.97491 127.93752 442
87.12679 -1.97509 128.24580 443
86.24725 -2.08686 128.38504 294
91.45918 -1.35335 128.16367 474
91.39883 -1.36235 128.38788 310
90.39262 -1.48020 128.38745 306
87.03331 -1.88140 127.90673 442
87.03369 -1.88299 128.21718 442
86.29394 -1.97221 128.38670 294
91.48000 -1.27223 128.15822 474
91.44803 -1.27737 128.38600 310
90.43913 -1.39243 128.38599 306
86.93717 -1.78582 127.87701 441
86.93689 -1.78792 128.18678 441
86.34037 -1.85464 128.38554 294
91.50088 -1.19123 128.14915 475
91.49616 -1.19243 128.38525 310
90.48733 -1.30234 128.38542 306
86.84088 -1.69179 127.84612 440
86.84165 -1.69197 128.15915 440
86.38915 -1.73950 128.38513 294
91.52354 -1.11039 128.14287 475
91.52341 -1.11116 128.38229 476
90.53645 -1.21032 128.38666 306
86.74334 -1.59483 127.81662 439
86.74344 -1.59386 128.13159 439
86.43667 -1.62471 128.38794 294
91.54404 -1.02886 128.13466 476
91.54510 -1.02910 128.37529 477
90.58492 -1.12106 128.38589 306
86.66303 -1.49119 127.78638 302
86.64336 -1.49395 128.10010 438
86.48464 -1.50951 128.38820 294
91.56743 -0.94884 128.12921 476
91.56622 -0.94687 128.36786 477
90.63419 -1.03123 128.38693 306
86.71296 -1.37613 127.78720 302
86.54378 -1.39439 128.06892 437
86.53465 -1.39372 128.38696 294
91.58833 -0.86571 128.11958 477
91.58969 -0.86670 128.36122 478
90.68557 -0.93974 128.38570 306
86.76347 -1.26491 127.78893 302
86.43931 -1.29058 128.04091 436
86.44061 -1.29120 128.35974 437
91.60987 -0.78354 128.11240 477
91.61105 -0.78399 128.35210 478
90.73631 -0.85064 128.38617 306
86.80994 -1.15003 127.78638 302
86.33526 -1.18609 128.00844 436
86.33650 -1.18362 128.33147 436
91.63217 -0.70028 128.10599 478
91.63418 -0.70120 128.34435 479
90.78934 -0.76082 128.38696 306
86.86404 -1.03435 127.78844 302
86.28289 -1.07444 127.98763 490
86.28233 -1.07351 128.31393 491
91.65501 -0.61927 128.09818 478
91.65656 -0.61786 128.33678 479
90.83999 -0.66901 128.38516 306
86.91445 -0.92029 127.78908 302
86.25472 -0.96444 127.97324 490
86.25193 -0.96357 128.29747 491
91.67806 -0.53428 128.09006 479
91.67749 -0.53650 128.32976 480
90.89359 -0.58115 128.38765 306
86.96296 -0.80715 127.78835 302
86.22128 -0.85022 127.95525 490
86.22361 -0.85120 128.28508 490
91.70016 -0.45144 128.08023 479
91.69859 -0.45166 128.32207 480
90.94785 -0.48983 128.38527 306
87.01645 -0.69074 127.78944 302
86.19072 -0.73511 127.93870 489
86.19267 -0.73329 128.26656 490
91.72117 -0.36732 128.07185 480
91.72230 -0.36702 128.31563 481
91.00089 -0.40116 128.38693 306
87.07098 -0.57966 127.78671 302
86.16271 -0.61992 127.92235 489
86.16206 -0.61783 128.25304 490
84.99255 -0.67060 128.38751 290
91.74532 -0.28398 128.06474 480
91.74455 -0.28529 128.30717 481
91.05412 -0.31212 128.38525 306
87.12244 -0.46336 127.78838 302
86.12954 -0.50188 127.90517 489
86.13085 -0.50324 128.23479 489
85.04675 -0.54367 128.38809 290
91.76763 -0.19995 128.05557 481
91.76634 -0.19931 128.30026 482
91.10874 -0.22183 128.38766 306
87.17905 -0.35124 127.78920 302
86.09979 -0.38756 127.88839 488
86.09914 -0.38395 128.22203 489
85.10382 -0.41964 128.38800 290
91.79106 -0.11614 128.04747 481
91.78998 -0.11545 128.29048 482
91.16506 -0.13316 128.38608 306
87.23440 -0.23910 127.78594 302
86.06918 -0.26644 127.86989 488
86.06790 -0.26735 128.20602 489
85.16006 -0.29077 128.38710 290
91.81322 -0.03108 128.03845 481
91.81310 -0.02886 128.28259 482
91.22116 -0.04146 128.38628 306
87.28802 -0.12272 127.78798 302
86.03612 -0.14821 127.85349 488
86.03405 -0.14926 128.18895 488
85.22040 -0.16649 128.38481 290
91.80663 0.05534 128.02260 484
91.80548 0.05494 128.26724 485
91.27754 0.04827 128.38774 306
87.34688 -0.01059 127.78718 302
86.00232 -0.02877 127.83620 487
86.00307 -0.02758 128.17178 488
85.28111 -0.03819 128.38803 290
91.78326 0.13911 128.00154 483
91.78352 0.13981 128.24751 484
91.33388 0.13768 128.38728 306
87.40419 0.10386 127.78841 302
86.01820 0.09149 127.82840 486
86.02094 0.09264 128.16246 487
85.33695 0.08954 128.38507 290
91.76022 0.22692 127.98087 483
91.75974 0.22660 128.22835 484
91.39093 0.22616 128.38716 306
87.46180 0.21850 127.78902 302
86.05141 0.21303 127.82475 486
86.05238 0.21512 128.16025 487
85.39747 0.21285 128.38872 290
