# .PCD v.7 - Point Cloud Data file format
VERSION .7
FIELDS x y z rgb
SIZE 4 4 4 4
TYPE F F F U
COUNT 1 1 1 1
WIDTH 1030
HEIGHT 1
VIEWPOINT 6356.855957 -3739.268799 140.730698 -0.361896 -0.143076 -0.034663 0.920521
POINTS 1030
DATA ascii
-197.25151 0.92347 53.39024 324
-197.27751 2.71132 53.33589 324
-2584.89160 11.04774 87.61237 498
-2590.33374 10.70729 130.91971 482
-2598.13892 10.52995 175.53513 391
-197.31741 4.51267 53.40049 324
-2590.46021 27.19891 86.92327 405
-2597.23047 27.02852 130.81805 338
-197.30951 6.29765 53.34645 324
-3321.94678 55.47471 130.41003 395
-197.31328 8.15303 53.33491 324
-197.27357 9.96467 53.35541 324
-197.21449 11.74341 53.40655 324
-271.39856 57.70617 32.59245 318
-287.59195 60.09259 34.91275 262
-264.97961 59.00239 34.25168 320
-279.56088 61.27516 36.88749 322
-296.13708 63.96003 39.59616 312
-260.52634 60.53468 35.36778 350
-275.26346 63.00336 37.87540 346
-291.30658 65.59616 40.66909 341
-2573.90259 441.51865 533.12140 1000
-2542.35596 436.12610 709.26990 1000
-258.69830 62.44028 35.77051 350
-273.19016 64.89767 38.33384 347
-289.42688 67.73770 41.02378 341
-256.73840 64.32060 36.16525 351
-271.27045 66.93039 38.69719 345
-290.09894 70.26182 40.74497 319
-254.89798 66.23915 36.60895 351
-270.45389 69.10200 38.88483 322
-252.98631 68.14290 37.02730 349
-272.34802 71.80396 38.27628 319
-254.33974 70.63496 36.57286 322
-274.61853 74.51896 37.54170 318
-256.32736 73.22513 35.89578 322
-258.33548 75.89472 35.22639 321
-17187.12695 14891.89062 2762.10205 1000
-29872.07422 27135.18750 5464.76416 1000
-11124.33984 11079.28223 134.75395 456
-11024.81738 11112.57324 137.37486 460
-10972.64941 11061.16016 392.16400 477
-10922.72949 11150.10059 135.09840 466
-10876.48145 11100.21191 393.93195 478
-10824.89160 11190.20020 136.42348 466
-10781.83496 11141.30664 390.79074 421
-10731.42578 11226.87207 135.42412 467
-10685.89648 11180.86523 389.54178 422
-10635.78516 11264.88281 137.82762 467
-10592.06543 11219.79199 388.77954 422
-10540.88574 11303.59668 137.76605 468
-10500.40137 11260.15820 389.63818 422
-10444.65918 11341.57715 137.59860 469
-10406.39941 11304.32520 387.44461 423
-10421.24414 11458.64844 -119.28757 448
-10345.17773 11378.33105 137.10536 469
-10314.08496 11338.90234 387.48630 423
-10325.59473 11497.09668 -117.00518 448
-10254.64551 11415.00098 135.44240 470
-10235.84766 11397.88184 389.53629 260
-10229.23730 11533.62109 -116.88233 449
-10159.50098 11450.84082 135.38991 470
-10133.80176 11566.93652 -114.03019 449
-10066.44043 11489.31250 138.49501 471
-10040.02539 11602.14844 -115.01686 450
-9970.92871 11525.94727 138.45914 471
-9945.13574 11637.42676 -115.10356 450
-9879.49512 11565.84082 138.11534 472
-11096.73633 12970.53418 418.48264 296
-9850.72266 11675.48926 -114.96042 451
-9787.57520 11602.13477 136.49759 472
-9757.53320 11709.72949 -111.30061 470
-9697.22266 11635.97559 137.93570 472
-9663.98633 11748.25000 -113.31314 470
-9602.11523 11672.75977 137.11725 473
-9570.33594 11781.91699 -111.88955 471
-9512.42285 11705.87012 137.75455 473
-9479.98145 11816.89062 -110.96812 471
-9420.08984 11743.28516 137.11714 474
-9391.80566 11853.43848 -109.25198 471
-9330.21484 11781.34863 134.94246 474
-9299.25879 11887.38672 -112.72413 472
-9238.75391 11815.98047 137.75868 475
-9208.87402 11923.71973 -110.43246 472
-9152.86035 11851.09277 138.74590 475
-9116.60645 11959.07910 -110.87862 474
-9062.86523 11886.58203 138.87209 475
-9028.84375 11996.68750 -108.98446 474
-8970.56641 11921.10156 137.01552 476
-8986.12598 11941.57715 384.20984 426
-8939.75488 12032.81152 -108.14491 475
-8884.50488 11958.55664 138.79892 484
-8899.73047 11974.62891 381.05759 428
-8851.90723 12066.00098 -107.22929 475
-8794.35352 11992.09473 138.24213 484
-8806.34375 12010.38574 379.97720 428
-17429.41992 23951.68359 -4757.05127 1000
-8758.50879 12101.39258 -109.64500 476
-8706.56934 12029.25293 135.15794 485
-8720.75000 12046.62402 383.55518 425
-8672.38965 12137.99902 -106.75269 476
-8621.02734 12064.25391 138.59615 485
-8637.58398 12084.54395 380.38052 384
-8584.47168 12171.10840 -108.78799 476
-8532.11133 12101.28809 137.03217 486
-8493.07324 12204.67090 -108.84010 477
-8445.05371 12133.17773 137.43105 486
-8406.29297 12240.20020 -105.32162 477
-8359.34082 12168.64062 138.37975 486
-8321.02832 12273.62793 -106.82974 477
-8272.89648 12204.58203 135.60197 487
-8233.86719 12309.65332 -105.85643 478
-8183.73730 12239.37207 139.40042 487
-8146.09717 12341.72363 -107.15369 478
-8098.41016 12273.19824 137.83325 487
-8060.00732 12375.77930 -103.95347 478
-8014.48682 12307.28711 137.32542 487
-7971.77783 12411.63574 -104.62118 479
-7929.41357 12343.47070 135.67876 491
-8335.65625 12970.66016 392.41986 484
-8346.74902 12985.94043 645.35480 407
-7887.95068 12444.40234 -104.13395 479
-7843.50537 12380.54688 137.13745 491
-8236.18848 12991.79492 388.06775 484
-8248.16309 13008.12109 642.62360 407
-7800.23584 12481.43750 -105.46314 479
-7758.74365 12415.27246 137.17265 492
-8140.69336 13014.33984 387.64825 485
-8152.12402 13036.66016 642.98840 408
-7714.56104 12512.40918 -103.90728 479
-7675.47656 12447.78027 138.43716 492
-8041.95654 13036.53906 388.33771 485
-8053.92725 13059.67090 641.06976 408
-7625.64062 12546.26855 -105.49512 480
-7587.74707 12480.70898 139.28821 492
-7942.74756 13059.55859 389.52554 486
-7958.43604 13085.46191 639.05658 408
-7542.64160 12580.11523 -102.60304 480
-7503.37305 12518.25195 138.26753 492
-7846.05176 13080.24414 387.15347 486
-7861.05615 13108.34570 640.81317 409
-7459.41650 12614.83984 -103.80748 480
-7419.90283 12548.50098 136.09592 493
-7748.54736 13101.25977 388.10043 487
-7767.84277 13135.09375 636.79083 409
-7373.45898 12646.70020 -104.46600 480
-7335.87061 12586.86816 135.98218 493
-7653.24023 13125.87500 388.01859 487
-7672.55371 13154.96582 637.50171 409
-7286.72119 12682.23145 -104.63767 481
-7252.98584 12620.39941 139.36739 493
-7555.90527 13143.57910 384.93515 488
-7579.61035 13181.21387 639.02979 409
-7201.28467 12717.00879 -100.87550 481
-7165.10791 12654.65332 138.10480 493
-7459.95996 13167.57520 384.58493 497
-7485.05176 13205.75781 638.11188 410
-7116.95215 12746.46777 -101.50936 481
-7083.60693 12689.59375 137.36905 493
-7374.84961 13203.29199 385.22433 497
-7397.47510 13240.36328 633.93878 416
-7034.19385 12781.69434 -103.01511 481
-6999.88477 12721.44824 138.84816 494
-7286.66016 13237.79004 385.51468 497
-7310.95312 13278.02051 637.34644 416
-6948.95654 12813.46777 -102.46110 481
-6916.30078 12756.53711 137.96977 494
-7201.25342 13272.93359 384.16245 498
-7226.26074 13319.20898 633.87708 416
-6862.65674 12849.55469 -101.79646 482
-6832.68115 12790.46875 136.44354 494
-7115.12158 13307.68262 384.97324 498
-7138.93750 13356.31641 636.33075 416
-6778.81641 12881.00684 -100.47202 482
-6750.71143 12824.61523 135.94652 494
-7026.46143 13340.34473 384.34824 498
-7054.44580 13397.89453 635.01892 416
-6695.21582 12915.51953 -100.77883 482
-6664.47510 12858.73730 136.81502 494
-6939.37402 13377.14844 386.82208 498
-6967.84473 13435.22559 632.50195 416
-6610.66309 12946.04980 -102.36366 482
-6584.96289 12891.22852 139.29756 494
-6851.43994 13411.61230 383.36243 498
-6884.12891 13470.10352 634.68866 417
-6528.99463 12979.25977 -99.39845 482
-6499.25537 12927.34668 136.33173 494
-6721.10107 13362.15039 384.65186 340
-6797.02783 13509.53809 632.52911 417
-6442.39990 13012.25391 -98.62288 482
-6417.42285 12961.26074 139.25890 495
-6633.74561 13389.41504 384.11566 497
-6699.79688 13526.15527 632.56165 498
-6360.12061 13044.35254 -100.76228 482
-6333.73047 12992.68164 137.74481 495
-6546.00000 13424.85547 384.04163 497
-6615.10791 13559.37891 631.44934 498
-6278.33789 13080.42773 -99.62811 483
-6252.34570 13026.17480 136.64575 497
-6462.44873 13456.24707 383.13864 497
-6528.91309 13596.81445 631.00848 499
-6193.44287 13112.41016 -101.19152 483
-6169.52832 13062.10840 138.18384 497
-6376.18701 13492.88281 383.31616 491
-6440.91602 13630.36426 632.56122 499
-6521.05371 13791.17480 888.06940 341
-6109.17383 13147.04199 -98.52692 483
-6084.49268 13096.18555 139.23973 498
-6290.69922 13531.36230 380.96228 489
-6353.26172 13664.19336 631.73718 499
-6418.80225 13802.42285 885.88782 488
-6438.14307 13841.90820 1141.90137 372
-6027.60889 13176.80469 -102.06873 483
-6003.75977 13129.15723 138.35716 498
-6248.45020 13653.92578 384.63611 499
-6262.58350 13684.03320 630.31744 450
-6266.47070 13697.04688 879.59290 450
-5979.89697 13294.48438 -340.13339 480
-5943.59619 13210.05176 -99.92753 483
-5920.04785 13164.78418 138.65767 498
-6144.32471 13654.05762 383.13571 451
-6150.32861 13664.56934 629.28784 451
-6155.97314 13675.14355 877.41699 451
-5896.20215 13325.70703 -340.54102 480
-5860.96924 13244.17188 -97.90198 483
-5837.98438 13199.14941 138.69962 498
-6034.75830 13629.41309 381.79718 452
-6038.40918 13640.45996 628.56982 452
-6042.81641 13652.34180 871.74670 452
-5811.54004 13356.54102 -339.27682 480
-5777.41309 13278.30273 -100.29474 483
-5757.12305 13231.08398 138.75681 498
-5922.35254 13607.52344 381.85385 453
-5927.85889 13618.90234 625.20325 453
-5931.60303 13627.32520 868.21808 452
-5729.71582 13389.39844 -342.27200 480
-5694.21729 13307.59277 -99.73270 491
-5676.25244 13266.31641 138.06667 498
-5818.45068 13598.33594 380.72086 499
-5823.32666 13601.82227 622.28815 499
-5823.66846 13608.04395 864.96930 499
-5646.20410 13422.78711 -340.68686 480
-5611.95459 13345.91602 -100.41782 491
-5591.82178 13298.93359 139.62422 498
-5735.51855 13634.06055 381.19693 499
-5737.53320 13636.03418 624.58990 499
-5739.61328 13641.22852 867.61401 499
-5822.38037 13836.53711 1124.82190 432
-5818.78857 13830.67383 1372.81531 432
-5822.71094 13838.56641 1618.80249 446
-5560.87500 13458.04199 -341.66406 480
-5528.10352 13375.76270 -98.09666 491
-5511.36230 13333.01074 137.63841 498
-5636.39697 13639.07910 381.61398 499
-5641.45898 13643.41797 622.38080 499
-5652.58496 13674.55859 867.18823 499
-5775.54248 13959.16309 1130.33813 480
-5480.25244 13489.79492 -338.77676 480
-5445.50781 13408.27441 -100.19325 491
-5428.13428 13365.79590 135.77028 498
-5554.51709 13675.33887 379.20233 499
-5554.48975 13676.15332 623.06140 499
-5568.14893 13708.46973 865.57819 499
-5687.82617 13994.23926 1130.30872 480
-5394.91455 13522.33008 -339.77859 480
-5363.80811 13445.97559 -101.21870 491
-5347.36914 13402.11621 135.82594 498
-5469.41406 13705.21973 379.92999 499
-5471.13672 13710.82812 623.89319 499
-5484.19336 13742.52734 864.81537 499
-5601.30811 14029.22559 1128.39050 480
-5313.07959 13556.64941 -339.76617 480
-5279.72559 13476.65820 -98.16299 491
-5261.68262 13436.37012 137.93083 498
-5383.43066 13740.47363 377.97769 499
-5387.62695 13746.35254 622.22723 499
-5401.49316 13779.21973 867.18640 499
-5513.66162 14062.95020 1130.26392 480
-5227.19824 13589.12012 -338.75833 480
-5196.86328 13510.77734 -99.56683 491
-5182.33350 13467.59180 137.84456 498
-5300.51465 13776.03711 381.23264 499
-5303.57129 13780.86523 622.24994 499
-5315.69336 13810.14648 864.62708 499
-5428.13428 14097.74414 1131.86804 480
-5142.57324 13621.62793 -341.14017 480
-5114.72461 13544.54883 -100.92624 491
-5098.31885 13505.43066 138.76320 378
-5216.37500 13810.48730 381.65433 499
-5217.28906 13813.41309 620.90729 499
-5233.40820 13845.95996 864.43890 499
-5342.16650 14134.87109 1131.93225 480
-5059.51465 13652.89844 -340.36172 480
-5031.36963 13580.58398 -101.07256 491
-5019.33594 13540.63086 138.64848 446
-5132.78223 13843.56348 378.47800 499
-5133.74512 13845.92578 620.63678 499
-5143.72363 13879.48340 866.02203 499
-5254.12549 14170.62402 1129.88306 480
-4976.35596 13686.69727 -340.87854 480
-4950.61279 13610.46484 -98.47986 491
-4936.85840 13575.72559 135.57854 446
-5048.78174 13876.77637 378.28851 499
-5049.12646 13880.97852 623.51605 499
-5060.31738 13914.02539 865.60461 499
-5167.71582 14202.85254 1129.29028 480
-4894.96924 13719.62305 -341.31189 480
-4867.15576 13646.19531 -98.36435 491
-4852.32275 13608.58105 138.77611 465
-4974.08350 13940.68555 379.99289 499
-4973.56592 13943.54492 622.05011 499
-4892.31689 13712.89844 855.80585 360
-5083.44727 14238.80957 1131.39795 472
-4807.85205 13753.81641 -341.32840 480
-4784.77588 13679.69824 -98.36671 491
-4770.97656 13644.15332 137.34457 425
-4887.99512 13975.12598 382.16730 499
-4889.77441 13978.33301 622.86487 499
-4777.54150 13666.36816 849.56812 499
-4996.87354 14277.11230 1130.25830 475
-4726.61328 13786.62012 -339.52545 480
-4698.97119 13712.64551 -98.69466 491
-4690.18408 13683.29590 138.62700 425
-4752.33838 13863.37207 377.78864 304
-4758.61621 13880.47852 618.15063 278
-4695.83398 13701.49707 851.63141 499
-4910.27344 14313.92773 1130.77637 475
-4641.89795 13818.13574 -340.62851 480
-4616.11621 13744.90820 -99.74422 491
-4610.19434 13724.24121 137.51106 302
-4666.20801 13886.39355 379.81055 472
-4643.34814 13820.65527 615.16620 457
-4615.45264 13733.37793 848.94977 499
-4824.62012 14353.44824 1132.52539 474
-4558.25928 13852.58984 -339.41916 480
-4534.80127 13779.98828 -101.32623 491
-4533.04834 13772.11523 139.52811 297
-4634.82031 14075.74121 380.72150 499
-4636.82031 14080.99023 623.08081 499
-4530.51855 13766.57422 853.00433 498
-4736.62402 14388.02930 1133.42041 474
-4473.82227 13884.67285 -339.13654 480
-4452.27197 13811.78418 -99.66180 491
-4457.25537 13827.82422 139.46646 297
-4548.37402 14110.92773 379.32492 499
-4549.71826 14115.44727 625.07990 499
-4447.93115 13802.07129 849.60291 498
-4654.59131 14424.69336 1134.91650 474
-4392.88232 13919.42480 -340.28781 480
-4369.24561 13846.09863 -99.93272 491
-4446.86865 14094.34082 139.22281 499
-4465.97607 14145.97168 379.26474 451
-4465.13135 14146.60645 624.92877 499
-4463.02979 14135.43262 868.17255 482
-4566.09033 14462.18457 1135.61719 474
-4307.53369 13953.15527 -340.65250 480
-4284.67383 13880.94434 -102.41800 490
-4365.44580 14127.38477 136.69023 499
-4399.74414 14238.37793 381.73038 450
-4396.31299 14238.17969 624.54309 450
-4401.87256 14244.14551 872.06378 353
-4489.57568 14529.84082 1136.44617 457
-4225.02881 13985.39355 -340.70181 480
-4201.52637 13912.39062 -100.73320 490
-4277.62793 14163.14746 139.22495 499
-4327.55420 14321.34082 380.85358 472
-4329.67090 14328.65723 626.74042 449
-4330.92139 14335.18359 875.97229 358
-4141.23438 14018.49023 -342.59448 479
-4118.47803 13949.24316 -101.35345 490
-4191.14600 14195.64062 137.94447 498
-4252.03027 14385.56152 385.27240 471
-4262.62744 14424.31152 631.97711 448
-4270.36328 14452.73828 877.57715 357
-4057.40210 14051.69824 -342.01028 479
-4032.61548 13981.62695 -99.51900 490
-4106.81348 14229.85938 138.01874 498
-4173.77197 14453.13770 384.71332 470
-4189.93896 14510.46094 631.62573 470
-3970.83911 14082.56543 -342.14667 479
-3951.10791 14014.38965 -101.61935 490
-4037.28394 14308.93164 135.97311 413
-4096.20264 14524.37305 385.21899 470
-4113.08643 14574.56641 634.54755 469
-3885.62207 14116.92676 -344.23929 479
-3865.30835 14049.96387 -101.14054 490
-3965.89819 14400.46680 137.49126 413
-4018.30298 14592.29688 386.38666 469
-3801.22754 14150.05957 -344.89062 479
-3782.58960 14082.99512 -103.06828 490
-3897.40234 14494.07520 138.28975 412
-3718.50000 14185.37207 -344.65497 479
-3698.38013 14117.64355 -100.85319 489
-3822.52197 14582.93457 136.05095 400
-3632.58252 14217.01855 -344.25873 480
-3614.42822 14152.90137 -103.87990 489
-3744.04688 14648.54980 138.65004 399
-3549.39087 14253.36523 -342.80408 480
-3531.21167 14185.42773 -101.48199 489
-3666.72583 14718.10059 135.54123 399
-3461.81836 14286.22852 -342.85593 480
-3447.71338 14219.85156 -101.97864 489
-3452.06055 14245.72656 135.48714 429
-3378.49414 14318.57422 -346.82291 479
-3363.05737 14252.01074 -102.96825 489
-3368.64722 14280.58008 136.82355 429
-3293.22021 14353.94043 -346.99866 479
-3278.58472 14287.66602 -102.50980 488
-3284.29541 14309.57129 136.38747 436
-3209.27783 14389.27051 -346.38553 479
-3191.58521 14320.81641 -104.49345 488
-3200.28540 14351.58984 137.65579 436
-3123.58472 14420.22754 -347.26907 479
-3105.97046 14356.60742 -105.32542 491
-3116.55640 14390.96875 138.07520 386
-3037.95679 14454.13281 -345.25699 479
-3022.08301 14391.29980 -102.87875 491
-2951.46484 14487.64258 -347.79129 478
-2935.81543 14426.53418 -102.38257 491
-2864.58423 14523.69531 -346.20145 478
-2854.28345 14461.28711 -104.52890 490
-2779.48486 14556.49805 -348.61725 478
-2767.10474 14496.89160 -102.71769 490
-2693.26782 14591.10742 -349.57892 478
-2679.59229 14530.17578 -104.10564 490
-2605.35791 14627.48828 -349.42807 477
-2592.53394 14566.08008 -103.07195 492
-2519.09644 14661.04199 -349.22540 477
-2508.19238 14601.01172 -104.71375 492
-2429.21802 14696.43750 -348.81442 477
-2420.50879 14637.39355 -104.03855 491
-2346.03003 14732.28906 -349.61090 484
-2337.08228 14673.37793 -108.02438 491
-2258.36719 14768.75098 -354.11719 484
-2247.76538 14710.76562 -107.92225 491
-2167.09790 14802.40820 -352.66925 484
-2160.30200 14744.97363 -106.56554 490
-2080.88525 14837.58887 -351.63934 483
-2073.38110 14780.32617 -105.95440 490
-1995.89807 14873.70312 -354.61777 483
-1985.67773 14815.96484 -107.87371 490
-1903.80908 14909.69141 -357.40848 483
-1897.64880 14856.95996 -109.05634 489
-1815.58252 14944.61816 -356.71179 482
-1810.27832 14892.94629 -108.48203 489
-1726.02405 14983.83203 -356.99728 482
-1719.53955 14929.22949 -106.97820 488
-7380.65967 64908.46875 -15080.21191 1000
-1637.97583 15018.30371 -358.67230 481
-1630.66272 14964.28906 -108.42792 488
-1549.79541 15054.69531 -359.59610 481
-1543.34241 15000.06934 -111.49488 487
-1458.68250 15090.13477 -360.08743 481
-1452.12170 15037.12109 -110.47836 487
-1366.67261 15127.53613 -362.28815 480
-1363.30249 15076.07812 -108.71687 487
-1276.62915 15165.04883 -361.46701 480
-1271.82153 15112.03809 -112.50543 486
-1185.49561 15201.43750 -364.52496 479
-1183.39917 15149.57129 -113.31782 486
-1094.75537 15241.01758 -362.36075 479
-1089.84839 15187.56934 -111.52827 485
-1004.88507 15277.40723 -364.96298 478
-1001.81970 15224.85645 -114.31265 485
-914.66058 15320.46973 -365.61340 456
-908.94385 15265.89160 -113.20982 484
-818.95465 15374.87012 -365.51227 456
-815.79547 15305.03418 -113.62824 481
-731.15375 15428.03125 -368.47476 455
-724.74536 15350.98242 -114.83292 480
-637.65247 15481.01758 -368.29871 456
-633.64380 15392.85352 -114.32809 480
-544.30402 15535.22461 -371.13156 455
-539.11475 15440.20410 -118.26600 479
-449.29529 15590.85449 -371.78830 455
-444.21521 15490.18652 -116.21227 461
-354.65784 15641.90723 -375.94327 454
-349.28812 15544.30664 -117.17017 460
-256.94775 15696.33887 -377.43546 453
-254.66655 15604.07227 -118.27981 459
-163.64497 15763.67676 -377.69141 409
-162.79282 15666.03516 -117.44065 458
-65.59616 15852.45312 -380.19687 408
-67.30484 15732.69141 -122.49650 458
30.93603 15940.65332 -387.05850 408
27.89651 15794.44922 -120.14637 457
128.15764 16029.98730 -387.23703 385
126.85809 15860.23145 -121.94036 456
225.17122 16134.06055 -391.77441 384
222.62518 15922.95801 -122.59802 455
326.55756 16256.96777 -394.75171 357
324.81720 15987.06445 -125.36439 454
432.61951 16396.55078 -401.79453 356
425.48315 16072.55957 -126.37557 395
524.42908 16195.71777 -128.74586 393
1290.13806 44578.58203 10542.60547 1000
632.99097 16318.03516 -128.64542 392
735.24219 16443.24219 -133.06647 390
841.27026 16590.68945 -136.44330 329
4247.85791 54459.92578 -13534.62109 1000
310.19510 1838.82739 -80.35456 467
311.30783 1844.31763 -50.10157 467
311.82806 1850.82117 -20.14319 410
6444.25732 53027.43359 2767.91699 1000
321.83951 1835.97498 -80.35572 497
322.18774 1841.12805 -49.79408 497
322.87793 1846.78333 -19.72488 486
323.77905 1852.12988 10.33338 428
333.81290 1841.08508 -80.95141 433
10108.05859 52953.13281 -8754.78125 1000
10540.98145 53441.61719 5505.74414 1000
15198.51953 61110.36328 -12378.67383 1000
14810.61621 58007.38672 -5752.45312 1000
10913.10059 27771.66211 2578.94800 1000
2120.88745 1742.46814 -85.28050 366
2117.45557 1718.67493 -84.49145 451
2119.58618 1698.64026 -82.99080 454
2121.24146 1678.53711 -82.63506 455
2123.22729 1659.62952 -81.31951 456
2127.41699 1641.86841 -80.97540 478
2132.73560 1625.56750 -79.96602 479
2137.45337 1609.07666 -79.71024 479
2142.49438 1592.57312 -79.09358 480
2149.05420 1577.52637 -78.73403 488
2155.58838 1562.28833 -79.02953 489
2162.62451 1547.47327 -78.35305 461
2169.69019 1533.01282 -78.19074 460
2176.86938 1518.64807 -78.11336 463
2184.42920 1504.21484 -77.83378 463
2192.83691 1490.31287 -77.43760 463
2200.55054 1476.41943 -77.49223 463
2291.83203 1540.32629 -42.20157 257
2207.91699 1462.12781 -77.76687 463
2269.29590 1504.17664 -39.44971 499
2216.04199 1448.91785 -77.31315 464
2279.01147 1491.03577 -39.69261 499
2224.10474 1435.13428 -77.29408 464
2285.14331 1475.28613 -39.76244 335
2232.56665 1421.62939 -77.53330 464
2241.43774 1407.75574 -77.14850 464
2250.36938 1394.78711 -77.33434 464
2259.47827 1381.79712 -76.98756 464
2268.57300 1368.75061 -77.44297 464
2278.43799 1356.14355 -77.20905 463
2346.63574 1398.37646 -40.67046 499
2287.52783 1343.45825 -77.31369 463
2356.82227 1385.29358 -40.26011 498
2408.65356 1416.97046 0.46903 498
2405.65234 1414.79932 45.09891 483
2296.63452 1330.52380 -77.74123 463
2434.64160 1413.36316 -0.72625 392
2408.65918 1397.51770 45.26427 484
2305.68140 1317.42358 -77.90921 463
2412.34888 1379.94653 45.47955 485
2454.36670 1405.33508 89.21923 498
2457.38843 1406.77515 133.93176 350
2315.27783 1304.05188 -78.20928 463
2324.52563 1291.06580 -77.86990 463
2333.93164 1278.45422 -77.93770 462
2499.63159 1372.14587 -48.30246 498
2343.26270 1265.05981 -78.05558 462
2386.17847 1288.82190 -38.59569 497
2352.85571 1252.15210 -78.58609 462
2395.82642 1275.90173 -39.16409 497
2362.25269 1239.43237 -78.63059 462
2371.86206 1226.07263 -78.56422 462
2381.27466 1212.65881 -79.03819 462
2390.86914 1199.65186 -78.90600 461
2548.00073 1281.49548 43.40636 278
2400.14917 1186.37524 -79.51933 461
2460.65015 1218.06189 -41.04731 496
2474.09790 1224.79663 1.65182 496
2477.04053 1225.88257 46.12394 496
2409.45239 1173.11499 -79.90188 461
2418.67163 1159.84143 -80.15992 461
2428.53662 1146.87573 -79.74644 461
2437.52441 1133.71997 -80.59658 460
2447.37720 1120.50903 -80.71769 460
2456.74438 1107.33838 -80.76771 460
2466.21216 1093.82239 -81.41050 491
2475.86792 1080.00415 -81.56034 490
2486.13574 1066.88708 -81.44308 490
2496.03784 1053.64746 -81.91393 490
2635.82666 1114.55139 -48.28429 420
2505.62891 1039.96753 -82.36881 489
2515.26880 1026.61438 -82.39436 489
2525.33228 1013.65149 -83.00793 489
2535.23364 999.29553 -83.39678 488
2546.41846 986.37219 -83.38730 460
2561.73291 975.40997 -84.40520 459
2576.94800 963.19067 -85.36047 458
2592.88696 951.84583 -85.99461 457
2608.17944 940.14380 -86.97375 456
17315.44336 5700.62842 140.78157 1000
49503.33984 9516.49805 -2320.17944 1000
2275.27856 -148.78830 -46.85059 469
2281.74414 -149.64714 -11.34356 438
2273.51343 -162.39851 -46.81502 474
2283.46655 -162.61562 -11.14885 367
67170.88281 -5417.21289 -8711.11328 1000
4816.42578 -1634.40308 -30.56457 438
4820.93018 -1667.93896 -31.64756 438
4827.63086 -1703.32410 -32.55288 437
4834.16016 -1737.65234 -33.09821 451
4845.68604 -1775.69507 -33.08326 383
4860.94678 -1815.16394 -33.91978 399
4880.97803 -1856.65393 -35.05819 384
4906.82568 -1900.85461 -37.22853 373
4946.84570 -1950.67224 -37.83092 342
5001.32764 -2008.70020 -41.54150 338
5055.35840 -2066.05835 -42.87115 345
5111.04834 -2125.48120 -46.37688 344
5171.47803 -2187.88599 -48.03680 344
5233.26221 -2252.04834 -50.48841 323
3399.85718 -1723.79980 10.81211 478
21443.57227 -14151.92969 -1125.08789 1000
8733.65820 -5726.97168 1153.64966 1000
3898.76392 -2763.92993 55.00271 375
5640.90674 -4577.17480 -457.39951 1000
4447.21973 -3591.93628 40.14111 427
4408.46729 -3604.85571 40.45843 443
4371.47803 -3618.69775 40.57492 470
4337.03711 -3635.27832 40.81543 477
4303.66162 -3651.61377 41.61994 478
4270.43311 -3667.37427 40.73569 482
4238.36816 -3685.27637 41.18642 483
4207.30908 -3702.14258 41.55844 485
4269.13330 -3758.20898 224.26833 274
4178.59570 -3722.47974 41.42326 492
4269.94775 -3805.30688 132.26169 294
4192.90479 -3735.45947 222.33704 477
4151.99902 -3744.43237 41.69779 493
4176.95361 -3767.57886 132.84113 496
4166.32129 -3758.01538 223.03917 481
4152.99609 -3791.92993 132.33388 498
4142.89600 -3781.83618 223.23207 349
4121.97119 -3809.23193 131.78938 498
4118.76855 -3807.15088 222.80585 339
4096.11475 -3832.58960 132.47673 498
4097.93701 -3833.48022 223.00896 425
4070.66675 -3853.98389 132.51685 498
4070.52637 -3854.43848 222.09000 425
4048.37939 -3881.51709 131.82030 499
4044.17480 -3876.86572 222.50334 425
4023.32764 -3903.23755 132.20935 499
4017.02100 -3897.16943 222.63211 465
3998.17505 -3925.82666 132.31372 499
3998.50000 -3926.03027 222.12450 499
4052.32275 -3982.15454 316.21362 458
3972.27148 -3949.15381 131.88144 499
3971.24878 -3948.13452 222.08482 499
4039.80762 -4017.16016 315.78473 479
4014.15405 -4090.30005 318.23386 472
3862.79810 -3982.33862 42.45557 478
3962.91113 -4087.86572 316.80133 434
3838.43335 -4005.40723 43.17138 478
3813.64307 -4027.25122 43.17100 478
3788.81885 -4051.23682 42.38596 478
3764.21948 -4073.32935 42.55531 442
3739.36377 -4097.53809 42.57223 447
3714.40088 -4119.53125 41.92902 447
3747.73413 -4156.54102 132.17485 499
3690.57886 -4142.95996 42.11274 447
3722.12988 -4178.87305 132.38374 499
3727.10864 -4238.09521 132.46764 486
38246.66016 -44530.07812 10801.71777 1000
3694.36279 -4250.98242 132.20882 487
3665.62354 -4271.24805 131.61949 492
3751.02563 -4428.52832 226.89258 434
2482.73804 -3599.38916 132.37743 442
1793.90454 -2990.35889 132.18137 330
1745.34949 -2947.91333 132.20668 331
1698.93115 -2906.81812 131.66743 332
1654.23523 -2867.01025 131.77046 333
1610.31189 -2827.06763 132.00098 335
1567.83435 -2788.90430 132.30550 337
1528.25134 -2755.22485 132.29263 350
1496.01294 -2734.39844 131.96307 387
1467.19006 -2720.11133 131.96123 405
1440.08862 -2708.08594 132.22137 392
1414.79236 -2697.35010 132.04491 391
1390.39233 -2689.38403 131.94310 388
1367.16833 -2684.23657 132.11110 403
1248.96057 -2473.78296 -319.32773 1000
1344.73608 -2678.94092 131.54361 367
1323.21301 -2674.95996 132.04761 367
1301.32727 -2671.45703 131.49301 372
1281.04993 -2669.10815 131.70432 355
1260.41052 -2667.64893 131.96126 334
1232.99915 -2648.94385 84.70000 422
1240.39771 -2666.61060 131.51469 334
1335.02344 -2886.84302 183.68260 454
1217.52820 -2657.71680 84.52544 302
1229.51868 -2686.04272 131.81187 271
176.96489 -426.57474 189.63509 1000
2091.00586 -35390.63281 4786.22852 1000
-3336.60303 -25386.08984 -1978.52625 1000
-639.42328 -2935.85107 130.96286 495
-639.17273 -2932.87671 180.46021 495
-638.78943 -2931.07324 229.67656 469
-638.59937 -2929.93311 279.30487 421
-595.21204 -2227.29883 131.01233 480
-595.14716 -2225.54688 169.22049 499
-594.11121 -2223.72754 207.82944 499
-593.91553 -2222.03833 245.79581 492
-592.78522 -2220.31323 283.96240 492
-592.69324 -2218.75952 322.06644 462
-19593.78320 -51971.37891 7426.61523 1000
-537.93848 -1502.27869 238.60225 335
-536.49805 -1499.06262 265.03464 403
-535.13446 -1496.59680 291.71991 403
-550.50787 -1506.43701 77.77724 498
-549.45410 -1504.61267 104.82453 483
-548.94031 -1502.72546 131.71178 483
-548.36853 -1501.11023 158.12589 484
-547.45587 -1499.51392 185.00502 445
-546.61908 -1497.44873 211.85046 446
-546.24573 -1496.04846 238.52840 446
-545.32733 -1494.72302 265.13388 388
-544.98071 -1493.27600 291.78070 388
-36596.27734 -29259.89062 -10824.49219 1000
-54214.21094 -37099.89453 3348.21069 1000
-30675.06250 -20744.27734 5009.72900 1000
90.13616 -2.97271 128.21242 353
89.87411 -3.06580 128.38696 310
90.24931 -2.85742 128.23729 355
89.90379 -2.97940 128.38634 310
88.91045 -3.32532 128.38582 306
90.36279 -2.74345 128.26132 356
89.93344 -2.89081 128.38527 310
88.93999 -3.23011 128.38599 306
90.47399 -2.63555 128.28326 357
89.96455 -2.80318 128.38739 310
88.96921 -3.13763 128.38524 306
90.58282 -2.52436 128.30522 359
89.99594 -2.71628 128.38643 310
88.99696 -3.04475 128.38570 306
90.69020 -2.41705 128.32523 360
90.02561 -2.62978 128.38676 310
89.02705 -2.94966 128.38536 306
87.87553 -3.31727 128.38603 302
90.79537 -2.31075 128.34792 361
90.05980 -2.54308 128.38695 310
89.05761 -2.85770 128.38673 306
87.90559 -3.21975 128.38528 302
90.89969 -2.20633 128.36546 363
90.09296 -2.45606 128.38672 310
89.08820 -2.76245 128.38763 306
87.93488 -3.11784 128.38600 302
91.00480 -2.10394 128.38531 364
90.12621 -2.36765 128.38634 310
89.12123 -2.66743 128.38637 306
87.96538 -3.01558 128.38748 302
91.04074 -2.02125 128.38734 314
90.15883 -2.27865 128.38618 310
89.15417 -2.57556 128.38765 306
87.99534 -2.91451 128.38817 302
91.07716 -1.93799 128.38614 314
90.19440 -2.19152 128.38626 310
89.18632 -2.47958 128.38757 306
88.02750 -2.81369 128.38498 302
91.11373 -1.85710 128.38644 314
90.22768 -2.10401 128.38658 310
89.22076 -2.38555 128.38533 306
88.05939 -2.71320 128.38673 302
91.14916 -1.77418 128.38731 314
90.26411 -2.01766 128.38614 310
89.25316 -2.29311 128.38629 306
88.09289 -2.61122 128.38673 302
86.73986 -2.98144 128.38762 298
91.18500 -1.69238 128.38683 314
90.29913 -1.92989 128.38647 310
89.28822 -2.19995 128.38541 306
88.12703 -2.50845 128.38776 302
86.77116 -2.86989 128.38757 298
91.22424 -1.60890 128.38550 314
90.33608 -1.84153 128.38617 310
89.32471 -2.10309 128.38768 306
88.15908 -2.40768 128.38814 302
86.80492 -2.76016 128.38716 298
91.26206 -1.52843 128.38576 314
90.37392 -1.75286 128.38626 310
88.24410 -2.29504 128.11650 368
88.19336 -2.30679 128.38644 302
86.83602 -2.64956 128.38680 298
91.29977 -1.44595 128.38565 314
90.41082 -1.66523 128.38783 310
88.06622 -2.24505 128.06665 367
88.06466 -2.24673 128.35156 368
86.87215 -2.54064 128.38596 298
91.33980 -1.36235 128.38713 314
90.44958 -1.57714 128.38608 310
87.88013 -2.19373 128.01340 366
87.87826 -2.19521 128.29973 366
86.90460 -2.42949 128.38638 298
91.37992 -1.28017 128.38647 314
90.48689 -1.48840 128.38574 310
87.68964 -2.14316 127.95824 364
87.68708 -2.14510 128.25114 365
86.94115 -2.31939 128.38788 298
91.41828 -1.19809 128.38600 314
90.52696 -1.39940 128.38776 310
87.49105 -2.09062 127.90528 363
87.49071 -2.09086 128.19949 364
86.97721 -2.20735 128.38795 298
91.45925 -1.11575 128.38570 314
90.56668 -1.31317 128.38704 310
87.28860 -2.03686 127.84879 362
87.29027 -2.03660 128.14474 362
87.01175 -2.09825 128.38623 298
91.50140 -1.03281 128.38568 314
90.60667 -1.22511 128.38745 310
87.12291 -1.97328 127.79824 454
87.12415 -1.97166 128.09949 455
87.04970 -1.98758 128.38756 298
91.54159 -0.95071 128.38693 314
90.64736 -1.13674 128.38586 310
87.11187 -1.87222 127.78937 306
87.03848 -1.88831 128.07242 454
87.04004 -1.88720 128.37764 455
91.58562 -0.86780 128.38535 314
90.68929 -1.04706 128.38582 310
87.15035 -1.76123 127.78588 306
86.95324 -1.80278 128.04590 453
86.95074 -1.80191 128.35110 454
91.60887 -0.78797 128.38232 466
90.73141 -0.95926 128.38704 310
87.18779 -1.65071 127.78636 306
86.86538 -1.71580 128.01869 452
86.86549 -1.71670 128.32451 453
85.54964 -1.97180 128.38509 294
91.63074 -0.70826 128.37520 467
90.77380 -0.87261 128.38684 310
87.22765 -1.54199 127.78674 306
86.77957 -1.62713 127.98962 451
86.77647 -1.62527 128.29947 452
85.59055 -1.84943 128.38499 294
91.65160 -0.63164 128.37080 468
90.81721 -0.78287 128.38760 310
87.26852 -1.43080 127.78738 306
86.69032 -1.53727 127.96452 451
86.68705 -1.53593 128.27368 451
85.62822 -1.73091 128.38620 294
91.67358 -0.55233 128.36278 468
90.86029 -0.69439 128.38660 310
87.30849 -1.32220 127.78754 306
86.59953 -1.44676 127.93391 450
86.59857 -1.44579 128.24706 450
85.67099 -1.60699 128.38786 294
91.69444 -0.47309 128.35771 469
90.90372 -0.60618 128.38713 310
87.34779 -1.21192 127.78860 306
86.50571 -1.35604 127.90450 449
86.50406 -1.35577 128.22185 449
85.71247 -1.48803 128.38737 294
91.71527 -0.39155 128.35204 470
90.94861 -0.51698 128.38690 310
87.38834 -1.09902 127.78664 306
86.41148 -1.26103 127.87437 448
86.40857 -1.26050 128.19255 449
85.75427 -1.36791 128.38651 294
91.73721 -0.31226 128.34537 470
90.99287 -0.42852 128.38708 310
87.43068 -0.98891 127.78687 306
86.31731 -1.16742 127.84554 447
86.31512 -1.16559 128.16347 448
85.79757 -1.24703 128.38519 294
91.75932 -0.23357 128.33711 471
91.03896 -0.34253 128.38757 310
87.47487 -0.88054 127.78786 306
86.28004 -1.06004 127.82712 492
86.28020 -1.06101 128.14824 493
85.83727 -1.12724 128.38718 294
91.78023 -0.15334 128.32985 471
91.08485 -0.25366 128.38739 310
87.51683 -0.76972 127.78680 306
86.25075 -0.95272 127.81273 492
86.25046 -0.95529 128.13327 493
85.88338 -1.00468 128.38719 294
91.80098 -0.07245 128.32446 472
91.13175 -0.16404 128.38666 310
87.55998 -0.65846 127.78763 306
86.22266 -0.84290 127.79846 492
86.22051 -0.84569 128.11864 493
85.92830 -0.88736 128.38818 294
91.81982 0.00780 128.31660 489
91.17908 -0.07815 128.38583 310
87.60731 -0.54970 127.78873 306
86.22343 -0.73282 127.78946 302
86.19122 -0.73465 128.10696 493
85.97461 -0.76503 128.38655 294
91.79805 0.08316 128.29686 489
91.22701 0.01106 128.38681 310
87.64923 -0.43829 127.78699 306
86.26627 -0.61351 127.78967 302
86.16411 -0.62363 128.09079 492
86.01804 -0.64252 128.38496 294
91.77863 0.15978 128.27977 489
91.27368 0.09971 128.38673 310
87.69741 -0.32674 127.78897 306
86.31024 -0.49425 127.78827 302
86.13514 -0.51671 128.07330 492
86.06550 -0.52100 128.38806 294
91.75786 0.23658 128.26109 488
91.32490 0.18868 128.38536 310
87.74466 -0.21769 127.78639 306
86.35662 -0.37486 127.78812 302
86.10543 -0.40262 128.05855 492
86.10396 -0.40402 128.38675 493
91.73542 0.31509 128.24100 488
91.37211 0.27686 128.38777 310
87.79146 -0.10785 127.78922 306
86.40345 -0.25644 127.78907 302
86.07275 -0.29056 128.04271 492
86.07365 -0.29405 128.37036 493
91.71565 0.39466 128.22125 488
91.42359 0.36478 128.38579 310
87.84087 0.00173 127.78606 306
86.45188 -0.13852 127.78817 302
86.04533 -0.17967 128.02661 492
86.04334 -0.18076 128.35405 492
91.69398 0.47534 128.20387 488
91.47466 0.45370 128.38672 310
87.88791 0.11277 127.78580 306
86.50213 -0.01661 127.78728 302
86.01273 -0.06245 128.01042 491
86.01408 -0.06276 128.34033 492
91.67197 0.55337 128.18472 487
91.52505 0.54138 128.38652 310
90.49788 0.45010 128.38551 306
86.54979 0.09907 127.78651 302
86.01076 0.05173 128.00009 480
86.01078 0.05432 128.33327 481
91.65121 0.63617 128.16425 487
91.57703 0.62895 128.38681 310
90.54900 0.54461 128.38580 306
86.59918 0.21953 127.78928 302
86.04395 0.17441 127.99906 480
86.04390 0.17450 128.32642 481
91.62825 0.71747 128.14331 487
91.62762 0.71750 128.38658 310
90.59949 0.63868 128.38588 306
86.65140 0.33891 127.78810 302
86.07336 0.29542 127.99560 481
86.07475 0.29520 128.32632 482
91.60588 0.79933 128.12550 487
91.60660 0.79956 128.36823 488
90.65224 0.73272 128.38802 306
86.70365 0.45528 127.78732 302
86.10815 0.41513 127.99033 481
86.10465 0.41520 128.32254 482
91.58418 0.88274 128.10451 486
91.58492 0.88397 128.35004 487
90.70486 0.82666 128.38629 306
86.75640 0.57615 127.78896 302
86.13874 0.53708 127.98892 482
86.13882 0.53842 128.31558 483
91.56185 0.96790 128.08272 486
91.56097 0.96800 128.32918 487
90.75880 0.92297 128.38742 306
86.80848 0.69468 127.78590 302
86.17404 0.65792 127.98236 482
86.17268 0.65606 128.31374 483
91.53750 1.05434 128.06396 486
91.53849 1.05194 128.31067 487
90.81313 1.01521 128.38745 306
86.85983 0.81145 127.78693 302
86.20554 0.78067 127.98035 483
86.20370 0.77938 128.31093 483
91.51420 1.14001 128.04362 485
91.51619 1.14073 128.29057 486
90.87010 1.11036 128.38603 306
86.91468 0.93258 127.78596 302
86.23673 0.90153 127.97510 483
86.23858 0.89984 128.30605 484
91.49223 1.22818 128.02190 485
91.49072 1.22733 128.27203 486
90.92443 1.20565 128.38651 306
86.97096 1.05049 127.78556 302
86.26762 1.02234 127.96809 484
86.26868 1.02347 128.30138 484
91.46970 1.31552 127.99992 485
91.46777 1.31464 128.25163 486
90.98050 1.29799 128.38800 306
87.02589 1.16959 127.78910 302
86.30125 1.14306 127.96523 484
86.30327 1.14481 128.29579 485
-1910.46436 -64.48688 65.67450 450
-1918.30090 -65.05377 98.79405 395
91.44450 1.40241 127.97862 484
91.44597 1.40384 128.23158 485
91.03593 1.39407 128.38736 306
87.08123 1.28656 127.78693 302
86.41867 1.26942 127.97521 418
86.41985 1.26956 128.30809 419
-1908.44177 -52.06660 65.76099 499
-1912.15417 -52.58014 98.66943 498
-1915.90405 -52.77917 131.92865 498
91.42233 1.49340 127.95648 484
91.42068 1.49231 128.21123 485
91.09217 1.48709 128.38730 306
87.13776 1.40454 127.78819 302
86.54259 1.39098 127.98854 419
86.54356 1.39196 128.32053 420
-1917.07739 -39.81357 65.53871 396
-1922.90845 -40.00355 98.50771 326
91.39617 1.58291 127.93690 484
91.39503 1.58433 128.19011 485
91.15203 1.58161 128.38779 306
89.97050 1.56460 128.38628 302
86.66662 1.51345 128.00362 420
86.66461 1.51440 128.33167 421
-2610.89014 -37.97657 87.22704 385
91.37077 1.67641 127.91358 483
91.37084 1.67618 128.16917 484
91.20985 1.67390 128.38516 306
90.03051 1.66397 128.38704 302
86.78617 1.63813 128.01559 421
86.78841 1.63888 128.34056 422
-2603.22485 -20.72611 87.54648 498
-2608.11938 -21.21834 131.59877 498
-2612.80566 -20.80091 176.27261 478
91.33958 1.76831 127.89046 421
91.34067 1.76783 128.14877 421
91.26842 1.76704 128.38728 306
90.08926 1.76474 128.38518 302
86.90942 1.75757 128.02824 423
86.90820 1.75817 128.35165 423
-2617.46167 -4.18186 87.26810 338
-3334.52637 -5.63288 131.69670 485
