# .PCD v.7 - Point Cloud Data file format
VERSION .7
FIELDS x y z rgb
SIZE 4 4 4 4
TYPE F F F U
COUNT 1 1 1 1
WIDTH 968
HEIGHT 1
VIEWPOINT 6276.709961 -3808.700684 139.570419 -0.324161 -0.146555 -0.030630 0.934079
POINTS 968
DATA ascii
-197.44675 1.06431 53.33506 324
-197.49884 2.86709 53.34073 324
-197.50395 4.66856 53.34226 324
-3459.14014 35.20986 900.95258 1000
-197.51596 6.43062 53.41015 324
-197.49445 8.32222 53.36441 324
-197.45685 10.12233 53.36829 324
-197.40936 11.89350 53.33763 324
-1790.11755 112.65911 70.69142 397
-1781.01331 123.67166 71.06767 487
-1784.99622 123.97417 101.78687 487
-1790.25220 124.28259 132.75455 414
-1780.94690 135.25780 70.70721 486
-1783.93677 135.57300 101.86040 485
-1787.14050 135.61826 132.54437 485
-2477.38452 216.61874 90.19434 446
-2472.55566 232.14053 90.43672 488
-2477.25391 233.07253 133.00574 487
-2481.44312 233.30698 174.67055 497
-3191.15967 317.22458 133.00372 499
-3195.41870 318.06293 187.14331 498
-285.93518 59.98146 35.42441 262
-279.49536 61.31913 37.04560 322
-296.10211 64.01940 39.70510 312
-260.63699 60.58981 35.37244 350
-275.32623 63.12175 37.95720 346
-291.49780 65.70567 40.67033 341
-258.68204 62.51830 35.77606 350
-273.28702 65.02607 38.36610 347
-289.53296 67.85788 41.08151 341
-256.77652 64.42464 36.17628 351
-271.42807 67.03597 38.81167 345
-290.38364 70.39483 40.69103 319
-254.86899 66.38525 36.67968 351
-270.75140 69.20129 38.86575 322
-253.10522 68.24835 37.07144 349
-272.63708 71.99956 38.22604 319
-254.59888 70.81690 36.52453 322
-274.84729 74.74479 37.56207 318
-256.63010 73.44522 35.88146 322
-258.67245 76.08749 35.13377 321
-23087.56641 22604.61523 2259.45605 1000
-10092.58691 11956.44141 134.72006 456
-10038.30664 11891.87109 391.19345 477
-41108.30078 48964.74219 -4052.64868 1000
-9988.31543 11983.46289 132.82135 461
-9934.87695 11917.72461 388.94235 477
-9884.23926 12010.75684 133.41328 466
-9834.33691 11949.16992 388.12592 478
-9786.41797 12043.54199 134.50589 467
-9736.78223 11976.52051 386.94385 479
-9688.14648 12070.31641 132.66953 467
-9637.86719 12009.24707 386.94504 480
-9589.69922 12100.25879 135.90616 468
-9539.90918 12042.00586 388.83429 480
-9490.28027 12128.82715 136.48470 468
-9445.86621 12071.20312 385.70544 481
-9392.91504 12159.04883 132.77145 469
-9348.24902 12102.17090 384.71619 481
-37366.10547 48009.84375 3132.42529 1000
-9294.96387 12191.11914 135.93352 469
-9253.00195 12131.90332 386.77356 482
-9202.25586 12219.46875 133.41214 470
-9156.73633 12160.17383 385.64435 482
-9170.42383 12336.43164 -116.81989 449
-9101.89648 12248.40137 135.08893 470
-9063.33496 12192.22852 383.91159 415
-9073.04785 12363.97852 -118.58865 450
-9009.19824 12277.86426 133.23219 471
-8972.72656 12226.38965 385.21204 416
-8975.00098 12392.87695 -116.07650 450
-8912.90234 12308.02148 135.15344 471
-8878.51660 12261.38672 383.08920 416
-8878.50195 12419.04980 -117.74706 451
-8817.42383 12335.62695 133.82437 472
-8786.29785 12292.04883 380.51669 416
-8780.14844 12446.13672 -116.36932 451
-8723.31543 12363.55859 136.00267 472
-8694.33887 12326.70801 381.65796 416
-15647.40527 22073.13281 4611.91504 1000
-8687.20508 12475.42480 -115.72777 452
-8630.48633 12393.62109 132.95796 473
-8608.61523 12363.01172 383.80881 300
-8591.14648 12500.33594 -116.22004 452
-8534.99219 12423.53418 132.82257 473
-8530.04688 12413.49023 382.16940 260
-8496.24023 12529.94238 -112.85514 452
-8440.78125 12448.97461 132.92297 474
-9473.75391 13955.11523 410.54962 437
-8400.64160 12555.08887 -113.71094 471
-8349.79297 12476.80273 132.94476 474
-9367.99219 13983.90234 409.70349 438
-8308.58398 12583.33691 -115.21049 472
-8257.66113 12506.29199 133.77948 475
-9264.86621 14020.62598 409.02518 408
-8216.46387 12613.82617 -112.63572 472
-8162.96777 12533.12402 132.94072 475
-9165.90918 14054.70410 408.80014 408
-8120.63770 12639.94141 -113.20447 473
-8072.82666 12561.99512 132.34970 475
-8032.02100 12667.49512 -113.96871 473
-7981.52783 12588.37109 132.53445 476
-7938.23145 12692.89648 -112.03952 473
-7886.29395 12617.29785 134.10767 476
-7847.50146 12721.61914 -111.06635 474
-7797.82178 12647.26562 135.22478 477
-7754.18408 12750.75879 -108.76820 474
-7705.33350 12672.23730 134.98431 477
-7663.72900 12777.34570 -111.42780 474
-7616.49072 12697.83789 133.53209 477
-7574.05518 12807.15723 -111.34693 476
-7527.15039 12729.16504 132.36310 485
-7482.30420 12830.55176 -111.25174 477
-7439.58545 12756.03027 135.84073 486
-7391.34424 12860.89648 -110.70528 477
-7347.15186 12785.66113 132.75771 486
-7358.78906 12805.60059 377.58908 428
-7304.35303 12886.86426 -108.43901 477
-7261.43799 12812.10840 135.87721 486
-7267.45312 12830.57715 375.38141 429
-7211.43262 12913.64355 -109.63851 478
-7169.84717 12842.04980 134.38290 487
-7179.56885 12853.94141 375.00919 429
-7122.93262 12939.32520 -110.21280 478
-7081.09814 12867.26953 133.74352 487
-7094.10449 12888.00488 375.29694 385
-7035.42676 12967.03027 -108.99704 478
-6992.77051 12895.66211 134.89062 487
-7007.21631 12920.92090 376.83090 385
-6945.64307 12997.51758 -107.19646 478
-6905.85693 12919.48926 132.47333 488
-6855.93701 13020.77344 -106.44860 479
-6818.85205 12948.70508 134.76921 488
-7165.84180 13606.37695 384.42389 484
-7171.68994 13612.51953 641.21887 484
-6768.73340 13047.04883 -106.38765 479
-6729.19043 12977.57812 134.26396 488
-7068.21436 13621.84570 385.28616 485
-7071.52197 13625.29395 638.57703 484
-6677.39209 13076.16309 -105.87717 479
-6640.94629 13003.91699 134.15726 489
-6968.07617 13631.84668 383.81934 485
-6971.05811 13642.11914 635.94989 485
-6590.27197 13101.74512 -104.98506 480
-6553.45312 13031.95410 131.93535 489
-6869.57227 13650.44141 382.97278 486
-6874.46631 13655.53613 636.38580 485
-6504.86035 13129.68750 -104.82826 480
-6467.71484 13060.46094 132.92833 489
-6772.01221 13660.44043 386.29755 486
-6776.80469 13668.67969 633.80792 408
-6416.50537 13155.03516 -105.56765 480
-6380.17432 13085.18750 132.06631 492
-6674.03125 13674.03418 384.42828 487
-6675.94336 13683.22363 633.60968 409
-6329.66602 13181.25586 -107.30092 480
-6293.79443 13115.07812 135.43228 493
-6575.69434 13687.87500 382.70749 487
-6582.73877 13702.26855 632.89801 409
-6240.71729 13210.03320 -103.89877 481
-6209.31982 13140.54980 132.80261 493
-6477.19824 13702.18164 381.83902 488
-6485.99316 13717.43945 630.81830 409
-6155.45215 13234.98828 -106.19187 481
-6120.75684 13168.63086 132.27887 493
-6379.95117 13716.78906 381.42807 488
-6390.14160 13734.22168 630.84833 410
-6064.66699 13262.56641 -104.10188 481
-6035.89258 13193.05762 135.11461 493
-6281.83398 13729.98438 380.33792 488
-6295.03516 13748.82129 628.59656 410
-5979.83057 13289.04492 -104.69658 481
-5950.87451 13220.62109 131.94691 494
-6196.07617 13756.95215 380.59451 497
-6201.10010 13777.09863 627.94525 416
-5892.50781 13315.71094 -106.82025 481
-5863.27832 13248.58984 132.91702 494
-6103.52588 13784.59570 381.11142 498
-6115.98389 13808.61523 631.66931 416
-5806.33447 13340.54980 -106.60026 482
-5777.88672 13275.04199 135.49899 494
-6016.02197 13810.86133 383.04443 498
-6028.79004 13839.00293 627.43915 416
-5720.03320 13363.75879 -105.90754 482
-5692.89893 13301.09863 135.56134 494
-5924.50928 13839.69238 379.06348 498
-5940.71484 13871.57129 630.13306 416
-5632.48828 13392.32422 -103.28717 482
-5608.50732 13330.51172 134.63609 494
-5836.69971 13868.08301 379.29568 498
-5852.95947 13902.71484 630.25732 416
-5545.08545 13418.73340 -106.10349 482
-5520.94971 13356.19531 135.37189 494
-5748.55518 13896.65918 379.82864 498
-5762.67285 13934.80762 626.94995 416
-5462.25439 13445.09473 -103.32365 482
-5436.76123 13382.18652 133.70377 494
-5657.16748 13923.42969 380.75281 498
-5677.97949 13965.11035 628.86255 416
-5372.87646 13471.40137 -102.91853 482
-5350.58789 13413.42578 131.80145 495
-5567.58203 13951.38574 380.97366 498
-5589.62891 13997.86035 629.98560 417
-5289.15332 13494.90137 -105.65434 482
-5267.47705 13438.60547 131.91342 495
-5441.32227 13879.36523 377.41641 497
-5499.02295 14023.91211 629.86011 498
-5204.34668 13521.68848 -102.47613 483
-5178.83887 13465.40430 133.12364 495
-5353.96240 13908.00098 379.18552 497
-5410.07227 14053.43066 629.85236 499
-5118.30957 13549.29297 -102.35349 483
-5096.03906 13493.87793 132.97424 495
-5265.33008 13931.33789 377.65463 497
-5320.89258 14077.13574 628.55347 499
-5031.88574 13572.75781 -103.06071 483
-5009.08496 13520.18457 134.59059 495
-5177.89600 13961.65625 379.06781 497
-5233.72461 14105.78027 628.09814 499
-5294.92188 14268.94629 881.06403 422
-16913.49609 45904.08984 -7944.62305 1000
-4945.35938 13603.25879 -104.54309 483
-4926.18164 13546.41504 131.98375 495
-5090.48926 13988.99512 378.17120 491
-5143.35938 14132.03223 627.71234 499
-5201.05908 14287.61133 882.16742 353
-5205.16064 14302.74121 1131.64807 372
-4862.41357 13628.24609 -102.10680 483
-4841.29150 13573.45703 134.98679 495
-5016.07910 14057.34570 376.86514 279
-5056.33887 14161.70703 626.36340 451
-5137.24854 14393.00879 884.84467 326
-4774.91504 13654.41992 -103.63253 483
-4754.67529 13599.53906 133.25639 498
-4940.41748 14117.10352 377.51974 452
-4945.57031 14131.52734 623.70319 452
-4950.26367 14139.02734 871.16199 451
-4690.46680 13677.32812 -101.31950 483
-4670.39355 13627.83301 134.18170 498
-4832.69727 14087.18359 378.38116 453
-4836.16895 14097.79883 622.30170 453
-4840.02539 14109.25195 869.09100 452
-4603.92773 13705.88281 -102.00965 483
-4586.39160 13654.01367 133.02007 498
-4723.37695 14053.57617 378.03320 454
-4728.26172 14067.11523 622.56201 453
-4733.21973 14076.72559 864.76141 453
-4547.13135 13815.93457 -344.73083 480
-4520.16650 13732.28809 -104.52829 483
-4504.24756 13680.49414 135.52583 498
-4618.11914 14024.83008 375.19138 455
-4623.50684 14035.76758 619.91010 454
-4625.51953 14045.81543 860.83990 454
-4463.49170 13840.82227 -342.54550 480
-4434.62891 13756.14453 -101.64970 483
-4415.49072 13708.15918 132.41226 498
-4527.84277 14050.10156 376.42218 499
-4531.82520 14054.41504 617.44818 499
-4534.13965 14060.50293 862.06500 499
-4596.65918 14255.19922 1119.36548 447
-4376.73926 13866.95312 -343.62122 480
-4349.32568 13781.06152 -102.20568 483
-4331.60254 13734.39160 133.32025 498
-4442.04492 14078.85742 375.96988 499
-4433.97998 14053.71387 618.72858 499
-4447.23486 14088.90234 861.15912 499
-4538.18164 14371.11621 1125.31616 470
-4289.64941 13891.74902 -344.00500 480
-4263.10596 13809.68945 -104.46320 491
-4249.25586 13762.43652 132.29236 498
-4347.66992 14076.75879 373.55228 274
-4349.31592 14081.92578 616.70996 499
-4361.52832 14114.45703 859.25385 499
-4450.47607 14398.82031 1123.28271 470
-4474.88135 14477.70898 1377.84351 485
-4426.19922 14329.73242 1615.19946 374
-4423.61035 14324.01172 1863.14758 485
-4204.56201 13917.57617 -343.99576 480
-4180.42529 13836.48145 -104.11641 491
-4162.58594 13789.16406 135.37491 498
-4261.11426 14105.40527 374.14954 499
-4262.20801 14108.36914 618.43860 499
-4274.02832 14140.73535 862.43347 499
-4360.25635 14428.90820 1124.57507 470
-4383.36572 14506.35449 1379.67285 485
-4118.77881 13944.66992 -341.69647 480
-4095.80347 13862.94238 -102.71227 491
-4079.35498 13818.05371 135.54749 498
-4173.90723 14131.79395 374.19275 499
-4175.74756 14134.59375 617.71716 499
-4187.33643 14168.28906 860.43671 499
-4272.55127 14457.75879 1124.61975 470
-4032.21143 13969.83594 -342.65244 480
-4008.90186 13890.63770 -102.72104 491
-3993.04028 13842.62109 132.12033 498
-4086.25000 14155.63477 376.62863 499
-4089.70288 14162.72656 616.26678 499
-4099.74805 14195.40625 860.21466 499
-4186.07471 14484.24707 1123.52551 470
-3945.90894 13998.49316 -341.39447 480
-3920.91284 13915.02832 -102.51786 491
-3908.26587 13870.80664 135.40190 498
-3999.79102 14185.55078 376.95337 499
-4002.48120 14186.88672 618.19745 499
-4013.32959 14222.70117 859.49054 499
-4093.63696 14513.21680 1125.60144 470
-3860.02344 14023.91016 -344.64038 480
-3837.58618 13943.20801 -102.97539 491
-3823.75537 13899.18359 135.41693 498
-3914.33203 14209.75098 376.38419 499
-3914.85596 14217.57520 617.17975 499
-3924.65625 14250.76465 862.29590 499
-4007.81445 14540.58203 1122.96619 470
-3773.78955 14047.63574 -344.06372 480
-3753.15894 13968.84668 -102.51176 491
-3739.19238 13924.54199 134.98021 498
-3826.66577 14240.86328 375.68738 499
-3830.94019 14243.24414 618.33661 499
-3838.57324 14275.61230 859.68896 499
-3918.48706 14566.81641 1122.34985 470
-3691.77759 14075.04590 -343.50885 480
-3667.14771 13993.83496 -103.71677 491
-3654.64893 13952.20605 131.46191 498
-3748.59351 14294.32910 373.86349 499
-3749.98560 14297.55566 618.19586 499
-3700.44678 14113.72168 850.55939 361
-3829.37012 14597.33691 1122.49451 470
-3601.67529 14100.31543 -344.40747 480
-3581.08594 14020.70312 -101.67621 491
-3570.58716 13981.80762 135.27774 498
-3660.98657 14318.39941 375.78821 499
-3660.66138 14324.55273 620.36749 499
-3579.17676 14005.57520 845.14423 499
-3739.30127 14626.87207 1125.93860 471
-3517.57983 14129.13574 -343.11850 480
-3497.46240 14050.00488 -105.62491 491
-3489.78687 14013.57715 132.01680 377
-3574.02319 14348.27637 377.82474 499
-3567.67896 14317.83301 617.85004 479
-3491.95801 14031.79297 843.55090 499
-3652.49658 14653.73340 1125.90271 474
-3431.93213 14152.59863 -344.79434 480
-3410.88721 14075.44824 -103.69952 491
-3404.55859 14039.75000 134.05580 446
-3450.69360 14230.05664 374.23209 427
-3431.22314 14150.31152 609.94373 491
-3406.43311 14060.42285 844.68011 498
-3563.94214 14686.80566 1127.41089 474
-3344.80078 14179.18945 -344.92828 480
-3328.67041 14102.63477 -104.66980 491
-3316.55054 14065.95605 132.25685 446
-3397.91162 14401.63477 376.61624 499
-3400.23877 14409.62207 616.70593 499
-3324.23047 14085.42480 844.27966 498
-3475.95532 14713.52148 1125.73804 474
-3257.31592 14206.13867 -345.43719 480
-3241.00830 14126.59082 -103.58607 491
-3234.49390 14092.13867 133.32394 464
-3311.53076 14429.59570 376.33585 499
-3311.25220 14434.89746 616.85034 499
-3236.00415 14111.79004 844.65924 498
-3384.83936 14746.06543 1125.31506 474
-3172.81348 14231.50391 -342.75446 480
-3158.31299 14156.02930 -103.83938 490
-3146.27905 14120.84277 134.20345 424
-3224.87988 14458.44434 377.57108 499
-3226.66089 14460.77637 617.72650 498
-3176.67114 14246.27539 852.25488 327
-3299.42578 14777.86621 1125.23804 474
-3088.10815 14257.95898 -342.90506 480
-3071.16162 14180.52734 -104.27939 490
-3062.67798 14153.25391 132.47789 424
-3149.11279 14528.45508 375.13467 450
-3146.10840 14526.17676 619.81812 450
-3154.67236 14565.80371 865.15570 445
-3212.94873 14823.10059 1129.69238 456
-2999.17822 14282.71973 -344.44501 479
-2983.36963 14208.88281 -106.48627 490
-2978.43359 14193.02246 134.33171 302
-3071.05444 14605.30957 376.39346 471
-3070.50000 14612.88574 623.00262 449
-3076.27661 14642.61719 870.90216 353
-3132.77148 14892.94922 1131.53601 456
-2915.69702 14310.78027 -344.45975 479
-2899.78857 14236.77832 -106.52584 490
-2900.61865 14239.52637 133.20317 296
-2989.48340 14669.24414 378.70523 471
-2995.83545 14701.27344 623.28839 448
-2999.37305 14712.70508 871.46808 360
-2828.41553 14337.39648 -346.70181 479
-2812.80371 14260.60449 -103.00465 490
-2864.37036 14510.75684 133.67749 498
-2910.10254 14730.27637 380.72049 470
-2918.00024 14786.41504 628.41278 469
-2922.39746 14806.94531 873.70563 356
-2740.68359 14361.42285 -345.37866 479
-2725.05786 14290.00781 -104.18964 490
-2780.48267 14554.06250 133.12193 413
-2824.86304 14792.34570 381.99222 469
-2838.09595 14848.23730 630.60077 468
-2655.53784 14390.80273 -344.86554 479
-2642.75220 14317.56543 -103.18574 490
-2704.68115 14642.00781 135.15007 412
-2741.40723 14852.74023 381.53455 469
-2568.19849 14413.13086 -348.23752 479
-2552.01562 14343.48926 -106.29269 489
-2625.11987 14728.41309 131.59189 411
-2478.81421 14441.59863 -347.79730 479
-2467.10986 14368.90527 -106.00986 489
-2547.25928 14814.72168 133.28053 399
-2391.51807 14467.77930 -345.51892 478
-2382.24414 14397.14746 -104.06541 489
-2463.23486 14876.44531 131.67772 399
-2304.62646 14494.48047 -345.54544 478
-2297.27930 14425.19922 -105.52275 489
-2381.59741 14934.42480 133.77158 398
-2217.41895 14521.90527 -349.17505 478
-2209.62842 14452.84473 -107.71690 489
-2295.89282 14995.75195 133.64336 398
-2131.94116 14550.54102 -348.18668 478
-2119.99219 14480.78320 -104.82588 488
-2043.02161 14577.37402 -347.46487 478
-2035.65417 14507.58496 -106.69314 488
-1958.08862 14601.00684 -349.27206 479
-1947.39429 14534.22754 -106.33786 488
-1868.74133 14628.71094 -351.30606 479
-1859.44556 14562.75488 -109.12861 488
-1862.15637 14591.03418 132.84457 428
-1780.86084 14657.95703 -348.53027 478
-1770.37610 14589.56055 -105.36655 487
-1775.00232 14614.44824 133.63806 428
-1691.77417 14683.39648 -351.03864 478
-1684.55554 14616.71973 -106.94768 487
-1687.95691 14641.66016 132.03426 428
-1603.16772 14710.47754 -349.54715 478
-1596.10840 14645.02832 -108.29452 487
-1599.45984 14672.33887 133.26854 435
-1513.29553 14738.88086 -350.23709 478
-1508.78442 14670.34668 -107.98021 490
-1510.96289 14702.75391 131.39174 434
-1427.70813 14765.37793 -353.25528 477
-1420.47327 14699.62500 -107.04213 490
-1336.76404 14790.18555 -354.25793 477
-1332.46667 14727.10156 -109.47353 489
-1247.49500 14818.14453 -355.14920 477
-1242.07751 14754.64941 -108.99237 489
-1155.79016 14845.84863 -355.12180 477
-1153.43958 14783.53418 -109.17974 489
-1066.81482 14873.11523 -353.62540 476
-1063.28503 14813.36426 -110.48131 491
-979.31970 14900.65234 -355.14316 476
-973.66461 14838.88086 -108.27427 490
-889.78766 14929.62598 -355.40903 483
-885.12360 14869.41797 -110.59729 490
-796.15833 14960.44922 -356.19141 483
-793.09546 14897.86914 -111.31425 490
-706.53906 14984.96582 -359.89273 483
-703.49835 14929.36035 -113.13956 489
-616.82861 15015.86914 -358.80780 482
-613.08917 14959.32324 -112.78486 489
-524.29358 15043.11426 -359.74020 482
-522.83173 14987.36816 -112.21342 488
-432.69531 15071.37500 -360.49277 481
-429.59595 15016.30566 -110.94701 488
-339.82822 15103.02148 -361.95685 481
-337.91013 15045.67090 -112.54581 488
-248.41264 15130.10254 -363.74533 481
-245.19226 15074.05273 -113.73791 487
-155.49068 15159.78711 -363.17078 480
-152.22433 15105.09766 -113.67313 487
-62.34142 15189.66504 -365.49969 480
-60.38108 15135.34375 -113.26833 486
31.11098 15216.73535 -366.30386 479
30.76518 15163.15039 -115.97099 486
125.33811 15246.32910 -368.08258 479
127.90562 15194.04102 -114.04599 485
220.82253 15278.89844 -368.18057 478
216.80602 15224.91406 -115.69142 485
312.68607 15308.92969 -368.55634 478
311.39651 15255.89355 -115.43157 484
406.23550 15342.54785 -370.98328 456
409.15799 15284.17578 -118.70754 484
502.52155 15388.75098 -370.05899 455
502.87930 15317.31934 -119.79681 480
598.86066 15433.17480 -372.06229 455
595.89240 15354.37695 -118.50552 480
699.88147 15478.17285 -372.61487 455
696.76685 15389.81250 -118.77174 479
794.77148 15525.33105 -377.24677 455
792.99890 15427.23242 -120.32148 478
893.77277 15571.80469 -379.44769 454
888.47241 15473.78613 -121.76505 460
990.99133 15618.09180 -378.53461 453
984.00262 15518.73438 -120.94829 459
1091.13171 15662.67871 -382.01895 453
1085.74390 15568.67285 -124.52633 459
1193.53528 15721.95605 -384.33948 409
1184.84302 15618.32227 -125.40634 458
1268.40356 15455.86230 -627.25427 455
1293.44275 15801.20410 -387.71884 408
1284.97253 15676.78223 -123.71729 457
1400.55176 15880.05957 -388.83926 407
1386.80908 15732.37305 -126.03874 456
1504.26453 15964.01172 -389.73724 385
1490.57166 15787.71777 -125.59212 455
1614.85754 16057.95508 -395.98434 384
1594.05859 15843.83984 -128.40819 454
1723.68738 16169.61328 -398.43091 357
1697.54895 15904.40625 -126.55054 454
5673.09473 52020.30078 -10272.45215 1000
1840.43872 16298.46680 -401.58530 356
1803.79639 15979.42480 -127.86317 397
1916.61072 16087.38867 -130.77116 393
2029.44043 16200.56152 -136.37120 392
2146.93848 16316.85547 -133.95149 390
2264.94897 16436.21484 -140.73079 389
562.62183 1817.31580 -83.79572 429
564.60358 1825.18860 -53.60343 366
572.54047 1809.80115 -83.22692 496
574.08588 1815.38562 -52.56807 496
575.86255 1822.12744 -22.23773 499
577.77795 1828.55212 8.24246 426
584.76959 1810.47473 -83.56560 423
586.41541 1816.92188 -53.33708 422
38227.68359 28380.38477 8782.25781 1000
2353.56567 1562.45410 -93.60499 366
2349.81128 1539.42639 -92.16785 453
2376.60791 1558.06042 -49.14536 327
2349.60107 1519.67078 -91.19930 454
2350.81616 1499.57178 -90.50027 455
2350.87402 1479.74805 -89.75485 467
2355.04199 1463.00403 -89.24760 482
2358.55518 1445.21045 -88.83240 482
2362.89233 1428.44373 -88.36619 483
2366.67896 1411.40344 -87.74654 491
2372.30884 1395.57129 -87.68576 465
2378.55347 1379.78052 -87.60368 465
2384.73291 1364.22119 -86.78152 465
2390.83862 1348.27869 -86.59736 464
2397.76050 1333.69409 -86.54042 467
2404.31104 1318.02661 -86.43961 467
2411.17065 1303.00085 -86.47790 467
2418.40186 1288.35815 -86.01418 467
2480.21265 1322.99219 -47.48138 499
2424.86841 1273.08862 -85.85152 467
2489.40894 1308.84863 -46.92594 499
2432.75049 1258.92468 -86.56669 468
2495.64038 1292.35669 -47.35226 353
2439.77466 1244.41980 -86.42576 468
2447.52905 1229.51025 -86.44913 468
2455.58911 1215.27161 -85.89951 467
2463.80615 1201.06079 -86.02499 392
2472.44922 1187.47998 -86.76070 392
2629.40625 1265.32166 -53.89995 267
2480.88623 1172.54810 -86.44821 393
2561.21216 1211.90186 -48.78685 276
2489.30908 1158.60962 -86.67092 466
2560.49121 1193.07458 -47.95749 498
2614.82129 1218.92590 -5.85208 498
2610.08643 1216.91321 40.29182 342
2498.01587 1144.86902 -86.46440 466
2639.44238 1211.94592 -6.40190 498
2506.52344 1130.64124 -87.28880 466
2617.50757 1182.30029 40.59641 373
2660.91504 1202.13843 85.41711 346
2514.54736 1116.27209 -87.04919 466
17747.79492 8109.31885 131.39285 1000
2523.53076 1101.87573 -86.81540 465
2532.15259 1087.50122 -87.27882 465
2662.38379 1145.88989 -52.87416 497
2540.31128 1073.62073 -87.60892 465
2584.57617 1092.63940 -46.83427 497
2549.60669 1058.95618 -87.39854 465
2593.79102 1078.01831 -46.80763 496
2558.16406 1045.08252 -88.28432 465
2566.23145 1030.72131 -87.81478 465
2575.54956 1016.41016 -88.29950 464
2782.22241 1100.96362 -58.61533 403
2583.76196 1002.01544 -88.78854 464
2705.63037 1050.58850 39.77366 294
2592.42969 987.15881 -88.90489 464
2601.26685 973.35455 -88.86472 464
2609.92749 958.32043 -89.13352 463
2618.91309 944.19940 -89.13908 463
2627.37183 929.71729 -89.93456 463
2636.41797 914.70142 -89.73070 463
2645.11060 900.02667 -90.44704 462
2653.95435 885.34662 -90.36185 491
2663.07739 871.24243 -90.79439 490
2672.02051 856.48785 -91.17572 490
2681.14429 842.05005 -91.57748 489
2690.06274 827.39325 -92.19498 489
2699.60522 812.18384 -92.31900 489
2708.07178 797.24683 -92.84557 488
2718.50806 782.53113 -93.34252 459
2732.98608 769.19708 -93.66137 458
2748.57007 755.94330 -94.98463 457
2763.16577 742.79242 -95.92360 456
2778.49365 728.82837 -96.31402 455
2357.55371 -337.80557 -55.94662 494
2363.44971 -338.85464 -18.72295 497
2372.42700 -340.04956 18.62455 441
2359.13477 -352.28696 -55.90864 430
19088.17188 -6049.64844 -3496.82861 1000
4784.01660 -2019.99097 -35.84660 439
4786.04785 -2057.06470 -35.88098 444
4789.42773 -2092.41333 -36.10653 442
4797.46680 -2129.90479 -37.20246 438
4803.75781 -2168.30640 -37.34534 439
4814.84326 -2208.51245 -38.08184 427
4823.90820 -2248.37183 -40.07596 415
4847.03564 -2294.99268 -41.60314 346
4883.34814 -2348.83936 -43.42250 341
4934.35645 -2411.70142 -45.72252 340
4984.10938 -2474.43799 -47.36611 348
5036.98584 -2540.04663 -50.19272 346
5091.44678 -2606.04736 -52.26698 348
3355.99146 -1992.22424 7.30750 473
3761.00049 -3063.04736 -24.75843 433
3742.56177 -3087.04492 -23.95187 418
4251.70361 -3932.65527 39.06910 385
4211.01904 -3942.35913 38.56788 483
4172.55469 -3954.37524 38.45731 469
4136.27588 -3965.97217 39.38792 476
4102.42529 -3981.58032 40.37412 479
4069.06079 -3999.01611 40.00581 483
4033.23950 -4011.08276 39.83070 484
4001.70337 -4028.77661 39.66991 486
3968.71875 -4042.95483 41.02549 491
4056.67944 -4136.27295 132.44949 295
4000.41846 -4077.26318 225.03778 424
3939.85229 -4062.02368 40.18242 493
3964.16919 -4089.09521 132.68068 275
3972.05005 -4096.65723 224.83362 424
3906.91772 -4078.85474 40.00889 495
3937.28442 -4109.92773 132.34671 498
3942.54712 -4115.83545 224.13104 424
3879.72144 -4100.53271 40.59704 496
3908.67651 -4130.65283 132.32445 498
3912.30469 -4135.55615 224.52429 424
3851.79834 -4118.61914 40.38968 497
3876.84692 -4146.84277 132.57547 498
3883.30713 -4155.13916 224.13725 425
3822.45898 -4138.72607 41.57078 477
3848.94897 -4168.05908 132.30223 498
3843.23145 -4160.49951 223.22684 478
3824.45312 -4191.36768 132.37224 497
3813.54688 -4180.70850 223.66676 481
3796.89819 -4213.37109 132.19531 498
3788.04297 -4204.20801 223.46722 348
3768.83936 -4234.21191 131.42633 498
3767.54932 -4231.60449 224.48833 425
3821.72314 -4293.43799 318.78867 456
3741.36548 -4254.66113 131.88902 499
3739.40747 -4251.48682 223.90950 425
3806.84766 -4330.46729 318.57962 479
3772.27246 -4398.89600 319.44055 472
3547.91455 -4342.37354 41.74911 498
1974.99109 -2363.64429 784.51770 1000
3520.60400 -4362.90723 40.86379 478
3493.20898 -4384.22900 41.31990 478
3466.74438 -4404.41455 40.94598 478
3498.75024 -4446.71191 132.34338 499
3439.52539 -4427.04736 41.46704 478
3476.22217 -4532.44141 39.33677 499
3471.12280 -4524.57764 132.92998 485
6572.93701 -8685.37109 2103.62134 1000
3453.06494 -4558.38330 39.41216 494
3436.29346 -4535.42285 131.41006 486
3408.08472 -4556.59863 132.78949 492
3378.12305 -4574.41748 224.70834 430
6072.61279 -9647.71777 -985.63922 1000
2284.05591 -3785.53198 132.08305 382
1644.33740 -3116.21216 132.65694 316
1598.57727 -3071.81494 133.26561 295
1557.75146 -3035.52466 132.61926 269
1588.45044 -3146.95898 133.45969 484
1458.83838 -2921.77319 133.35112 329
1417.93689 -2879.97241 132.68481 258
1384.90930 -2854.11768 133.06198 376
1356.96667 -2838.28979 133.04570 464
1335.35974 -2837.53149 132.94414 468
1320.16956 -2849.78345 132.93854 462
1305.98865 -2866.42554 133.44972 301
1288.31311 -2872.32275 132.82806 432
1331.67773 -3028.44629 133.41852 351
1315.90759 -3044.22290 133.06070 479
1300.04150 -3058.92871 132.93532 478
1228.01355 -2930.05811 133.13484 499
1210.38831 -2937.80835 133.24919 499
1192.79138 -2945.03271 133.33597 499
1093.18921 -2730.33936 85.36120 413
1165.61633 -2927.07544 133.13400 259
308.59357 -780.29639 79.32861 1000
-11978.21875 -65034.95312 -13009.83887 1000
-755.56860 -2868.15381 377.93835 425
-8332.87012 -25002.72266 -4218.60107 1000
-667.45154 -2172.96289 132.97231 371
-666.25037 -2170.36621 170.25594 433
-665.33087 -2167.99121 208.26094 433
-664.89435 -2166.19482 245.41306 476
-664.16992 -2163.61621 283.37192 476
-663.45557 -2161.97607 320.45044 498
-561.78510 -1458.31250 80.26598 447
-560.83185 -1456.19568 106.33459 484
-560.07153 -1454.33728 132.52814 485
-559.08099 -1452.37659 158.70631 485
-558.06488 -1450.19739 184.61462 499
-557.45441 -1448.53040 210.85559 499
-556.69598 -1446.88574 236.45544 499
-555.83148 -1444.65906 262.75275 489
-554.96960 -1443.24939 288.64560 489
-27711.38086 -51206.89453 8786.57520 1000
-3826.28198 -4212.98535 891.18842 1000
-30991.28516 -24792.43359 -7099.65967 1000
89.78400 -3.08884 128.38675 314
89.80772 -3.00464 128.38702 314
88.88680 -3.33263 128.38672 310
89.83321 -2.92063 128.38583 314
88.90899 -3.24210 128.38632 310
89.85964 -2.83632 128.38596 314
88.93285 -3.15298 128.38622 310
89.88491 -2.75112 128.38757 314
88.95850 -3.06253 128.38666 310
89.90972 -2.66796 128.38705 314
88.98323 -2.97140 128.38617 310
87.92277 -3.31891 128.38695 306
89.93685 -2.58355 128.38606 314
89.00721 -2.88175 128.38678 310
87.94521 -3.22118 128.38794 306
89.96471 -2.49916 128.38609 314
89.03504 -2.79162 128.38600 310
87.97112 -3.12548 128.38667 306
89.99391 -2.41447 128.38789 314
89.05985 -2.70178 128.38722 310
87.99601 -3.02818 128.38792 306
90.02255 -2.32793 128.38586 314
89.08608 -2.61123 128.38701 310
88.01984 -2.92867 128.38780 306
90.05148 -2.24436 128.38748 314
89.11257 -2.51899 128.38728 310
88.04556 -2.83242 128.38551 306
90.08093 -2.16002 128.38667 314
89.14109 -2.42846 128.38756 310
88.07157 -2.73390 128.38678 306
86.84106 -3.08607 128.38628 302
90.11012 -2.07234 128.38719 314
89.17171 -2.33753 128.38750 310
88.09984 -2.63596 128.38708 306
86.86642 -2.98306 128.38780 302
90.14207 -1.98803 128.38669 314
89.19968 -2.24680 128.38521 310
88.12571 -2.53903 128.38641 306
86.89219 -2.87555 128.38669 302
90.17129 -1.90322 128.38608 314
89.23016 -2.15315 128.38797 310
88.15495 -2.43936 128.38785 306
86.91738 -2.77013 128.38789 302
90.20390 -1.81747 128.38757 314
89.26022 -2.06213 128.38588 310
88.18424 -2.34286 128.38669 306
86.94682 -2.66543 128.38693 302
90.23676 -1.73146 128.38641 314
88.13770 -2.26387 128.08873 368
88.13668 -2.26337 128.36671 368
86.97308 -2.55870 128.38812 302
90.26801 -1.64582 128.38560 314
87.95681 -2.21707 128.03545 367
87.95841 -2.21568 128.31732 367
87.00342 -2.45356 128.38797 302
90.30211 -1.55995 128.38649 314
87.77502 -2.16656 127.98158 365
87.77483 -2.16833 128.26598 366
87.02919 -2.34683 128.38686 302
90.33537 -1.47470 128.38683 314
87.58697 -2.11669 127.92232 364
87.58840 -2.11788 128.21643 364
87.05991 -2.23839 128.38644 302
90.36913 -1.38672 128.38605 314
87.39230 -2.06445 127.86485 363
87.39423 -2.06497 128.16273 363
87.09042 -2.13521 128.38785 302
90.40394 -1.30045 128.38770 314
87.19497 -2.01191 127.80735 361
87.19374 -2.01172 128.10764 362
87.11990 -2.02692 128.38748 302
90.44030 -1.21497 128.38663 314
87.14698 -1.92076 127.78841 310
87.08596 -1.93721 128.07388 454
87.08717 -1.93551 128.37231 455
90.47412 -1.12829 128.38614 314
87.18044 -1.81443 127.78784 310
87.00438 -1.85259 128.04625 453
87.00168 -1.85349 128.34549 454
85.72795 -2.11790 128.38632 298
90.51102 -1.04127 128.38783 314
87.21204 -1.70952 127.78692 310
86.91590 -1.76741 128.01692 452
86.91679 -1.76855 128.31969 453
85.75805 -2.00258 128.38568 298
90.54826 -0.95535 128.38710 314
87.24468 -1.60004 127.78599 310
86.83492 -1.68273 127.99136 451
86.83252 -1.68081 128.29399 452
85.79243 -1.88436 128.38794 298
90.58579 -0.86978 128.38617 314
87.27929 -1.49255 127.78783 310
86.74783 -1.59536 127.95998 451
86.74381 -1.59579 128.26768 451
85.82437 -1.77021 128.38666 298
90.62318 -0.78181 128.38748 314
87.31425 -1.38717 127.78791 310
86.65771 -1.50584 127.93182 450
86.65706 -1.50743 128.24068 451
85.85893 -1.65319 128.38631 298
90.66094 -0.69774 128.38554 314
87.34772 -1.28092 127.78651 310
86.56773 -1.41674 127.90425 449
86.56966 -1.41874 128.21596 450
85.89189 -1.53485 128.38651 298
90.69928 -0.60954 128.38586 314
87.38490 -1.17454 127.78820 310
86.47926 -1.32676 127.87132 448
86.47837 -1.32778 128.18799 449
85.92671 -1.42253 128.38573 298
90.74089 -0.52355 128.38721 314
87.41884 -1.06477 127.78638 310
86.38657 -1.23452 127.84216 447
86.38561 -1.23781 128.16013 448
85.96208 -1.30663 128.38614 298
90.78070 -0.43615 128.38600 314
87.45804 -0.95793 127.78831 310
86.29999 -1.14025 127.81498 492
86.30087 -1.14218 128.13434 493
85.99779 -1.18851 128.38492 298
90.81971 -0.35045 128.38699 314
87.49477 -0.85216 127.78821 310
86.27224 -1.03455 127.79966 491
86.27371 -1.03353 128.11797 492
86.03441 -1.07361 128.38533 298
90.85970 -0.26208 128.38635 314
87.53130 -0.74278 127.78893 310
86.26096 -0.92716 127.78609 306
86.24485 -0.92947 128.10388 492
86.07218 -0.95737 128.38593 298
90.90240 -0.17434 128.38600 314
87.57008 -0.63711 127.78608 310
86.29822 -0.81228 127.78619 306
86.21597 -0.82473 128.09032 492
86.11054 -0.83984 128.38582 298
90.94387 -0.08750 128.38736 314
87.61010 -0.53010 127.78712 310
86.33572 -0.69850 127.78878 306
86.18856 -0.71694 128.07254 492
86.14790 -0.72243 128.38686 298
90.98676 -0.00155 128.38544 314
87.65335 -0.42132 127.78747 310
86.37531 -0.58297 127.78765 306
86.15924 -0.60703 128.05803 492
86.15932 -0.60951 128.38220 492
91.03182 0.08548 128.38762 314
-18.03332 -2.15878 -4.54916 310
86.41553 -0.46814 127.78929 306
86.13100 -0.49871 128.04575 491
86.12989 -0.50269 128.36501 492
91.07410 0.17456 128.38771 314
87.73425 -0.20730 127.78817 310
86.45684 -0.35338 127.78713 306
86.09983 -0.39217 128.02821 491
86.10012 -0.39123 128.35146 492
91.11671 0.26069 128.38652 314
87.77605 -0.09980 127.78607 310
86.50079 -0.23531 127.78596 306
86.07157 -0.27923 128.01234 491
86.06969 -0.28090 128.33647 492
91.16400 0.34747 128.38739 314
87.81840 0.00889 127.78898 310
86.54209 -0.11948 127.78885 306
86.04328 -0.17000 127.99871 491
86.04243 -0.17105 128.32230 492
91.20999 0.43455 128.38716 314
87.86052 0.11866 127.78759 310
86.58293 -0.00198 127.78704 306
86.01069 -0.05612 127.98273 490
86.01206 -0.05986 128.30849 491
91.25478 0.52190 128.38673 314
87.90563 0.22378 127.78944 310
86.62810 0.11117 127.78928 306
86.01077 0.05597 127.97399 479
86.01012 0.05784 128.30022 480
91.30083 0.60786 128.38731 314
87.94979 0.33181 127.78854 310
86.67328 0.22783 127.78850 306
86.04346 0.17721 127.97092 480
86.04247 0.17689 128.29836 480
91.34638 0.69573 128.38795 314
87.99602 0.44354 127.78873 310
86.71557 0.34249 127.78637 306
86.07590 0.29391 127.96649 480
86.07532 0.29715 128.29614 481
91.39354 0.78410 128.38554 314
90.42616 0.71496 128.38760 310
86.76252 0.46114 127.78726 306
86.10907 0.41328 127.96445 481
86.10621 0.41309 128.29094 481
91.44337 0.87140 128.38531 314
90.47575 0.80869 128.38541 310
86.81003 0.57508 127.78738 306
86.14082 0.53274 127.96281 481
86.13741 0.53347 128.28891 482
91.49014 0.95902 128.38632 314
90.52316 0.90325 128.38756 310
86.85591 0.69264 127.78788 306
86.17026 0.64953 127.95882 482
86.17172 0.65295 128.28728 482
91.53882 1.04486 128.38757 314
90.57173 0.99398 128.38727 310
86.90402 0.80638 127.78798 306
86.20344 0.76913 127.95683 482
86.19753 0.74567 128.26099 483
91.51788 1.12792 128.36783 485
90.61984 1.08869 128.38635 310
86.95059 0.92392 127.78693 306
86.23428 0.89173 127.95309 482
86.23561 0.89021 128.27789 483
85.02689 0.83285 128.38539 294
91.49698 1.21405 128.34712 485
90.66996 1.18264 128.38522 310
87.00021 1.03716 127.78750 306
86.26481 1.00814 127.94690 483
86.26838 1.00933 128.27432 484
85.07693 0.96140 128.38770 294
91.47364 1.29987 128.32924 485
90.72192 1.27673 128.38641 310
87.05038 1.15611 127.78582 306
86.29814 1.12714 127.94347 483
86.29995 1.12925 128.27406 484
85.12640 1.09098 128.38768 294
91.45026 1.38592 128.30876 484
90.77178 1.36817 128.38754 310
87.10194 1.26793 127.78784 306
86.40235 1.25374 127.95677 418
86.39963 1.25077 128.28522 418
85.17552 1.21880 128.38763 294
91.42554 1.47502 128.28894 484
90.82315 1.46242 128.38696 310
87.15221 1.38656 127.78914 306
86.52402 1.37304 127.96816 419
86.52267 1.37247 128.29854 419
85.22768 1.34690 128.38715 294
91.40278 1.56271 128.26743 484
90.87527 1.55519 128.38570 310
87.20524 1.50061 127.78783 306
86.64290 1.49125 127.98338 420
86.64312 1.49410 128.31151 420
85.28258 1.47136 128.38794 294
91.37811 1.65048 128.24660 483
90.92917 1.64643 128.38704 310
89.82708 1.63843 128.38785 306
86.76297 1.61288 128.00087 421
86.76389 1.61212 128.32469 421
85.33788 1.60029 128.38837 294
91.35325 1.74068 128.22734 483
90.98117 1.74096 128.38652 310
89.88040 1.73723 128.38660 306
86.88046 1.73286 128.01237 422
86.88419 1.73278 128.33752 423
85.38934 1.73024 128.38510 294
