# .PCD v.7 - Point Cloud Data file format
VERSION .7
FIELDS x y z rgb
SIZE 4 4 4 4
TYPE F F F U
COUNT 1 1 1 1
WIDTH 1112
HEIGHT 1
VIEWPOINT 6800.324219 -2995.946533 142.183945 -0.578322 -0.126650 -0.080205 0.801917
POINTS 1112
DATA ascii
-197.38676 0.96761 53.38999 324
-197.44298 2.78815 53.33685 324
-197.40852 4.54096 53.37338 324
-197.40096 6.39687 53.36837 324
-197.41570 8.22325 53.34212 324
-197.42386 10.01676 53.38950 324
-197.33842 11.77323 53.33709 324
-284.77435 60.10791 35.69049 317
-264.15329 59.11585 34.47658 325
-278.76755 61.53267 37.17719 323
-295.13452 64.17665 39.89285 313
-260.36627 60.81583 35.44217 350
-275.10123 63.30421 38.01851 346
-291.23434 66.01208 40.70625 341
-258.42142 62.72133 35.76577 350
-272.98230 65.20113 38.45552 347
-289.28943 68.10933 41.10642 341
-256.56781 64.65862 36.21170 351
-271.10645 67.23617 38.79454 345
-290.65802 70.83586 40.65849 318
-254.65291 66.47639 36.66571 351
-270.88974 69.52969 38.82414 321
-252.89742 68.35380 37.08004 349
-272.79398 72.29632 38.21288 318
-254.61546 70.96832 36.44041 322
-277.56848 75.60093 36.80906 260
-256.71045 73.58067 35.79732 321
-258.71655 76.36693 35.06639 321
-15905.87500 3933.53320 952.96265 468
-15946.51270 4045.74707 682.31464 453
-15833.82422 4020.60107 947.44336 472
-15867.48047 4129.27637 680.87067 463
-15759.67188 4105.50098 948.58124 473
-15797.65625 4220.09473 678.75323 464
-15695.80762 4189.41992 943.09045 475
-15729.56445 4306.40430 679.96490 464
-15626.25879 4275.49268 942.80389 476
-15659.06445 4389.88770 676.07892 465
-15560.86816 4359.57764 942.54034 476
-15594.17773 4474.87061 677.05237 465
-15489.74805 4446.06836 936.22125 477
-15527.18945 4559.21387 675.63409 466
-15424.62207 4529.85010 934.18042 478
-15455.56250 4645.06641 673.39215 467
-15360.47949 4616.03418 932.91577 478
-15390.34082 4725.42480 673.43628 467
-15294.07812 4697.55322 930.34344 479
-15325.31445 4809.90088 670.68567 468
-15227.94141 4779.59814 932.48242 479
-15254.61426 4893.14648 667.35010 468
-15161.62598 4863.07812 928.60657 480
-15187.97070 4976.49854 669.42676 469
-15098.58301 4946.42920 926.45203 480
-15124.21973 5059.45801 668.24280 469
-15030.85840 5028.52051 923.34338 481
-15060.64941 5138.70312 665.42706 470
-14966.75195 5106.77100 921.30811 481
-14991.87109 5219.29346 663.88855 470
-14903.41113 5191.71143 922.35724 482
-14927.67578 5299.59131 661.26953 471
-14838.26074 5271.60449 918.73608 482
-14861.74902 5380.70312 663.11426 471
-14776.31348 5352.51514 916.43469 483
-37344.18750 13733.36816 -4431.51514 1000
-14797.43164 5461.27539 661.47955 472
-14713.85449 5431.99658 918.39349 483
-14734.07617 5543.72900 662.04407 472
-14650.23730 5512.58643 916.64832 484
-14668.45801 5620.58301 657.04803 472
-14585.00684 5589.66309 912.00305 484
-14606.89355 5704.39795 656.93506 473
-14521.41699 5671.44971 911.40582 485
-14540.58691 5781.47998 656.36096 473
-14459.65820 5748.62012 908.34875 485
-14479.63281 5861.29834 657.53284 474
-14400.98145 5826.15820 907.92377 486
-14413.71484 5938.63574 652.48071 474
-14337.69434 5908.32520 906.22638 486
-14352.24707 6015.78809 653.00153 475
-14276.55469 5984.00439 906.80182 486
-14289.53027 6095.01318 650.77942 475
-14212.87402 6062.23438 903.65100 487
-14227.86914 6173.71387 653.37964 475
-14152.28516 6138.62695 901.54260 487
-14166.65430 6248.99316 651.68915 476
-14091.30566 6217.91064 903.62714 488
-14101.66602 6326.61133 649.37195 476
-14032.06836 6295.07568 900.96918 488
-14040.40430 6403.70166 650.25195 477
-13968.84766 6369.59863 901.60754 489
-13977.02051 6479.51562 650.17999 477
-13910.52539 6448.93750 899.00995 489
-13917.46094 6553.80566 649.47437 477
-13850.94238 6522.66699 898.84485 492
-13854.59863 6632.43555 648.56122 478
-13789.48340 6601.25000 895.13367 493
-13893.06055 6756.81787 395.85135 456
-13794.43848 6705.55176 645.23309 478
-13728.60938 6677.58936 895.29529 493
-14413.87012 7007.79639 1199.28406 480
-13832.52637 6833.08301 396.34613 457
-13732.92676 6781.53320 643.52576 478
-13671.08203 6750.21387 895.67902 493
-14335.84082 7078.16016 1194.27905 481
-13769.80078 6908.75000 396.31165 457
-13673.20117 6859.52148 645.80151 479
-13608.30957 6826.60498 892.83655 494
-14258.48047 7150.32861 1194.74048 482
-13705.50391 6978.52979 392.06055 457
-13612.40332 6935.65088 642.08325 479
-13549.92480 6901.50732 891.43555 494
-14179.20508 7222.17383 1189.64758 482
-13645.81641 7057.18750 393.85205 476
-13549.62305 7008.16260 642.85626 479
-13490.21191 6974.99854 892.11841 494
-14100.01367 7290.95508 1188.10278 483
-13585.48242 7130.23535 393.71875 477
-13491.16504 7083.94287 642.39911 479
-13432.84375 7054.34766 889.99182 494
-14022.30664 7360.06787 1182.73596 483
-13523.30957 7207.50928 393.00165 477
-13433.29102 7157.19043 642.32416 480
-13374.42188 7128.32959 887.45508 495
-13943.97656 7431.25928 1181.80200 484
-13461.48047 7278.97363 393.54257 477
-13372.07227 7234.25293 639.12146 480
-13312.85938 7201.76074 886.87427 495
-13868.99902 7500.79346 1178.19812 484
-13400.31055 7357.49609 390.18823 477
-13310.56055 7307.77783 640.43097 480
-13259.74023 7276.63525 889.88153 461
-13789.93066 7568.48633 1178.28796 485
-13343.41113 7432.43311 390.52109 478
-13250.85059 7379.06104 640.32935 480
-13201.20117 7353.44238 886.30249 462
-13723.45703 7643.95117 1176.90967 495
-13282.78809 7504.21338 389.91943 478
-13188.80273 7455.85303 639.10339 481
-13145.45605 7429.85938 885.46381 422
-13661.83496 7719.00586 1176.33057 496
-13221.65039 7577.18018 389.47601 478
-13130.22070 7529.20654 638.77637 481
-13088.34570 7501.35645 883.84320 422
-13600.51465 7796.85205 1175.43005 496
-13163.48242 7652.49414 390.49130 478
-13072.99414 7603.66260 640.51886 489
-13032.19531 7577.75488 886.44092 422
-13539.62598 7871.54688 1174.17261 496
-13100.24512 7727.05273 390.81683 479
-13012.50391 7677.29590 638.94952 489
-12974.94727 7653.52295 882.73309 423
-13476.76562 7946.93848 1169.69824 496
-13039.47266 7801.13281 390.66681 479
-12953.57812 7748.81201 636.37506 490
-12923.31738 7732.81982 882.57135 301
-13414.72656 8023.51562 1172.04883 497
-12982.22656 7876.84814 389.89630 479
-12896.77832 7822.74658 636.95245 490
-12876.96191 7810.16943 884.05157 301
-13356.68652 8099.55127 1171.02625 497
-12922.35254 7948.72119 388.69791 479
-12836.97168 7894.27686 637.27679 490
-12829.35156 7890.73438 882.86487 296
-13292.74902 8174.09082 1169.29517 497
-12860.46680 8020.85156 387.89783 479
-12779.17969 7971.31494 636.12866 490
-12782.23535 7969.85840 886.72296 296
-13142.87109 8196.89453 1161.15601 495
-12804.26367 8095.71143 390.62701 479
-12720.67188 8043.36768 634.04401 490
-12962.26660 8193.81641 900.13818 465
-13083.33008 8269.44434 1160.69568 496
-12744.68750 8166.97266 391.08151 480
-12663.74902 8115.38574 633.46802 490
-12892.74219 8263.05859 895.02826 498
-13022.83789 8344.59570 1158.93335 491
-13143.03418 8422.35840 1429.43347 497
-12685.72852 8239.74609 387.58701 480
-12606.09863 8188.06055 635.51373 491
-12835.20117 8335.41895 897.29340 498
-12962.46973 8420.28027 1159.02393 491
-13083.00684 8496.53906 1426.84998 498
-13215.52832 8581.54785 1701.34741 464
-12624.85254 8313.00977 388.57050 480
-12544.35059 8259.47852 633.15094 491
-12776.95410 8411.10840 895.13403 498
-12899.67285 8493.56055 1156.96875 491
-13021.91406 8574.09766 1426.73828 498
-13131.87305 8645.59277 1698.15417 491
-1565.25830 1085.38794 361.42935 1000
-12567.53711 8385.93457 387.39233 480
-12488.98730 8335.10840 633.53448 491
-12715.54395 8485.42676 896.42847 498
-12928.72461 8626.06934 1163.64612 498
-12942.84570 8634.82129 1425.18958 444
-12505.07129 8460.14160 388.73117 480
-12429.66602 8407.20215 636.15289 491
-12655.28711 8558.93359 896.98419 498
-12822.99805 8671.29492 1161.31458 445
-12824.78516 8670.05273 1414.76978 445
-12890.52344 8714.92090 1681.09436 357
-12448.12012 8533.58594 388.88345 480
-12372.97949 8479.84668 633.47937 491
-12595.70508 8630.88770 892.65778 499
-12707.08594 8706.19238 1153.35315 446
-12710.41016 8708.53418 1410.70740 446
-12769.55762 8749.04590 1673.79333 357
-12389.27539 8604.29297 389.46774 480
-12312.31348 8553.44531 633.58020 491
-12539.36133 8705.37988 896.33936 499
-12593.57715 8742.62695 1149.01318 447
-12592.53027 8745.63574 1404.18689 446
-12648.36523 8782.92480 1665.62915 358
-12331.31445 8679.14258 388.31659 481
-12257.98340 8623.47754 633.97430 491
-12477.61523 8781.86914 895.75525 499
-12511.62012 8801.79199 1149.43274 499
-12510.26562 8799.64844 1402.89722 498
-12548.00000 8826.47168 1658.52002 390
-12269.27246 8749.25098 388.93863 481
-12195.22168 8697.84863 634.30426 491
-12418.17871 8854.52930 891.51923 499
-12452.23242 8876.65430 1148.01709 259
-12449.13379 8877.04102 1401.54810 499
-12489.04297 8904.46484 1659.42249 390
-12720.51953 9069.48047 1947.71899 485
-13088.88965 9329.83594 2266.26538 485
-13090.82422 9327.01270 2538.68872 474
-12598.43457 8982.26660 2970.23804 332
-12213.44922 8823.81836 389.40652 481
-12141.93750 8768.34863 631.13281 492
-12359.25293 8925.87598 894.08319 499
-12368.73535 8931.74219 1147.73975 499
-12364.67773 8930.46973 1396.96130 499
-12436.24902 8978.95801 1658.80103 390
-12544.00879 9059.84180 1931.55359 490
-12539.76172 9056.90723 2186.20361 489
-12541.02246 9058.73926 2446.48999 305
-12153.22852 8893.07129 388.07996 481
-12080.63672 8842.59863 633.33539 492
-12299.96973 8999.05957 894.25977 499
-12311.09375 9008.93945 1144.52539 499
-12304.76270 9004.37500 1395.05334 499
-12375.70996 9057.06055 1659.96814 390
-12603.57910 9218.13672 1947.00793 485
-12095.99805 8963.86133 388.11343 481
-12025.04102 8914.07227 634.08752 492
-12241.68359 9072.70898 894.67340 499
-12254.06934 9079.72754 1144.85156 499
-12246.75488 9078.55371 1398.38684 499
-12322.20312 9130.18359 1659.71106 390
-12501.29199 9261.69922 1939.15198 453
-12037.96680 9039.35254 388.60211 481
-11965.87598 8987.88965 633.74841 492
-12183.55273 9144.97949 893.90326 499
-12194.69336 9152.85059 1143.06189 499
-12188.17285 9152.58203 1394.35571 499
-12266.15039 9207.48047 1657.13708 391
-12479.54688 9370.91895 1946.23364 485
-11977.09961 9109.95410 389.73221 481
-11909.59277 9058.03809 631.56824 492
-11919.61230 9067.45215 879.35510 431
-12133.68164 9230.12500 1146.49646 499
-12130.42188 9225.48730 1394.20789 499
-12206.88379 9285.09473 1658.39453 390
-12420.71680 9443.44824 1945.88477 485
-11919.42090 9181.78613 389.28149 481
-11850.44434 9129.96680 631.69629 492
-11862.19824 9136.47559 879.32269 432
-12075.06641 9302.53613 1145.52649 499
-12068.92773 9298.76367 1397.02637 499
-12153.16016 9358.76465 1659.98132 390
-12363.43652 9519.66113 1945.05090 485
-11859.84570 9253.16504 387.79376 483
-11795.02734 9201.47168 634.22333 492
-11804.47754 9208.54297 879.28693 432
-12014.11426 9373.31738 1143.36584 499
-12013.93262 9370.45605 1395.98523 499
-12095.55859 9438.87500 1659.16797 390
-12302.90820 9595.29980 1943.58887 485
-11801.12598 9326.46875 388.21768 483
-11735.93359 9273.99609 633.41815 492
-11745.22754 9282.82715 878.20337 438
-11980.27051 9466.11426 1145.57800 499
-11977.73535 9462.49609 1398.70032 499
-12041.13086 9513.20020 1657.74646 390
-11743.63086 9398.98535 386.31900 483
-11678.59961 9345.38770 630.43353 492
-11691.40625 9355.18262 878.43573 438
-11919.57422 9537.89844 1143.95972 499
-11916.88477 9538.60742 1399.45679 499
-11982.95117 9589.08984 1659.35034 390
-11684.40820 9470.76465 385.39490 483
-11618.51953 9419.76758 632.12836 492
-11637.67773 9433.84082 877.39172 387
-11862.07129 9611.62598 1145.29749 499
-11859.43359 9608.92188 1397.31958 499
-11930.09961 9667.30859 1657.71936 390
-11627.25000 9541.42773 386.48770 483
-11561.65039 9492.26758 632.96222 492
-11768.28320 9659.78418 889.83789 499
-11690.08496 9592.54980 1135.16760 475
-11649.31445 9564.00781 1382.87158 391
-11871.75488 9742.14746 1658.21387 390
-11568.15527 9614.99121 386.00882 483
-11504.25391 9562.69043 631.39893 492
-11709.62793 9731.60938 890.30310 499
-11745.35449 9759.74707 1145.91577 499
-11741.54492 9756.17773 1398.05579 499
-11815.14551 9819.09961 1661.39575 390
-11509.25098 9686.54297 385.85007 483
-11449.54395 9633.49316 631.55353 492
-11651.56445 9803.11328 889.75421 499
-11685.09863 9834.60547 1144.33936 499
-11681.83984 9830.41992 1398.28442 499
-11759.12891 9895.16797 1659.97449 381
-11450.81934 9760.96191 388.10489 483
-11387.48145 9707.44141 630.83746 495
-11590.20020 9877.37598 893.63037 499
-11624.33008 9905.79395 1144.02283 499
-11622.49707 9902.59570 1396.31360 499
-11709.47852 9975.64551 1662.16968 360
-11390.96777 9828.54785 388.29160 483
-11332.35547 9780.24121 631.65247 495
-11532.21875 9948.80469 892.81000 499
-11607.97559 10013.99316 1150.36646 457
-11599.71582 10008.18262 1400.56580 457
-11711.03027 10101.22461 1669.58655 360
-11331.85645 9903.10449 389.22433 483
-11275.35449 9853.68359 631.19409 495
-11473.07227 10022.05664 890.20837 499
-11594.96191 10129.93750 1151.79736 456
-11588.91211 10122.24414 1409.46509 456
-11713.53027 10232.41504 1681.05298 359
-11274.51953 9975.81543 388.46664 483
-11216.91309 9926.36816 632.06903 495
-11414.93066 10097.83789 892.27991 499
-11567.02734 10229.44043 1154.85950 475
-11571.26953 10238.17480 1414.54236 455
-11217.68164 10047.62793 385.54242 482
-11159.83398 9997.55859 632.95221 495
-11391.21191 10202.06250 893.03937 418
-11532.88281 10327.62598 1161.32996 475
-11559.10840 10353.26855 1420.27161 454
-11158.94531 10121.98340 385.54575 482
-11101.49121 10067.61914 632.62384 495
-11464.66309 10395.98438 903.70044 475
-11500.24512 10427.89355 1160.51306 474
-11100.13672 10191.97266 387.33566 482
-11043.11621 10140.27539 632.09802 495
-11430.50684 10493.91602 903.41986 474
-11042.06934 10264.08984 386.11581 482
-10986.60254 10212.19336 634.90808 494
-11397.37500 10592.23730 909.77637 474
-10981.61328 10335.09180 385.75058 482
-10928.50488 10284.80273 634.33795 494
-11345.45508 10676.39355 906.72247 444
-10922.54590 10409.87988 385.67871 482
-10869.75098 10360.43164 634.43347 494
-10862.92285 10479.66504 387.94775 482
-10811.66016 10429.72754 633.92389 497
-10804.08887 10553.01465 387.82095 482
-10753.03027 10502.75586 631.97534 496
-1462.86182 1526.45837 26.08039 449
-1466.92590 1530.40295 61.61541 394
-10747.44238 10626.99512 387.98175 482
-10698.05469 10577.73145 633.34723 496
-1450.93127 1533.32959 26.43412 499
-1454.19446 1537.01526 61.66507 487
-1457.60522 1540.66992 97.46811 486
-10689.02832 10698.01465 386.02286 482
-10638.59277 10653.21582 636.59351 496
-1446.82178 1548.87915 25.71885 397
-10626.57910 10773.97656 386.65128 481
-10578.53320 10724.97949 635.32300 496
-10569.96387 10845.74121 389.41150 489
-10522.32715 10797.11816 633.25616 496
-10511.83008 10917.24609 387.26743 489
-10463.13770 10873.26172 637.50708 496
-10451.83496 10994.94043 389.47174 489
-10404.74805 10944.66602 635.10205 495
-10392.60547 11065.19922 387.13870 489
-10345.61816 11020.18164 635.93005 495
-10333.18457 11141.15332 390.88248 488
-10289.24023 11093.90527 635.32330 495
-10272.66309 11215.36035 388.89224 488
-10230.30371 11166.98633 636.01038 495
-10214.88281 11289.21582 390.21500 488
-10170.49316 11242.50000 639.18573 494
-10152.83789 11360.75000 390.48334 488
-10110.56641 11315.70703 639.78577 494
-10096.98535 11436.24414 388.66354 487
-10054.28809 11388.56055 639.55707 494
-10035.09668 11509.70215 389.36520 487
-9991.99707 11466.22266 637.80194 494
-9976.77051 11585.29297 391.83829 487
-9936.26855 11541.98730 639.42822 493
-9917.24316 11660.98047 388.92044 487
-9876.10938 11613.22559 640.85767 493
-9855.15137 11734.27051 390.59589 486
-9818.25391 11689.35645 639.99121 493
-9796.45215 11810.33789 391.28403 486
-9756.38477 11763.88867 643.12170 493
-9734.44531 11887.66602 391.66742 486
-9696.54102 11838.95801 640.86554 492
-9735.19238 12035.05078 137.43167 475
-9672.24902 11959.77539 389.70798 485
-9638.59473 11916.16895 643.70740 492
-9673.93945 12110.29590 141.08759 475
-9614.74707 12035.92090 392.99316 485
-9578.37109 11993.13281 643.47192 492
-9609.82227 12185.56934 138.20578 474
-9552.16602 12115.45215 391.67017 485
-9515.07031 12068.02148 642.63892 491
-9549.09473 12262.25879 138.50482 474
-9488.49023 12190.80859 393.93906 485
-9456.75391 12146.04883 644.67010 491
-9485.36230 12337.35156 139.17252 474
-9430.89941 12264.62402 395.11862 484
-9397.37207 12221.00000 646.58411 491
-9424.44727 12414.51465 137.37054 473
-9365.76270 12342.85742 394.85773 484
-9336.43066 12301.91699 644.77814 373
-27771.97461 36815.40234 -2874.50220 1000
-9360.58496 12493.35059 140.09819 473
-9308.14746 12419.82910 391.54688 483
-9279.94629 12383.53613 649.29889 373
-9298.65234 12569.65430 140.26549 473
-9245.03125 12497.92188 393.56937 483
-9225.30566 12468.41406 648.34869 372
-9239.45703 12655.38965 136.75986 460
-9182.67773 12572.23145 393.47479 483
-9163.92578 12552.10840 647.57697 439
-8373.66406 11625.86133 -1755.16541 1000
-9187.73438 12742.26953 137.34010 460
-9122.04590 12650.01465 395.55307 482
-9102.22949 12626.63379 649.81995 439
-9129.14355 12828.23633 139.51485 459
-9060.65039 12734.36816 393.23679 462
-9038.62793 12700.71191 651.68146 439
-9075.23145 12917.97949 136.71611 461
-9006.33301 12825.70117 394.51443 461
-8981.09375 12785.53125 652.46497 406
-9021.91309 13010.21191 138.53145 461
-8953.47949 12914.23047 396.27368 461
-8926.84277 12874.60938 653.08862 406
-8964.26074 13102.37695 140.12271 460
-8897.51074 13004.87402 396.50485 460
-8871.76367 12964.80762 656.83228 405
-8910.86719 13195.00684 136.66612 460
-8843.19531 13098.38574 397.20535 460
-8812.57520 13053.26074 654.37524 480
-8860.12695 13298.37891 137.92896 417
-8789.71973 13189.02246 400.16028 459
-8752.22070 13140.32129 656.66144 480
-8822.00684 13418.41309 138.83699 395
-8732.75293 13283.33887 400.98712 460
-8873.04492 13494.96582 670.69397 413
-8788.15430 13544.47656 138.92622 394
-8676.46777 13376.48535 400.73126 459
-8813.70020 13581.01367 670.62726 413
-8752.26465 13676.11230 138.48900 393
-8622.96875 13474.04980 400.34891 417
-9301.50195 14526.78516 706.05292 469
-8718.65918 13808.35938 140.80377 393
-8582.33105 13592.51562 400.11191 416
-9213.09863 14582.91016 703.06812 407
-8691.82227 13949.96875 138.70337 366
-8541.86328 13713.42090 404.27188 416
-9124.40820 14641.05469 703.39734 371
-8718.09473 14189.09082 138.44290 298
-8497.70605 13831.98145 404.83401 415
-9038.87402 14703.46191 703.68231 371
-8457.69141 13956.03320 405.28662 393
-8420.66895 14089.58301 408.41125 366
-8395.72461 14251.75293 410.71552 365
-8305.64551 14098.92578 676.32037 397
-8376.79395 14412.05078 410.91257 364
-8264.58398 14228.65039 677.28442 366
-8388.10449 14641.51953 414.10617 271
-27552.25781 52839.52344 -3755.73584 1000
-3129.46826 31752.24805 5406.93408 1000
181.93719 2276.08862 20.86037 409
197.88089 2310.93115 -18.90462 375
195.31001 2259.36792 21.16303 410
210.84618 2288.33545 -17.50358 377
208.55106 2243.62158 22.12450 406
222.73538 2255.94751 -15.39949 273
221.13921 2229.72900 22.55443 406
236.84586 2258.15918 -52.73362 332
233.93338 2217.12231 -13.28249 382
234.44710 2218.27271 23.18920 424
249.48233 2236.96338 -51.61333 424
246.72742 2200.51514 -11.76705 381
247.02032 2208.02441 23.73980 424
261.94769 2222.78491 -49.99209 425
258.97836 2183.62842 -10.93219 382
260.09155 2201.00171 24.34452 374
3605.57959 45511.53906 9995.75391 1000
274.14020 2207.87378 -49.27331 426
271.60770 2172.10571 -10.52670 456
273.45697 2193.56470 24.12200 372
287.30917 2195.81812 -48.40371 453
284.27057 2162.18652 -9.67094 457
286.26834 2188.35864 24.64857 298
299.73575 2185.59399 -47.78928 453
296.34137 2152.05566 -9.01980 458
313.35898 2329.56128 17.24766 371
312.17337 2175.46021 -46.93471 454
308.90033 2142.01172 -8.94460 459
328.10010 2334.05054 17.46428 376
324.28986 2165.30713 -45.83006 455
320.99939 2132.38330 -8.15181 462
343.29031 2338.12427 16.74370 313
336.59961 2155.67334 -45.63971 456
333.45596 2124.40698 -7.83201 471
358.16220 2345.02466 16.83666 319
348.87036 2146.78638 -44.76278 461
345.22119 2116.93994 -7.42216 471
361.13000 2137.99683 -44.15173 462
357.54190 2109.54810 -7.12062 472
373.36063 2128.16284 -43.39898 318
369.91611 2101.81177 -6.72238 473
384.66974 2113.58374 -42.35300 319
381.99036 2094.05371 -6.26161 448
395.97052 2098.66431 -41.45640 319
393.87527 2087.24902 -5.50301 449
405.69324 2167.12451 25.00922 490
407.26260 2087.47485 -40.38431 326
406.16528 2081.17554 -5.25733 453
418.56393 2161.92065 25.32289 491
418.96689 2077.19165 -39.91554 423
418.36621 2075.61060 -5.15213 454
430.94250 2156.36401 25.40564 491
430.11804 2069.01636 -39.27515 424
430.67050 2069.50977 -4.99746 454
443.50061 2150.46118 25.29236 491
442.19922 2061.09375 -39.31304 427
442.71866 2063.65405 -5.00550 458
457.08798 2149.84106 25.31272 299
453.63123 2054.01514 -38.39999 428
454.53839 2058.95435 -4.84798 458
479.73715 2201.46851 22.39315 297
465.24557 2046.99231 -38.30346 428
466.60251 2053.25952 -4.42800 458
500.74564 2238.02832 20.40125 493
476.87845 2039.88525 -38.05387 429
478.83270 2049.03003 -4.40942 386
488.76343 2033.43079 -37.66587 433
491.14157 2044.79419 -4.39054 385
500.37878 2027.64661 -37.23163 434
503.10767 2040.34644 -4.13233 386
512.65570 2022.56580 -37.15129 492
515.38861 2036.11511 -4.09516 386
532.18665 2115.61206 26.37924 494
524.25531 2017.21118 -37.03465 492
527.69128 2031.73938 -3.58361 386
543.27863 2104.99121 26.48526 494
535.92810 2012.10522 -36.49939 493
539.44263 2027.25610 -3.41654 386
555.80603 2099.42749 26.57942 495
547.88452 2006.25317 -36.20248 493
551.58484 2022.98242 -3.41454 386
580.83368 2151.50903 23.86324 413
581.65259 2153.03052 60.20852 495
577.75049 2137.51953 132.59261 471
559.63531 2001.16956 -36.36001 493
563.80890 2018.58618 -3.79154 386
595.38831 2152.69336 96.17381 413
590.41730 2131.52026 132.34892 496
571.42303 1995.88757 -36.06604 494
575.60687 2014.75708 -3.64619 386
611.11102 2160.15527 59.60133 409
604.33148 2132.37988 132.10417 453
583.03723 1990.87158 -35.54356 494
587.85364 2010.12024 -3.22185 386
594.25549 1985.35217 -35.84396 494
599.60400 2006.31152 -3.45812 293
639.00110 2160.41553 168.95708 409
639.37701 2161.99023 205.24055 495
606.00366 1980.23035 -35.59971 494
612.68658 2004.56531 -3.27979 293
652.69220 2157.04395 205.61737 495
617.62396 1974.86951 -35.07017 495
625.36938 2002.63916 -3.45393 293
631.94183 2028.40735 29.12825 496
629.66260 1970.03528 -35.12949 495
638.31091 2001.79907 -3.63025 497
643.98511 2023.56580 29.35847 497
641.12732 1964.65430 -34.94398 495
647.80524 1988.49377 -2.82156 425
658.58099 2028.31555 28.81934 497
652.42249 1959.31934 -34.69916 495
671.39838 2026.44543 -6.08695 497
703.90857 2137.61646 22.89053 284
663.86243 1954.49011 -34.47885 496
737.61572 2205.54492 -18.57091 320
675.26868 1949.26514 -34.60019 496
751.14294 2201.42041 -18.22245 320
686.70825 1944.18542 -34.52362 496
764.94122 2197.82886 -18.33804 320
698.38538 1938.88550 -34.03024 496
778.76605 2194.32080 -18.49755 320
719.81769 1964.30652 -70.81136 459
709.94366 1933.86792 -33.99933 495
791.95819 2190.39795 -18.56999 320
732.15521 2004.02539 29.11196 388
736.46057 2016.22021 62.99844 342
730.92444 1958.82800 -70.55729 459
721.38647 1928.89880 -33.99640 495
791.57471 2144.06299 -15.37843 388
792.10541 2144.25146 21.26077 488
789.08923 2135.89209 58.52231 333
752.86511 2024.67981 132.23930 412
742.79816 1953.50720 -70.58669 459
732.93005 1924.05444 -33.92966 495
818.27588 2180.16870 -18.55812 442
754.06128 1947.96008 -70.16867 459
744.18445 1918.72778 -33.84109 495
829.76062 2169.73975 -17.70295 444
765.34851 1942.22681 -70.46404 459
755.70844 1914.06653 -33.62476 496
776.94232 1937.02771 -70.28040 460
767.22479 1909.09021 -33.58933 496
788.24188 1931.73389 -70.11076 460
778.38409 1903.82117 -33.62185 496
799.64062 1926.30884 -70.12582 460
789.91577 1899.26343 -33.66295 496
811.43036 1920.43506 -69.48741 460
801.34357 1894.08191 -33.75279 496
822.66589 1915.19812 -69.44269 460
812.60632 1889.07910 -33.71894 496
833.88721 1910.15881 -69.30930 460
823.99597 1884.10107 -33.44598 496
844.47949 1901.96777 -69.26362 334
835.34967 1879.35400 -33.26175 496
855.41064 1895.78918 -68.90012 334
846.59332 1874.22510 -33.19943 496
866.67932 1889.33325 -69.03072 334
858.32330 1869.53479 -33.30813 496
877.21552 1882.95715 -68.77026 334
869.43665 1864.30457 -33.43717 496
888.46399 1876.56409 -68.65295 334
880.72961 1859.14734 -33.42756 496
936.49371 1990.38818 -9.49597 499
899.31482 1870.36890 -68.43165 334
892.31830 1854.54028 -33.43161 496
910.00446 1864.11877 -68.54833 334
903.63538 1849.16418 -33.60651 496
923.52533 1863.19788 -68.79793 331
915.81592 1845.92383 -33.80934 456
6881.75879 15166.15039 2597.45508 1000
5055.49463 11088.68750 2965.35229 1000
928.89008 1845.09351 -33.89890 456
942.09991 1843.98120 -34.55281 455
955.54315 1843.47571 -34.90197 455
969.69928 1843.62903 -35.18844 382
1085.70898 2054.13208 -55.00369 448
44868.01562 47450.41016 12019.50977 1000
23367.64062 16977.27539 4409.03418 1000
1218.47778 745.77338 -46.39732 440
1222.96069 748.54688 -24.13239 439
1230.61243 753.32343 -2.79149 487
1220.68494 737.26361 -45.97733 498
1224.30176 739.43176 -23.80716 498
1227.82080 741.90216 -1.66013 498
1231.57495 743.99219 20.37974 497
1226.59363 730.96954 -46.17316 461
1230.89551 733.87335 -24.19219 461
1236.39124 737.29047 -2.39434 408
1241.78491 730.63715 -47.69457 267
4174.51123 673.60046 -139.68622 443
4192.80127 650.63556 -141.11150 433
4436.67578 688.75891 -85.29818 451
4214.08984 628.61890 -142.54610 420
4427.06738 660.22260 -84.43324 451
4236.18457 605.66180 -143.08604 415
4416.84619 630.97424 -83.14912 452
4258.11328 582.90393 -144.71280 414
4406.96387 603.26862 -82.87734 452
4281.63574 560.24951 -145.36243 408
4396.16260 574.70148 -82.55437 453
4308.35693 536.35248 -146.95993 391
4387.00781 546.89886 -81.98858 454
4339.16846 514.30426 -149.16782 381
4376.23047 518.62982 -80.39135 455
4373.84424 491.33319 -150.74461 377
4383.66455 492.62210 -81.24921 482
4416.39453 469.41443 -154.07625 354
4416.16992 469.44366 -82.65575 385
4473.10059 448.34943 -157.05405 339
4471.84863 448.59946 -85.39483 360
4535.49268 427.00327 -161.86797 344
4596.17822 404.44260 -165.62616 343
4761.67432 419.41989 -99.14677 373
4658.91553 381.88016 -169.61644 342
4663.80127 382.64359 -94.75728 340
4726.33887 359.26270 -173.34900 344
4794.39990 335.88467 -178.30550 343
27136.47852 -407.15823 6901.85645 1000
2966.39697 -77.81674 -104.22958 490
2973.86963 -78.19968 -57.68383 491
2974.39404 -95.58195 -104.87175 384
3899.07495 -768.68610 -123.43080 481
4841.89551 -1204.87244 -109.36966 353
4787.75391 -1221.58997 -107.79426 471
4767.49609 -1246.93152 -106.95785 473
4747.42920 -1272.39050 -106.58183 479
4730.35547 -1298.18689 -106.02749 480
4709.49707 -1322.73547 -105.22582 486
4693.25391 -1349.46924 -104.00298 489
4677.23193 -1375.00110 -104.65199 490
4656.06055 -1400.17114 -103.92702 488
4758.23975 -1430.36279 51.66790 314
4641.77100 -1425.32568 -103.04460 490
4710.87646 -1446.94373 51.87651 280
4625.89844 -1450.86584 -102.40902 493
4766.33838 -1496.33545 -29.97174 315
4661.94482 -1462.95068 53.15105 421
4612.34570 -1478.09192 -102.79025 494
4663.93506 -1495.24329 -26.82141 340
4650.64795 -1489.71216 52.82498 421
4598.97754 -1504.42993 -102.71841 495
4641.52002 -1517.90479 -26.01398 499
4639.26270 -1518.33484 53.01287 422
4586.96924 -1530.48975 -102.19675 496
4630.88428 -1546.37354 -25.42721 499
4627.65186 -1544.90942 52.12386 422
4574.15088 -1557.54016 -102.34953 496
4614.72949 -1572.00110 -26.29603 499
4616.75635 -1572.66772 52.05916 469
4563.17676 -1583.70776 -102.59883 497
4606.09375 -1599.67798 -26.02892 499
4607.71973 -1600.40576 52.87900 469
4552.20068 -1611.28711 -102.30756 497
4595.74268 -1626.59534 -25.46118 499
4599.08008 -1627.85388 52.02581 499
4541.60498 -1639.01746 -101.74045 497
4585.47461 -1654.40039 -25.94692 499
4589.30762 -1655.36340 53.11013 499
4535.70654 -1667.86316 -102.35029 499
4580.47949 -1683.71411 -25.62444 499
4578.83154 -1683.57080 52.83942 499
49647.15625 -18944.07812 -4229.74756 1000
4523.22559 -1693.70312 -102.14583 499
4569.64404 -1712.25940 -25.75695 499
4568.87012 -1710.78418 52.80939 499
4515.61475 -1722.37158 -101.86083 499
4560.01855 -1739.50208 -25.84273 499
4564.73779 -1741.51489 53.15019 499
4669.92920 -1781.64282 130.62224 262
4503.86133 -1749.15662 -102.58794 465
4550.13184 -1766.87317 -25.99295 499
4553.76074 -1768.41089 52.56958 499
4656.91113 -1808.86462 131.42741 262
4492.05762 -1776.10168 -101.78562 499
4664.18408 -1845.48572 130.77586 479
4486.06445 -1803.89990 -102.55517 499
4666.33789 -1878.00769 130.86218 457
4473.06592 -1831.37805 -102.46475 499
4639.73682 -1901.00769 131.45708 312
4464.17627 -1858.45398 -102.22903 456
4454.40283 -1886.86890 -102.17795 499
4442.72803 -1913.59119 -102.07211 499
4430.86426 -1939.56677 -102.42476 497
4420.95654 -1966.78113 -102.13050 497
4703.90088 -2095.37842 -34.64907 492
4410.86279 -1995.28491 -102.76077 497
4450.75391 -2013.61951 -26.63546 484
4401.46045 -2022.91663 -102.79607 497
4683.03760 -2155.12256 -35.57641 399
4390.88672 -2050.55933 -102.88108 497
4446.07178 -2075.55737 -26.19376 498
4381.85205 -2077.81665 -103.02239 497
4483.21143 -2127.74243 -28.12097 492
4419.33301 -2129.14014 -105.71515 498
4464.68750 -2150.61597 -29.01786 492
4460.52881 -2183.40063 -108.85799 461
4444.66553 -2173.95386 -27.47328 493
4435.31738 -2204.20752 -28.63750 485
3086.09326 -2150.63599 -49.89590 472
3096.12476 -2157.35718 10.64609 369
3079.75220 -2174.09180 -50.45174 358
38206.89062 -28110.31055 11166.61230 1000
6903.44287 -5628.51123 2343.73120 1000
2235.42847 -2027.85815 -13.29174 354
2194.03540 -2012.75073 -11.20179 355
2156.06763 -2000.63354 -9.17178 353
2181.84058 -2026.40881 36.41062 374
2118.14868 -1988.70459 -7.27628 354
2168.39771 -2038.24719 36.47690 421
2082.01367 -1976.61438 -5.99844 356
2165.83740 -2060.19434 36.25618 468
2045.62305 -1965.02881 -4.24699 357
2159.78784 -2079.51782 35.59155 467
2010.67444 -1953.08496 -2.59761 358
2150.70850 -2095.73291 35.82576 307
1977.31250 -1942.82141 -1.31322 358
2158.47290 -2129.83496 34.32840 469
1943.78015 -1931.65491 0.76351 350
1952.51855 -1941.37488 43.65638 373
1948.06287 -1960.82532 -45.10803 354
1911.03284 -1921.06079 1.58200 351
1921.50793 -1932.45154 45.13666 375
1916.85840 -1951.53381 -43.45468 355
1879.06921 -1910.35486 3.10670 359
1890.49194 -1923.35266 45.38342 376
1887.80457 -1943.20032 -41.57628 357
1850.19263 -1903.17773 4.80743 360
1859.94910 -1913.58545 46.36055 390
1858.83667 -1936.00793 -40.08517 351
1824.94617 -1898.99939 5.76976 380
1836.26428 -1910.89465 47.36166 415
1832.41016 -1930.45581 -38.04147 363
1801.51709 -1896.24939 6.35843 425
1813.86316 -1910.38025 47.64207 485
1808.18201 -1927.60730 -37.03197 383
1780.03430 -1895.17700 7.30800 430
1799.31360 -1917.81250 47.79949 480
1785.65454 -1925.29639 -36.33587 392
1758.42627 -1894.76001 8.35331 373
1788.30359 -1928.36792 47.89000 444
1764.83740 -1925.23706 -35.13586 395
1737.82141 -1894.47729 8.53825 374
1783.04663 -1946.23096 47.61592 443
1744.51794 -1925.76782 -34.08442 396
1718.29675 -1894.98596 9.14251 448
1777.17749 -1964.12524 47.03392 442
1724.81250 -1926.08679 -33.84706 396
1699.70203 -1897.08667 9.85644 460
1771.38989 -1981.60156 47.26904 444
1704.77332 -1926.67456 -32.70100 402
1682.19580 -1899.56372 10.38260 465
1766.05920 -1999.85278 46.47702 441
1686.18750 -1928.64685 -31.73088 414
1665.11987 -1902.37268 10.85489 466
1759.21387 -2017.35767 46.12697 440
1668.00598 -1930.59314 -31.50257 414
1647.97131 -1905.27698 11.35673 467
1753.97681 -2035.91431 45.93196 439
1651.00586 -1933.08411 -30.46356 420
1630.80994 -1908.12622 11.75301 467
1747.90222 -2054.35596 45.59740 437
1639.67078 -1943.52515 -30.44879 287
1613.72778 -1911.13623 11.92433 468
1741.89587 -2072.57861 45.45627 436
1636.95850 -1964.56677 -31.80485 287
1596.87366 -1914.33569 12.50227 472
1735.51978 -2091.32251 45.07412 435
1581.24670 -1917.93701 12.72225 478
1731.30750 -2111.53345 44.61846 289
20566.36914 -26775.58789 -3747.28198 1000
1565.50977 -1921.46179 13.33586 479
1549.85376 -1925.30481 13.60931 482
1534.37024 -1929.52783 13.59398 482
1519.31128 -1933.74268 13.64390 483
1492.98230 -1947.80273 -304.22583 1000
4042.35107 -8666.42676 1696.87659 1000
571.18219 -2902.52368 -159.76584 1000
-296.86475 -47228.66406 -5331.37646 1000
29.12364 -3115.88696 79.61830 497
28.94414 -3115.52563 130.11232 474
29.27054 -3117.05103 181.48932 366
-278.78278 -2473.12646 172.00185 384
-277.94043 -2470.20312 212.43613 443
-277.73477 -2467.95239 253.18005 482
-277.21921 -2466.09448 293.97925 482
-1871.75256 -7575.98340 -127.90675 1000
-1872.76770 -7580.17822 128.33965 1000
-586.29919 -1820.84082 67.38239 472
-585.55109 -1819.32385 99.40772 473
-585.12128 -1817.94226 131.19180 497
-584.62976 -1816.39636 162.80324 497
-584.53253 -1815.21667 194.49518 497
-583.89673 -1813.81567 226.39415 496
-583.66302 -1812.95251 258.30267 496
-583.17053 -1811.76624 290.18085 471
-15266.22363 -35590.26172 8489.02832 1000
-3597.24463 -6573.89258 747.96405 1000
-12140.97461 -9610.96777 -634.34558 1000
-22277.31641 -13687.74902 4461.26025 1000
-17057.94922 -9231.91406 -2110.66187 1000
-3751.54346 -1835.16833 201.63501 446
-2481.91064 -1210.96570 132.00943 399
-3112.20898 -1506.53613 190.30983 491
-2481.70898 -1191.64099 131.38957 484
-2488.62354 -1195.00085 178.08864 447
-55745.38672 -22904.93750 11114.02148 1000
-27523.66406 -9393.80469 4460.09814 1000
89.62134 -3.16353 127.88170 256
89.62215 -3.16216 128.14014 256
89.59465 -3.16920 128.38605 306
88.45831 -3.44217 128.38718 302
90.14870 -2.95998 128.01892 377
90.14689 -2.96041 128.26523 377
89.63179 -3.08076 128.38795 306
88.49220 -3.34669 128.38803 302
90.24607 -2.86087 128.03542 378
90.24725 -2.86090 128.28003 379
89.66874 -2.99266 128.38701 306
88.52751 -3.25039 128.38658 302
90.34560 -2.76039 128.05270 379
90.34737 -2.76133 128.29605 380
89.70451 -2.90342 128.38663 306
88.56219 -3.15534 128.38742 302
90.44339 -2.66515 128.06688 381
90.44216 -2.66525 128.31256 381
89.74276 -2.81460 128.38582 306
88.59981 -3.05956 128.38664 302
90.53839 -2.56797 128.08411 382
90.54038 -2.56731 128.32748 383
89.78168 -2.72543 128.38522 306
88.63963 -2.96283 128.38695 302
87.30610 -3.23814 128.38550 298
90.63363 -2.47317 128.09827 383
90.63604 -2.47232 128.34109 384
89.81878 -2.63747 128.38678 306
88.67745 -2.86709 128.38684 302
87.34547 -3.13609 128.38658 298
90.73051 -2.37835 128.11397 384
90.72980 -2.37769 128.35335 385
89.85844 -2.54776 128.38686 306
88.71364 -2.77087 128.38512 302
87.38016 -3.03077 128.38647 298
90.82313 -2.28450 128.12914 386
90.82283 -2.28595 128.36861 386
89.90106 -2.45868 128.38702 306
88.75306 -2.67516 128.38583 302
87.41956 -2.92764 128.38823 298
90.91442 -2.19124 128.14352 387
90.91663 -2.19244 128.38054 387
89.93982 -2.37073 128.38580 306
88.79279 -2.57849 128.38770 302
87.45847 -2.82181 128.38762 298
91.00686 -2.10189 128.15692 388
90.97800 -2.10495 128.38786 310
89.98162 -2.28184 128.38731 306
88.83544 -2.48254 128.38661 302
87.49776 -2.71726 128.38745 298
91.09745 -2.00896 128.16853 389
91.02097 -2.02209 128.38708 310
90.02470 -2.19315 128.38525 306
88.87645 -2.38784 128.38550 302
87.53756 -2.61439 128.38806 298
91.18818 -1.91937 128.18127 391
91.06383 -1.94014 128.38692 310
90.06722 -2.10314 128.38669 306
88.91550 -2.29085 128.38539 302
87.57870 -2.50970 128.38499 298
91.27796 -1.83180 128.19511 392
91.10815 -1.85733 128.38666 310
90.10892 -2.01300 128.38571 306
88.95915 -2.19318 128.38710 302
87.62260 -2.40355 128.38551 298
91.35362 -1.74268 128.20355 471
91.15231 -1.77381 128.38661 310
90.15364 -1.92497 128.38757 306
88.05139 -2.24040 128.17905 347
87.66510 -2.29987 128.38766 298
86.08275 -2.53941 128.38637 294
91.37536 -1.66649 128.19673 471
91.19694 -1.69218 128.38599 310
90.19572 -1.83462 128.38647 306
87.82053 -2.17828 128.12032 346
87.70627 -2.19638 128.38538 298
86.12769 -2.42270 128.38806 294
91.39670 -1.58719 128.19180 472
91.24244 -1.60854 128.38765 310
90.24031 -1.74532 128.38625 306
87.57758 -2.11390 128.05756 344
87.57771 -2.11358 128.35056 345
86.16981 -2.31047 128.38464 294
91.41777 -1.50806 128.18513 473
91.28632 -1.52633 128.38644 310
90.28593 -1.65767 128.38782 306
87.32792 -2.04742 127.99377 343
87.32961 -2.04837 128.29445 343
86.21469 -2.19417 128.38759 294
91.43734 -1.43024 128.17891 473
91.33170 -1.44355 128.38748 310
90.33172 -1.56965 128.38615 306
87.12302 -1.97212 127.94010 442
87.12217 -1.97267 128.24359 443
86.25742 -2.08171 128.38841 294
91.45955 -1.34986 128.17160 474
91.38040 -1.35963 128.38661 310
90.37777 -1.47954 128.38773 306
87.02805 -1.88043 127.91013 442
87.03214 -1.87928 128.21410 442
86.30368 -1.96651 128.38496 294
91.48058 -1.27102 128.16350 474
91.42769 -1.27823 128.38591 310
90.42574 -1.39156 128.38660 306
86.93562 -1.78566 127.87952 441
86.93620 -1.78594 128.18855 441
86.34766 -1.85165 128.38753 294
91.50124 -1.19182 128.15685 475
91.47502 -1.19339 128.38753 310
90.47231 -1.30080 128.38739 306
86.84179 -1.69210 127.84898 440
86.84049 -1.68975 128.15993 440
86.39423 -1.74002 128.38614 294
91.52276 -1.11133 128.14998 475
91.52329 -1.11268 128.38724 310
90.51869 -1.21315 128.38701 306
86.74249 -1.59489 127.81900 439
86.74299 -1.59347 128.13176 439
86.43913 -1.62296 128.38556 294
91.54500 -1.03095 128.14349 476
91.54395 -1.03038 128.38091 477
90.57021 -1.12351 128.38608 306
86.65545 -1.49600 127.78876 302
86.64658 -1.49385 128.10020 438
86.48966 -1.50839 128.38602 294
91.56581 -0.95013 128.13478 476
91.56538 -0.95203 128.37186 477
90.61870 -1.03609 128.38737 306
86.70203 -1.38221 127.78753 302
86.54431 -1.39400 128.07190 437
86.53694 -1.39498 128.38792 294
91.58904 -0.86961 128.12747 477
91.58837 -0.86938 128.36478 478
90.66868 -0.94553 128.38716 306
86.74880 -1.26734 127.78953 302
86.44110 -1.29423 128.04169 436
86.44511 -1.29433 128.35976 437
91.60896 -0.78974 128.12053 477
91.61057 -0.78917 128.35793 478
90.71803 -0.85670 128.38713 306
86.79678 -1.15573 127.78575 302
86.34030 -1.18893 128.01028 436
86.34153 -1.18949 128.33260 436
91.63174 -0.70886 128.11180 478
91.63163 -0.70902 128.35088 479
90.76984 -0.76776 128.38574 306
86.84943 -1.04108 127.78733 302
86.28628 -1.08141 127.99078 490
86.28584 -1.08233 128.31491 491
91.65212 -0.62634 128.10577 478
91.65323 -0.62639 128.34459 479
90.81805 -0.67968 128.38702 306
86.89818 -0.92971 127.78821 302
86.25605 -0.97043 127.97550 490
86.25426 -0.96897 128.29662 491
91.67456 -0.54280 128.09662 479
91.67519 -0.54452 128.33640 480
90.87141 -0.59120 128.38786 306
86.94762 -0.81594 127.78922 302
86.22778 -0.85630 127.95638 490
86.22655 -0.85642 128.28259 490
91.69803 -0.46170 128.09027 479
91.69592 -0.46258 128.32919 480
90.92406 -0.50315 128.38530 306
87.00049 -0.70310 127.78655 302
86.19454 -0.74492 127.94036 489
86.19656 -0.74538 128.26802 490
91.72073 -0.37871 128.08127 480
91.72002 -0.38076 128.32199 481
90.97772 -0.41248 128.38757 306
87.05294 -0.59255 127.78588 302
86.16337 -0.62929 127.92474 489
86.16455 -0.63229 128.25499 490
85.00057 -0.68178 128.38539 290
91.74057 -0.29661 128.07198 480
91.74059 -0.29603 128.31244 481
91.03113 -0.32343 128.38519 306
87.10394 -0.47638 127.78796 302
86.13507 -0.51767 127.90948 489
86.13461 -0.51665 128.23975 489
85.05396 -0.55860 128.38756 290
91.76406 -0.21259 128.06331 481
91.76240 -0.21359 128.30640 482
91.08334 -0.23591 128.38760 306
87.15933 -0.36337 127.78682 302
86.10120 -0.40096 127.89211 488
86.10206 -0.40084 128.22360 489
85.10932 -0.43018 128.38770 290
91.78587 -0.13006 128.05498 481
91.78730 -0.12912 128.29710 482
91.13798 -0.14824 128.38680 306
87.21272 -0.25116 127.78645 302
86.06991 -0.28261 127.87462 488
86.07280 -0.28198 128.20679 489
85.16489 -0.30527 128.38593 290
91.80748 -0.04639 128.04846 481
91.80712 -0.04665 128.28947 482
91.19494 -0.05835 128.38696 306
87.27068 -0.13971 127.78639 302
86.04185 -0.16429 127.85516 488
86.03859 -0.16241 128.19043 488
85.22453 -0.18239 128.38722 290
91.80984 0.03668 128.03214 484
91.81158 0.03737 128.27750 485
91.24986 0.03012 128.38574 306
87.32386 -0.02566 127.78696 302
86.00652 -0.04561 127.84018 487
86.00684 -0.04560 128.17603 488
85.28065 -0.05554 128.38651 290
91.78749 0.12116 128.01283 483
91.78775 0.12205 128.25795 484
91.30496 0.11881 128.38708 306
87.38071 0.08392 127.78573 302
86.01405 0.07287 127.82852 486
86.01729 0.07464 128.16541 487
85.34034 0.06674 128.38434 290
91.76641 0.20759 127.99027 483
91.76491 0.20740 128.23761 484
91.36249 0.20574 128.38695 306
87.43640 0.19660 127.78934 302
86.04729 0.19318 127.82476 486
86.05036 0.19566 128.15880 487
85.39671 0.19343 128.38510 290
