# .PCD v.7 - Point Cloud Data file format
VERSION .7
FIELDS x y z rgb
SIZE 4 4 4 4
TYPE F F F U
COUNT 1 1 1 1
WIDTH 1041
HEIGHT 1
VIEWPOINT 5479.194824 -4108.070312 136.640945 -0.042193 -0.147157 0.001203 0.988212
POINTS 1041
DATA ascii
85.65953 1.23037 128.38702 314
85.62611 1.29822 128.38676 314
85.59316 1.36753 128.38693 314
85.55938 1.43623 128.38625 314
85.52790 1.50544 128.38634 314
85.49550 1.57513 128.38695 314
85.46309 1.64511 128.38646 314
85.43224 1.71364 128.38643 314
85.40142 1.78269 128.38741 314
85.37237 1.85177 128.38722 314
-292.36673 63.96030 39.77826 313
-273.06924 63.20226 37.70254 346
-289.03995 65.91012 40.48652 341
-271.05499 65.21631 38.15371 347
-287.12643 67.94099 40.85661 341
-269.14529 67.14511 38.58220 345
-288.31650 70.62603 40.48943 318
-252.81039 66.40810 36.38615 351
-268.64069 69.39474 38.56834 322
-250.96422 68.24393 36.81191 349
-270.66132 72.09261 38.00401 319
-252.58231 70.80917 36.27776 322
-272.86026 74.90321 37.26445 318
-47857.44141 26100.71875 10062.17676 1000
-25144.42188 20271.16602 4928.83887 1000
-4822.24463 4363.47314 453.61938 1000
-1684.87610 1808.16150 48.19087 467
-1689.98901 1813.70862 89.86132 401
-1674.93542 1820.38965 47.94090 475
-1679.23376 1824.46155 89.96852 432
-1133.56653 1343.43555 42.25720 473
-1138.76538 1349.09167 71.55032 366
-1123.60522 1349.08862 42.38353 494
-1126.87183 1352.47400 71.58814 494
-1130.74084 1357.11829 101.79558 485
-1119.36218 1361.02856 41.81330 421
-1123.64148 1366.10242 71.70235 356
-617.22021 892.54486 19.32121 360
-16780.73828 21171.28711 569.27008 1000
-606.64783 890.21198 20.21640 470
-608.82422 893.07520 38.51742 424
-611.21710 896.37872 57.01505 360
-599.36267 892.10669 20.30975 496
-601.06696 894.31006 38.74813 496
-602.81110 896.62042 57.19005 471
-604.77051 899.57593 75.63624 475
-606.44366 901.63959 94.09673 423
-609.21924 905.12518 112.69911 355
-593.64624 896.41852 20.26958 496
-595.27985 898.53198 38.84554 496
-596.89819 900.57684 57.16527 496
-598.74475 903.06659 75.69482 496
-600.04309 904.67554 94.44978 325
-601.68616 906.56738 112.86522 496
-589.60352 902.52063 20.31642 472
-591.39374 904.67432 38.72839 472
-593.26410 907.26581 57.02975 426
-595.65576 910.49030 75.51627 421
-598.80371 914.68158 93.96609 486
-588.65894 912.50775 19.53999 363
-592.79053 918.13409 37.59185 289
-10924.49023 26781.77539 -4170.45801 1000
-17264.93945 43717.79688 -1418.70093 1000
-7032.04395 37559.40234 -7480.47461 1000
-2822.99658 21938.33398 4907.06152 1000
-1191.54883 15416.16309 -123.70192 461
-1183.36865 15313.45215 129.92107 466
-1092.89880 15380.06543 -122.70690 461
-1084.22668 15280.82422 131.12816 466
-1082.89355 15288.34668 381.61398 460
-994.56622 15350.38281 -122.37607 450
-987.52478 15250.65332 128.84860 471
-989.57538 15253.29004 378.57828 449
-898.13232 15318.98145 -124.00958 450
-891.71796 15225.42578 127.41630 471
-801.57635 15294.08789 -122.89399 469
-798.56641 15196.73242 127.56969 472
-708.13391 15263.61914 -120.31978 470
-701.19928 15171.90137 128.85660 472
-612.92694 15238.38574 -121.06383 471
-607.34973 15144.41504 131.26527 473
-517.69177 15213.40332 -121.58545 472
-514.66705 15119.20312 129.51140 473
-422.07565 15184.13574 -119.59211 472
-419.75262 15091.90625 127.62507 474
-326.43518 15159.00488 -117.10680 473
-326.24704 15065.20508 128.82581 474
-326.69516 15093.20508 377.88037 349
-234.68730 15133.58887 -118.93736 473
-233.79213 15041.96973 130.66457 475
-232.53792 15062.73242 377.78931 426
-141.98068 15108.42969 -118.93372 474
-137.74496 15014.45898 131.08418 475
-139.72414 15037.94043 377.15048 414
-46.57148 15080.76367 -117.61142 474
-46.82054 14986.70801 131.24352 475
-47.02154 15017.33398 373.18506 415
45.06824 15057.25000 -115.31043 474
47.00175 14963.43359 129.69868 476
47.25916 14993.76367 374.71573 399
139.58334 15028.81055 -116.39716 475
135.34915 14938.63574 127.76706 476
137.60318 14968.66992 372.59570 399
227.91844 15004.44922 -116.38227 475
229.97392 14911.83203 128.83798 477
228.22113 14948.60742 376.25641 399
322.69406 14979.59766 -113.61526 476
318.91617 14887.14941 131.33627 477
413.56149 14950.47168 -115.72701 476
411.33231 14860.80371 130.40744 477
504.14816 14927.59570 -116.03947 476
502.46722 14835.99219 127.79200 485
593.55103 14902.33789 -114.13573 477
593.90210 14810.88867 127.75813 486
687.84637 14876.26953 -115.44937 477
684.17804 14785.59277 128.85568 486
777.53485 14850.36035 -114.66115 477
771.84241 14762.56055 128.50696 486
865.82336 14825.41309 -111.92029 478
860.68927 14740.32520 128.89211 487
957.23755 14799.66113 -113.42111 478
953.15204 14714.07324 131.59399 487
1046.52673 14773.69922 -114.38428 478
1038.71936 14691.02441 130.02147 487
1135.54895 14750.85547 -111.12968 478
1127.73535 14666.14648 127.84392 488
1226.20813 14727.22168 -113.77871 479
1219.43811 14642.17480 128.67165 488
1315.27063 14701.74805 -112.91940 479
1308.28540 14618.02148 129.97925 488
1403.07593 14676.18359 -110.99084 479
1394.83252 14593.37598 129.53177 488
1489.69043 14651.16699 -110.44941 480
1484.65588 14569.67773 128.13911 489
1580.73242 14625.01465 -109.26865 480
1571.20825 14546.89355 129.32310 492
1667.78601 14600.08887 -111.56849 480
1659.14514 14521.86621 130.99629 492
1756.84070 14578.31934 -110.44996 480
1745.67517 14497.73145 129.97672 493
1843.14966 14551.69043 -108.15451 480
1836.05908 14474.81543 130.24664 493
1930.39966 14527.02832 -110.82219 481
1922.83179 14452.48633 131.43497 493
2019.25061 14502.26172 -110.98829 481
2008.08276 14429.46191 130.67192 493
2106.26685 14478.42676 -110.85961 481
2097.24121 14406.54199 131.91341 493
2195.85767 15142.12109 380.37656 489
2204.27295 15172.33789 632.25372 410
2195.01904 14454.19043 -108.15267 481
2183.52515 14379.96094 131.28246 494
2289.20630 15098.73242 380.87408 489
2293.86743 15131.71191 630.41638 410
2279.43359 14432.25879 -107.07064 481
2269.82593 14359.07422 130.47202 494
2376.82886 15060.94824 379.09012 489
2379.26221 15092.08203 631.10364 410
2365.54346 14406.38574 -108.71027 482
2357.27515 14335.23340 130.40945 494
2462.88037 15017.90625 379.11780 490
2471.34619 15055.11719 627.32086 410
2454.22046 14382.20312 -106.85992 482
2442.05127 14310.58008 131.31728 494
2551.48291 14977.88379 376.99875 490
2556.06738 15015.44141 628.00977 411
2539.96216 14358.95410 -108.29967 482
2529.31543 14289.71094 130.96486 494
2640.43604 14937.49316 379.75153 491
2646.55176 14975.86523 625.53223 411
2627.00586 14332.82031 -108.33156 482
2616.84424 14265.84668 129.20671 494
2727.59570 14896.14746 376.08820 491
2734.69995 14937.58691 628.10236 411
2715.01294 14310.19336 -107.56247 482
2702.33252 14243.08984 131.85602 495
2812.11938 14854.74219 375.50455 491
2820.56909 14896.15234 625.58624 412
2801.53979 14284.77344 -106.92077 482
2786.21582 14216.46191 131.47716 495
2902.47241 14816.00586 376.63757 492
2908.68945 14859.33789 626.27960 412
2888.28198 14262.03613 -105.69907 482
2875.19482 14196.16309 131.59933 495
2986.55664 14777.62598 378.04135 492
2994.64404 14817.09082 623.90997 412
2971.33325 14239.48047 -106.71109 483
2959.03784 14171.17871 128.87187 495
3078.65576 14746.96289 378.68613 499
3085.02710 14791.95410 624.82092 417
3059.25342 14215.40527 -107.66849 483
3044.16577 14149.48828 131.66942 495
3167.58789 14721.93652 377.73392 499
3173.87231 14769.59180 626.31592 417
3143.92773 14191.30566 -107.28735 483
3131.67749 14127.27734 129.34076 495
3253.37622 14696.86328 377.75449 499
3264.17334 14745.72559 622.38995 417
3232.11084 14165.49707 -105.30836 483
3215.63574 14102.12109 132.41586 495
3344.00562 14674.58594 377.26227 499
3353.28418 14722.33691 625.12708 417
3318.56299 14140.84766 -107.60828 483
3301.62451 14079.47656 129.47745 495
3432.62500 14648.26172 378.27002 499
3442.51147 14699.42285 622.96118 417
3403.57471 14116.97852 -104.80036 483
3388.90332 14057.11621 129.12642 495
3519.96899 14626.15332 378.02768 499
3534.91919 14677.19824 622.02679 417
3488.50684 14096.07617 -107.23194 483
3475.45459 14031.39941 130.19667 495
3611.02539 14599.43164 374.42017 499
3622.09497 14655.15332 625.56732 417
3577.06567 14069.73145 -106.37673 483
3560.04199 14011.68848 130.57114 495
3698.92749 14574.23828 376.77759 499
3712.31519 14631.94434 625.14813 417
3661.03613 14048.22852 -105.29317 483
3646.59375 13986.91504 132.55882 495
3765.45581 14450.12109 372.54593 437
3801.46704 14597.10938 623.52979 499
3748.06299 14024.16699 -108.07814 483
3732.41382 13963.66309 132.76523 495
3849.54663 14422.51465 376.32312 498
3889.18945 14570.05957 623.93549 499
3833.91235 13998.84863 -105.65812 483
3817.76831 13941.66406 130.86748 495
3938.58203 14397.98047 374.93692 498
3977.95776 14547.20508 622.98389 499
3917.53564 13975.07617 -104.48745 483
3904.36743 13917.63574 130.07011 495
4025.96948 14374.61133 373.70041 498
4066.68115 14523.51270 622.86725 499
4112.91455 14684.19141 880.42957 432
4130.02246 14742.92871 1134.38489 376
4002.08130 13952.79004 -107.08387 483
3988.54102 13893.36816 131.66789 495
4114.41943 14351.07422 372.64575 491
4157.97168 14497.88770 624.72729 499
4204.49365 14658.29688 877.80304 353
4202.85889 14666.18750 1130.03564 376
4090.52222 13927.73047 -104.90274 483
4072.27197 13872.64453 129.49028 495
4202.20020 14320.83789 376.71387 449
4246.57324 14474.23633 623.72784 499
17259.62891 58424.24219 -16190.05566 1000
9410.43066 31716.01562 -3126.48560 1000
4175.17090 13905.14453 -105.29432 483
4157.18262 13850.26758 129.68983 498
4315.87842 14388.44531 374.34216 460
4319.63721 14397.38965 621.60498 460
4323.31494 14404.45605 866.81458 459
4261.73584 13878.03613 -107.92784 483
4246.66406 13823.78906 129.09735 498
4391.39404 14304.19922 373.56970 461
4392.98047 14314.88086 620.99207 460
4395.41602 14320.73047 866.66089 460
4348.53125 13855.68652 -104.79867 483
4330.21729 13803.43555 129.45435 498
4460.11230 14222.28320 375.42236 461
4464.42285 14233.91504 618.44714 461
4464.46484 14240.16797 861.35181 461
4433.99316 13833.69434 -106.30334 483
4414.88916 13777.97949 131.79001 498
4531.72119 14143.71484 372.31213 462
4535.01660 14150.32520 615.85168 462
4534.33887 14158.90137 862.03973 462
4518.30713 13806.61816 -104.66611 483
4500.96533 13756.24316 129.43173 498
4614.51855 14098.30566 374.62515 499
4612.27881 14103.32617 614.24463 499
4615.23975 14107.55176 860.12488 499
4681.14697 14314.44531 1118.26746 351
4861.22021 14882.86133 1413.06287 492
4867.16309 14891.05273 1668.86621 484
4866.86182 14895.78027 1931.57898 483
4605.65625 13782.79688 -106.27021 483
4587.27002 13735.66797 130.58777 497
4701.88184 14074.95410 374.70984 499
4702.61963 14079.90527 617.42041 499
4704.26953 14083.86035 860.68933 499
4795.75586 14365.03906 1123.62244 452
4689.82617 13758.71289 -105.40626 483
4672.79395 13711.55176 133.18831 497
4788.63428 14052.81836 373.89438 499
4780.02100 14026.68262 616.79041 499
4791.93848 14062.10742 858.09760 499
4887.45654 14341.09668 1123.99707 470
4910.84766 14419.26465 1380.00024 485
4775.53613 13738.07324 -108.17996 483
4761.88867 13688.93555 132.45312 497
4875.26172 14025.67969 374.11038 499
4866.69385 14000.59375 616.49347 499
4878.07764 14035.69922 857.90717 498
4972.76465 14316.02246 1123.80603 470
5002.39648 14395.90723 1379.32129 485
4864.73877 13713.95117 -107.50665 491
4848.04980 13664.52539 133.19595 497
4965.00830 14001.74219 372.54251 499
4955.03711 13978.91211 615.56128 499
4965.54688 14010.47363 859.87018 498
5065.56689 14290.36719 1121.01221 470
5094.24805 14373.31641 1379.23669 484
4950.37402 13691.31738 -106.85406 490
4933.73584 13644.16211 131.16025 497
5050.18848 13976.67773 375.11105 499
5042.64307 13952.17383 617.12738 499
5053.69141 13988.35254 858.50977 498
5152.13232 14267.83008 1124.03589 470
5180.96924 14348.08691 1379.42114 484
5065.69434 13748.31543 -345.60333 479
5036.22510 13667.11133 -107.64669 490
5018.91357 13619.07520 133.04143 497
5134.05957 13937.64160 371.93784 275
5132.22021 13928.13867 617.03186 498
5141.53125 13960.38086 861.28802 498
5243.29736 14240.38086 1125.25708 470
5152.03467 13725.58105 -349.01917 479
5120.95459 13641.13672 -105.04411 490
5106.84717 13596.58887 131.56001 497
5218.12354 13902.66797 372.18210 498
5219.91895 13904.62500 614.44098 498
5232.48975 13938.99414 859.23450 498
5335.69287 14214.87305 1125.29675 470
5238.46045 13701.08496 -346.37305 479
5209.50391 13620.95703 -105.38289 490
5191.76514 13572.21680 129.99545 497
5304.72461 13876.06836 373.59711 498
5305.78320 13880.50879 617.85596 498
5317.54590 13913.14453 859.54236 498
5421.64551 14192.39062 1124.48523 469
5326.66846 13675.28320 -347.42834 479
5295.40479 13597.49219 -108.70367 490
5277.71777 13552.00586 132.71835 496
5395.96631 13853.09961 373.85342 498
5396.28125 13855.42383 618.96350 498
5357.07715 13754.27246 853.20624 374
5513.20605 14164.86035 1123.79749 469
5415.09424 13651.20898 -347.89163 479
5383.79785 13572.51172 -107.40081 490
5364.54541 13527.25684 130.07693 496
5491.07080 13852.90137 374.93680 498
5494.08643 13859.75293 616.75177 498
5382.83887 13573.61230 847.55359 375
5604.99707 14142.74805 1127.05725 470
5502.33203 13628.62891 -350.41684 479
5470.73145 13548.95117 -107.46675 490
5451.02686 13502.59082 132.56424 496
5582.24365 13828.34766 376.37433 498
5582.04150 13835.25879 620.76343 498
5460.07324 13526.61621 844.82153 497
5693.89160 14118.06250 1126.80139 470
5586.50635 13603.66797 -350.18881 479
5556.97510 13523.22656 -105.86914 489
5539.19971 13481.03418 132.99155 496
5624.58447 13690.92188 373.98529 426
5587.96826 13603.15137 612.36023 492
5549.42090 13503.08496 846.33649 497
5787.34668 14097.39453 1129.26440 470
5676.58447 13579.15820 -350.72351 479
5643.00879 13499.68457 -108.17844 489
5624.04248 13459.75586 131.80136 496
5760.82568 13780.90918 373.69174 498
5693.11865 13622.26074 614.79529 267
5634.71045 13476.78809 848.80664 497
5876.90186 14072.71484 1126.81824 470
5761.72510 13556.10254 -351.42551 478
5732.39014 13477.54297 -106.77567 489
5712.30225 13434.45020 132.76944 496
5848.96875 13757.50781 373.88544 497
5848.34473 13762.90918 620.24951 497
5721.66895 13455.16699 846.31360 497
5969.88135 14047.53027 1129.29041 469
5850.72266 13529.54785 -351.48911 478
5817.84814 13455.87109 -106.07654 489
5801.27197 13412.08887 131.07314 495
5935.64697 13732.76660 377.89478 497
5939.61035 13736.89160 619.78802 497
5817.41895 13448.45703 848.71210 314
6061.36230 14026.63574 1132.66455 469
5941.29004 13507.39258 -351.01294 478
5906.32764 13432.01953 -106.49959 489
5886.66113 13389.36719 130.29225 495
6040.76465 13739.40820 378.40955 441
6038.57178 13736.80273 622.46112 441
6057.04248 13780.44727 870.17377 436
6164.09863 14022.82520 1134.14697 446
6027.32812 13483.19824 -351.49448 478
5995.66357 13405.88184 -106.49136 488
5976.27979 13365.66895 132.68892 495
6152.61719 13760.72852 379.31320 465
6154.16602 13773.78906 625.63934 440
6173.76611 13818.32617 872.50488 435
6272.00195 14037.81934 1136.11145 449
6114.91064 13459.08691 -351.93808 478
6080.63330 13382.11133 -107.11951 488
6061.95557 13342.58691 131.66595 495
6252.96094 13769.23926 380.17151 465
6270.88672 13807.73438 627.69171 439
6292.16504 13853.68555 878.70160 434
6206.21143 13433.41504 -351.40451 477
6172.20703 13357.77539 -107.91702 488
6153.46143 13318.10352 130.39992 495
6359.89990 13775.62891 379.21393 464
6383.05078 13830.72070 629.87042 463
6415.71777 13895.13672 880.94855 433
6293.24951 13407.54297 -350.91714 477
6257.76172 13336.38672 -110.64293 488
6238.71631 13294.73535 131.27150 375
6464.47803 13783.84082 382.33530 463
6491.34229 13836.33008 631.19647 462
6381.50244 13383.20605 -354.32556 477
6345.66553 13309.86035 -110.27803 487
6332.93994 13274.93457 129.94312 375
6571.62354 13791.57227 380.90887 462
6470.62646 13360.63281 -351.52655 477
6437.02148 13285.14551 -108.05669 487
6421.94678 13255.77148 130.92799 375
6720.40869 13878.78125 383.89685 441
6558.79932 13336.75391 -354.73804 476
6524.07861 13263.74902 -109.62643 487
6508.82422 13234.62305 131.78481 443
6651.18359 13312.33008 -352.63123 476
6612.82422 13238.78613 -110.86192 487
6600.63623 13211.27734 133.79482 443
6737.62598 13286.84180 -353.80948 476
6703.19238 13213.50293 -108.71716 486
6689.99463 13183.75781 130.25052 442
6828.38574 13262.38379 -355.04489 476
6793.11328 13191.80469 -112.08471 486
6777.67090 13158.08887 130.85358 442
6917.10010 13237.10254 -353.60760 475
6880.53711 13165.28418 -112.34938 486
6865.55273 13133.45898 132.83582 442
7009.19531 13213.55859 -354.72061 475
6971.79980 13140.29688 -110.20227 485
6957.56299 13108.41504 131.03706 442
7099.65186 13187.64160 -358.02148 475
7062.63379 13115.15820 -112.94283 485
7045.83643 13082.97656 132.66890 441
7192.14746 13163.10645 -356.52560 474
7151.73340 13093.65234 -110.27281 485
7135.76221 13060.36719 131.53140 458
7279.64893 13136.72754 -358.90228 474
7242.35156 13068.93652 -113.25056 484
7228.95752 13037.83008 130.42615 419
7372.71338 13111.42871 -360.67117 474
7333.26172 13043.17090 -111.96111 484
7323.45508 13022.25293 132.33345 300
7465.38721 13086.99805 -359.80960 473
7427.25098 13018.69824 -113.65012 484
7420.07764 13006.91992 130.58188 295
7555.72412 13062.97461 -359.07407 473
7519.06641 12992.38672 -113.19020 483
7516.00537 12992.79492 134.21037 294
7650.22070 13033.65625 -361.47046 473
7611.43164 12968.81934 -111.37087 483
7616.27197 12980.50098 133.33673 294
7684.04297 13037.18457 -372.03180 472
7646.46045 12970.94141 -127.29260 483
8463.44238 14366.77441 116.77645 419
7777.82520 13013.98242 -373.14880 472
7741.78906 12945.66113 -127.09208 482
8562.38770 14339.79395 120.20673 419
7873.21826 12986.15625 -376.49704 472
7832.40332 12923.24805 -126.06180 482
8663.43262 14307.92090 120.44186 419
7967.55566 12962.04492 -377.35010 471
7926.05713 12897.29199 -128.36438 481
8762.65527 14274.31641 118.42480 419
8057.85645 12933.53125 -378.02896 471
8022.06152 12870.54395 -127.51502 481
8867.38965 14244.94531 119.20750 414
8155.19580 12910.99121 -378.35574 470
8112.14844 12848.53906 -127.57902 481
8970.55566 14218.81836 121.27900 414
8250.67090 12882.92090 -378.26138 470
8210.05957 12823.46289 -129.16949 480
9075.13965 14188.43164 120.43216 414
8342.48926 12857.66309 -381.74203 470
8302.50586 12796.25781 -127.76271 480
9183.77344 14163.29297 120.12109 413
8438.55664 12831.36328 -381.78641 469
8396.50391 12771.79199 -130.62680 479
745.16388 1021.90350 332.80099 1000
8536.11914 12807.96777 -381.13287 469
8495.73535 12744.12598 -128.70346 479
8632.31152 12779.59473 -383.48303 468
8591.35742 12718.27832 -129.43005 478
8727.03809 12753.86035 -383.86185 468
8686.80469 12693.91211 -128.28093 478
8826.48047 12727.88184 -382.51190 467
8781.39355 12667.85742 -129.43791 477
8919.50098 12703.42969 -386.67566 467
8878.30273 12641.13672 -130.10835 477
9018.46875 12676.41504 -388.40073 466
8979.28809 12617.39160 -130.49437 476
9118.65625 12650.66406 -388.63614 466
9075.99023 12589.73535 -130.41698 476
9214.85547 12622.43066 -389.02921 465
9172.64648 12565.06934 -130.66989 475
9316.38086 12597.74609 -389.29919 465
9270.54688 12539.58203 -130.87956 475
9293.56445 12566.93359 123.25172 428
9422.64648 12578.04883 -389.45999 450
9373.68848 12513.57031 -133.37907 474
9392.95801 12538.55176 122.95296 428
9531.32324 12564.77344 -392.90213 451
9471.93945 12486.86523 -133.85899 474
9496.46289 12514.79199 123.43999 409
9640.95312 12548.06348 -392.93100 450
9574.60254 12458.75586 -136.55809 450
9597.89355 12491.55957 123.59164 409
9754.24414 12535.79492 -398.79462 449
9685.90723 12444.70312 -134.51765 449
9708.86035 12473.63574 121.47220 398
9865.46387 12520.82031 -398.38242 449
9798.77930 12432.49219 -135.91791 449
9815.88867 12458.96191 122.02467 397
9980.77832 12507.80078 -401.07233 448
9911.39746 12417.75977 -135.79384 448
9953.05273 12472.28027 122.33128 356
10094.78711 12493.98828 -402.00690 447
10023.95508 12403.29297 -136.89192 447
10010.37598 12387.38184 122.62286 467
10221.47559 12495.04395 -406.94275 402
10137.24512 12391.33203 -138.98769 446
10361.86719 12506.54492 -410.08472 401
10253.31055 12378.46582 -142.01598 446
10509.33691 12530.52832 -411.83966 378
10367.43555 12362.63672 -142.71564 445
10661.93848 12554.88672 -415.46133 377
10497.94824 12361.69043 -140.88528 401
10825.25781 12588.02344 -419.67474 350
10639.60645 12374.72949 -143.48900 400
11044.95215 12687.87207 -428.55753 283
10783.01465 12387.11523 -146.15988 399
10925.68652 12400.39844 -149.67899 398
11079.30566 12417.79004 -149.38997 349
11265.26074 12473.83789 -151.00645 348
11458.37109 12528.40625 -154.72475 347
32439.98242 22726.98633 -6413.90869 1000
28095.14062 19167.75781 -2107.14917 1000
5637.52490 3506.95532 -1065.41772 1000
510.15509 220.77226 45.03785 1000
2279.46606 1051.16772 -67.61658 499
2285.11768 1053.87329 -28.07693 497
2292.21436 1057.53784 11.16233 376
2290.51758 1040.02515 -68.59147 404
12444.32715 5274.14062 -3237.48486 1000
55463.41016 15594.90234 13535.39453 1000
44144.76953 3705.47754 5949.92236 1000
48545.53516 -1298.13708 924.90570 1000
3664.64307 -139.28445 -43.13879 435
3647.57007 -160.66475 -42.81834 453
3673.25073 -183.38329 -103.17506 436
3637.23804 -182.29033 -42.28993 454
3658.30615 -205.37953 -102.19038 437
3627.33667 -203.07744 -42.34375 449
3638.25879 -226.06744 -101.04256 478
3618.96826 -224.22531 -41.98766 387
3629.08032 -246.82224 -99.89833 479
3613.48682 -246.42873 -41.67035 387
3620.16406 -267.98401 -99.93687 479
2537.65796 -193.22385 -125.00175 383
3611.37720 -289.21741 -99.45230 491
3606.01587 -289.05191 -41.00304 291
3605.53613 -310.43405 -98.98705 491
3600.94043 -310.41260 -41.33156 437
3597.64355 -331.73917 -99.17171 337
3635.16992 -400.95526 -42.69761 455
3633.59692 -423.48453 -42.61829 498
3633.69092 -445.19629 -43.14137 498
3633.04932 -467.79593 -43.04158 498
3702.07178 -522.00140 -46.83122 497
3636.89722 -534.42590 -43.57051 497
3630.73315 -556.05756 -44.27341 497
3696.69067 -565.71710 12.54560 402
3683.12109 -564.24695 72.28788 332
3708.75415 -590.62732 12.55836 497
3683.53931 -586.53241 72.72965 313
3675.86157 -608.38971 132.21289 472
3705.76953 -659.18610 -48.49242 291
3595.80444 -661.48309 -42.49012 496
3595.32544 -683.44598 -42.92799 496
3811.51489 -772.72778 -53.90825 450
3569.51611 -744.91412 -101.37511 461
3564.60596 -744.55469 -42.51428 424
3663.75366 -765.57343 72.17383 298
3569.48608 -767.56616 -100.94675 460
3568.78491 -767.59222 -42.95488 287
3569.99243 -789.85144 -101.43510 460
3562.97900 -788.25311 -43.06199 287
3570.24365 -812.54083 -102.26365 460
3560.33301 -809.94519 -43.17810 381
3570.18579 -835.27557 -102.60686 459
3558.21973 -832.33716 -43.12074 380
3570.61938 -858.38373 -102.32778 459
3556.43164 -854.91742 -43.44355 380
3570.51245 -880.78864 -103.01222 459
3554.91211 -876.73901 -43.53921 380
3570.44556 -903.33960 -103.10870 458
3553.09790 -898.79114 -42.93999 380
3570.92358 -926.29016 -103.70027 458
3551.45312 -921.38043 -43.55950 380
3570.64917 -949.87018 -103.73176 458
3549.87402 -944.27930 -43.70663 380
3548.18848 -966.23370 -44.37987 380
3547.32080 -988.91449 -44.67902 454
3554.39331 -1013.99982 -45.22504 355
48060.30469 -19687.16797 -5827.88721 1000
2627.56543 -1749.88330 -19.09312 490
2636.32129 -1756.44189 31.37072 390
19892.66016 -13858.24121 -1052.75024 1000
33501.68750 -29378.58594 864.04431 1000
3780.63086 -4523.46289 -58.15333 293
3741.52295 -4531.75146 -58.18013 293
3876.30420 -4699.37500 34.25379 439
3720.12354 -4562.98633 -59.28811 428
3831.81250 -4702.50977 34.74633 440
3706.96558 -4603.07910 -59.72022 416
3788.01440 -4706.55322 34.83498 441
3695.22729 -4648.64990 -60.58339 399
3742.79077 -4709.69678 34.56314 442
3699.44458 -4712.43359 35.14701 442
3668.59912 -4732.68408 34.88717 486
3664.25537 -4786.52002 33.90513 382
3686.40527 -5006.72949 31.61261 372
3710.29932 -5107.47949 29.52877 380
2565.77026 -3676.27051 -12.56272 443
2545.43750 -3694.86426 -13.12929 339
2318.24072 -4794.03906 49.57481 497
7764.78027 -16782.55273 147.47231 1000
2254.51758 -5835.06836 34.43768 346
2201.60083 -5803.09424 36.06950 427
2219.54028 -5852.52979 136.22284 438
2143.61011 -5750.26025 36.15303 350
2098.59863 -5735.51904 37.54243 358
2019.55957 -5734.59912 235.22510 426
1979.67615 -5732.55322 235.66737 477
1945.56250 -5749.60645 135.93004 493
1940.54907 -5735.69287 234.95911 477
1894.86511 -5712.57422 39.29578 469
1908.28015 -5753.11670 137.56973 493
1908.82996 -5753.82715 234.78003 419
1856.73010 -5712.19141 38.95662 472
1869.40210 -5751.20117 137.09392 494
1869.74951 -5754.34863 236.07195 419
1819.42542 -5713.80859 39.14673 472
1830.39001 -5753.55859 136.22746 494
1832.47437 -5757.76172 234.48283 420
1781.96887 -5717.85010 38.29718 475
1793.56018 -5756.38037 137.29173 461
1794.26257 -5758.65576 234.37979 420
1744.32764 -5721.75586 38.97811 475
1757.24524 -5765.86768 136.74397 495
1755.75171 -5761.26318 234.50778 420
1707.28699 -5724.35791 39.19185 475
1719.31726 -5769.39551 136.55185 495
1718.71960 -5763.50049 233.89209 420
1671.19629 -5727.52832 39.58251 476
1682.73730 -5772.62109 137.02380 495
1680.92188 -5764.96680 235.11835 421
1634.24683 -5731.27979 39.74478 441
1667.98584 -5856.43066 137.34598 495
1649.36865 -5790.10303 235.01465 286
1673.43420 -5878.07617 336.40027 450
1597.98523 -5736.19287 39.64468 441
1670.72485 -6015.23535 238.73578 285
1560.47498 -5739.68945 39.93487 442
1604.63257 -5914.26074 336.97079 493
1524.36511 -5743.66602 38.72446 446
1487.80444 -5746.48877 39.78198 446
1451.61060 -5749.99023 40.12400 446
9466.42188 -39640.73047 2163.13745 1000
1414.03540 -5754.55176 40.39871 392
1452.20740 -5914.86523 135.99493 417
1378.00635 -5758.22559 40.13556 392
1342.73694 -5763.18115 39.34097 392
1351.81299 -5807.81201 136.95464 497
1305.97534 -5767.90479 39.30158 379
1287.67786 -5855.56055 135.92896 474
1240.68384 -5812.54932 137.11029 498
1214.26257 -5866.60400 135.44754 310
1205.40259 -6019.00635 236.20219 458
711.77960 -4599.48438 134.92062 492
501.21021 -3726.91113 72.85710 311
436.33865 -3326.78735 79.03217 281
445.41238 -3412.95605 134.33578 320
409.01340 -3254.44067 80.80965 331
414.25665 -3306.33081 134.18912 440
384.76459 -3211.50098 81.18872 330
392.26929 -3294.63232 133.85829 478
362.60062 -3184.32007 81.41711 379
371.86902 -3297.50757 134.37633 478
341.10873 -3155.38062 82.20063 375
352.41040 -3301.35205 134.56693 478
319.05820 -3127.75439 82.79167 382
332.37091 -3304.30811 133.82793 477
298.10132 -3102.64648 83.14959 386
311.91586 -3307.77759 133.99669 477
277.92059 -3080.63208 83.05630 388
291.22211 -3310.90283 133.67256 477
3872.48828 -62791.50000 5329.66748 1000
257.96860 -3064.28931 84.01609 425
271.46265 -3314.50293 134.49156 477
240.43991 -3093.66602 83.62209 350
251.35210 -3317.53760 133.57401 477
223.72031 -3134.51392 82.91122 336
230.98709 -3321.19092 134.04083 477
206.25540 -3185.65674 82.01226 330
210.63086 -3323.71509 134.02339 477
187.92583 -3232.64185 81.32502 322
190.51756 -3340.88379 133.80583 406
905.89270 -47638.62891 9639.09473 1000
79.41855 -9874.43457 1437.98669 1000
-10713.85449 -33912.98047 -8153.44775 1000
-15943.51660 -42886.29297 10037.80176 1000
-26318.17969 -59272.95312 -8391.24219 1000
-425.64380 -1096.97144 211.97891 339
-424.80603 -1095.16309 231.68744 407
-424.17966 -1093.91772 251.79163 459
-434.35587 -1098.03625 52.25207 339
-433.60477 -1096.40076 72.43874 406
-432.79507 -1095.01038 92.30182 459
-432.22855 -1093.87061 112.29955 459
-431.87024 -1093.29785 132.06392 491
-431.62253 -1092.37170 151.98564 491
-431.40912 -1091.90686 172.10324 499
-431.28702 -1091.39905 191.85298 499
-431.15436 -1091.13062 211.86469 482
-430.92081 -1091.01672 231.72211 482
-430.86536 -1090.93005 251.64085 442
-439.64124 -1092.53064 32.43166 498
-439.55740 -1092.01379 52.37165 481
-439.60251 -1091.77576 72.54418 482
-439.77151 -1092.07703 92.19060 442
-439.58871 -1092.24316 112.39257 384
-439.96411 -1093.10132 132.25737 384
-915.67493 -1635.13220 100.75520 287
-913.90271 -1631.98523 132.28850 362
-912.68744 -1630.10938 163.75916 425
-911.65741 -1628.70972 194.76872 425
-911.14954 -1627.77380 226.28830 472
-910.55811 -1626.32190 257.78928 472
-909.93677 -1625.44043 289.20135 496
-924.00177 -1626.19409 69.61879 426
-924.28278 -1626.27759 100.58025 363
-1377.44299 -2167.06958 261.51163 372
-1375.81372 -2164.32983 304.26370 433
90.12447 -2.98327 127.87535 367
90.12615 -2.98265 128.11900 367
90.12520 -2.98347 128.36301 368
89.15972 -3.25934 128.38554 302
90.22981 -2.87853 127.89334 368
90.22932 -2.87900 128.13693 368
90.22984 -2.87881 128.37984 369
89.19431 -3.16932 128.38779 302
90.33218 -2.77525 127.91389 369
90.33234 -2.77629 128.15485 370
90.29516 -2.78507 128.38686 306
89.22764 -3.07749 128.38702 302
87.98358 -3.41854 128.38501 298
90.43195 -2.67556 127.93137 371
90.43220 -2.67595 128.17175 371
90.33223 -2.70192 128.38550 306
89.26216 -2.98754 128.38562 302
88.01733 -3.31679 128.38803 298
90.53352 -2.57448 127.94784 372
90.53197 -2.57554 128.18941 372
90.36893 -2.61766 128.38568 306
89.29807 -2.89638 128.38728 302
88.05109 -3.22087 128.38750 298
90.63091 -2.47701 127.96582 373
90.63130 -2.47746 128.20503 374
90.40497 -2.53290 128.38596 306
89.33356 -2.80622 128.38666 302
88.08739 -3.12181 128.38649 298
90.72921 -2.37884 127.98246 374
90.72830 -2.37833 128.21931 375
90.44463 -2.44883 128.38725 306
89.36971 -2.71557 128.38698 302
88.12125 -3.02373 128.38554 298
-37720.05859 -9329.84570 2684.16699 1000
90.82407 -2.28206 127.99886 376
90.82500 -2.28388 128.23445 376
90.48251 -2.36497 128.38582 306
89.40751 -2.62280 128.38547 302
88.16015 -2.92212 128.38774 298
90.92045 -2.18725 128.01292 377
90.92112 -2.18824 128.24896 377
90.51967 -2.28183 128.38605 306
89.44736 -2.53120 128.38708 302
88.19698 -2.82575 128.38567 298
91.01547 -2.09388 128.02838 378
91.01460 -2.09409 128.26251 379
90.56036 -2.19691 128.38547 306
89.48563 -2.44195 128.38589 302
88.23303 -2.72594 128.38763 298
86.75570 -3.06013 128.38611 294
91.10756 -2.00007 128.04510 379
91.10709 -2.00123 128.27585 380
90.60027 -2.11202 128.38785 306
89.52254 -2.34948 128.38628 302
88.26998 -2.62756 128.38554 298
86.79110 -2.95156 128.38562 294
91.19925 -1.90762 128.05893 381
91.20056 -1.90822 128.28893 381
90.64071 -2.02693 128.38640 306
89.56244 -2.25845 128.38722 302
88.30924 -2.52826 128.38742 298
86.83004 -2.84389 128.38777 294
91.29214 -1.81789 128.07147 382
91.28992 -1.81670 128.30363 382
90.68114 -1.94406 128.38533 306
89.60469 -2.16779 128.38725 302
88.34861 -2.42892 128.38503 298
86.86829 -2.73638 128.38716 294
91.35787 -1.73142 128.07838 466
91.35680 -1.73152 128.30940 467
90.72309 -1.85911 128.38567 306
89.64311 -2.07586 128.38712 302
88.38871 -2.33068 128.38680 298
86.90646 -2.62797 128.38834 294
91.37850 -1.65573 128.07355 466
91.37785 -1.65553 128.30214 467
90.76634 -1.77389 128.38754 306
89.68696 -1.98537 128.38783 302
88.18543 -2.27612 128.33614 357
86.94764 -2.52086 128.38478 294
91.39761 -1.57929 128.06671 467
91.39741 -1.57763 128.29846 468
90.80888 -1.68886 128.38615 306
89.72807 -1.89525 128.38512 302
87.98335 -2.22447 128.28899 356
86.98564 -2.41305 128.38797 294
91.41893 -1.50208 128.06178 468
91.41905 -1.50238 128.29170 469
90.85218 -1.60479 128.38695 306
89.76880 -1.80364 128.38646 302
87.77345 -2.16851 128.23827 354
87.02864 -2.30397 128.38686 294
91.43993 -1.42433 128.05458 468
91.43967 -1.42464 128.28673 469
90.89468 -1.52160 128.38620 306
89.81340 -1.71054 128.38623 302
87.55507 -2.10748 128.18372 353
87.06958 -2.19562 128.38521 294
91.46022 -1.34914 128.04828 469
91.45890 -1.34927 128.27913 470
90.93939 -1.43731 128.38782 306
89.85667 -1.61966 128.38646 302
87.33276 -2.04858 128.13075 352
87.11091 -2.08773 128.38808 294
91.47936 -1.27163 128.04294 470
91.48001 -1.27188 128.27351 471
90.98257 -1.35325 128.38539 306
87.16312 -1.97496 127.78651 302
87.13072 -1.98236 128.08441 449
87.13372 -1.98227 128.38213 449
91.49991 -1.19259 128.03493 470
91.50177 -1.19351 128.26649 471
91.02962 -1.26706 128.38654 306
87.20622 -1.86700 127.78690 302
87.04319 -1.89508 128.05800 448
87.04428 -1.89267 128.35960 448
91.52219 -1.11563 128.02780 471
91.52240 -1.11555 128.26091 472
91.07423 -1.18368 128.38773 306
87.24907 -1.75939 127.78848 302
86.95406 -1.80303 128.03087 447
86.95530 -1.80455 128.33324 447
91.54315 -1.03814 128.02075 471
91.54259 -1.03826 128.25581 472
91.12211 -1.09902 128.38672 306
87.29346 -1.65155 127.78588 302
86.86621 -1.71537 128.00325 446
86.86366 -1.71356 128.30847 447
85.50240 -1.91252 128.38528 290
91.56270 -0.95878 128.01505 472
91.56284 -0.95887 128.24921 473
91.16716 -1.01328 128.38606 306
87.33437 -1.54437 127.78874 302
86.77100 -1.62372 127.97538 445
86.77130 -1.62317 128.28323 446
85.54953 -1.79048 128.38742 290
91.58393 -0.88156 128.00926 473
91.58612 -0.88164 128.24202 474
91.21394 -0.92936 128.38593 306
87.38136 -1.43402 127.78609 302
86.67715 -1.52997 127.94632 444
86.67973 -1.52954 128.25850 445
85.59474 -1.67057 128.38577 290
91.60688 -0.80237 128.00037 473
91.60606 -0.80294 128.23479 474
91.26186 -0.84530 128.38623 306
87.42706 -1.32929 127.78893 302
86.58475 -1.43278 127.91940 443
86.58339 -1.43213 128.23343 444
85.63976 -1.55086 128.38612 290
91.62639 -0.72358 127.99333 474
91.62652 -0.72187 128.22905 475
91.31278 -0.76001 128.38615 306
87.47324 -1.22042 127.78900 302
86.48721 -1.33850 127.89057 442
86.48937 -1.33773 128.20697 443
85.68838 -1.43245 128.38509 290
91.64771 -0.64473 127.98753 474
91.64845 -0.64342 128.22151 475
91.36020 -0.67574 128.38715 306
87.51953 -1.11222 127.78870 302
86.38972 -1.24107 127.86229 441
86.39079 -1.24050 128.18135 442
85.73362 -1.31560 128.38588 290
91.67015 -0.56408 127.98011 475
91.66915 -0.56435 128.21420 476
91.41023 -0.59124 128.38759 306
87.56643 -1.00296 127.78677 302
86.29983 -1.13830 127.83549 492
86.30125 -1.13858 128.15356 493
85.78484 -1.19491 128.38683 290
91.69077 -0.48405 127.97219 475
91.69102 -0.48340 128.20828 476
91.46069 -0.50729 128.38734 306
87.61359 -0.89506 127.78796 302
86.27292 -1.03214 127.81866 492
86.27224 -1.02876 128.14157 492
85.83281 -1.07520 128.38667 290
91.71300 -0.40320 127.96354 476
91.71269 -0.40372 128.20003 477
91.51100 -0.42266 128.38625 306
87.66196 -0.78798 127.78812 302
86.24117 -0.92087 127.80529 491
86.24427 -0.92260 128.12770 492
85.88177 -0.95664 128.38763 290
91.73381 -0.32396 127.95674 476
91.73333 -0.32371 128.19238 477
91.56158 -0.33966 128.38535 306
87.71288 -0.67756 127.78873 302
86.21443 -0.81152 127.78883 491
86.21449 -0.81386 128.11264 492
85.93410 -0.83509 128.38707 290
91.75507 -0.24339 127.94804 477
91.75540 -0.24427 128.18648 478
91.61225 -0.25484 128.38548 306
90.52613 -0.34497 128.38583 302
86.26200 -0.69640 127.78646 298
86.18355 -0.70205 128.09622 491
85.98672 -0.71934 128.38823 290
91.77697 -0.16242 127.94001 477
91.77641 -0.16181 128.17766 478
91.66415 -0.17065 128.38687 306
90.57726 -0.25269 128.38660 302
86.31129 -0.57876 127.78683 298
86.15340 -0.59126 128.08138 491
86.03516 -0.59829 128.38470 290
91.79960 -0.08009 127.93236 478
91.80048 -0.07978 128.16969 479
91.71796 -0.08637 128.38782 306
90.63126 -0.16256 128.38574 302
86.36501 -0.46041 127.78842 298
86.12173 -0.47615 128.06778 491
86.08778 -0.47903 128.38747 290
91.81976 0.00200 127.92454 486
91.82140 0.00179 128.16154 487
91.76962 -0.00286 128.38620 306
90.68337 -0.07188 128.38594 302
86.41615 -0.34269 127.78868 298
86.09413 -0.36602 128.05374 491
86.09346 -0.36513 128.37979 491
91.80056 0.07905 127.90450 486
91.80027 0.08012 128.14276 487
91.80057 0.08055 128.38127 488
90.73813 0.01907 128.38588 302
86.46965 -0.22479 127.78831 298
86.06213 -0.25163 128.03592 490
86.06262 -0.24964 128.36577 491
91.77759 0.16097 127.88506 486
91.77785 0.16056 128.12459 487
91.77715 0.16101 128.36372 488
90.79364 0.10965 128.38686 302
86.52325 -0.10863 127.78775 298
86.03332 -0.13463 128.02055 490
86.03194 -0.13405 128.34901 491
91.75542 0.24073 127.86325 485
91.75521 0.24164 128.10446 486
91.75613 0.24160 128.34412 487
90.84853 0.19935 128.38693 302
86.57772 0.00787 127.78863 298
86.00112 -0.01964 128.00705 490
85.99953 -0.01905 128.33441 490
91.73476 0.32360 127.84483 485
91.73518 0.32333 128.08768 486
91.73528 0.32377 128.32593 487
90.90424 0.29138 128.38564 302
86.63251 0.12261 127.78584 298
86.02309 0.10132 127.99837 484
86.02435 0.10199 128.32967 485
91.71133 0.40577 127.82246 485
91.71185 0.40671 128.06625 486
91.71237 0.40546 128.30960 487
90.95835 0.38079 128.38725 302
86.68759 0.24262 127.78846 298
86.05415 0.22204 127.99630 485
86.05470 0.22172 128.32756 486
91.69009 0.48915 127.80226 484
91.69061 0.48995 128.04881 485
91.68909 0.48989 128.28969 486
91.01595 0.47217 128.38603 302
86.74429 0.35770 127.78642 298
86.08676 0.33820 127.99195 485
86.08567 0.34152 128.32349 486
91.66692 0.57568 127.78205 484
91.66737 0.57472 128.02750 485
91.66698 0.57370 128.27200 486
91.07178 0.56227 128.38669 302
86.79840 0.47367 127.78930 298
86.11852 0.46220 127.98409 486
86.12045 0.45886 128.31776 486
91.64306 0.66039 127.76061 484
91.64499 0.65910 128.00832 485
91.64489 0.65997 128.25456 486
91.12907 0.65339 128.38625 302
86.85970 0.59064 127.78604 298
86.15263 0.58043 127.98184 486
86.15286 0.57987 128.31113 487
91.62100 0.74614 127.73913 483
91.61994 0.74551 127.98760 484
91.62086 0.74735 128.23502 485
91.18937 0.74191 128.38551 302
86.91720 0.70817 127.78867 298
86.18269 0.69974 127.97572 487
86.18215 0.70004 128.30698 487
91.59797 0.83243 127.71770 483
91.59742 0.83309 127.96703 484
91.59796 0.83298 128.21463 485
91.24823 0.83305 128.38722 302
86.97678 0.82310 127.78586 298
86.21457 0.82248 127.97020 487
86.21610 0.81971 128.30513 488
