# .PCD v.7 - Point Cloud Data file format
VERSION .7
FIELDS x y z rgb
SIZE 4 4 4 4
TYPE F F F U
COUNT 1 1 1 1
WIDTH 1053
HEIGHT 1
VIEWPOINT 5918.761719 -4009.010010 134.020462 -0.167863 -0.138791 -0.006061 0.975973
POINTS 1053
DATA ascii
-195.00293 1.06625 53.23985 325
-195.04520 2.94005 53.29488 325
-195.00479 4.68101 53.27208 325
-194.98503 6.48763 53.27084 325
-195.02299 8.29125 53.31406 325
-195.04607 10.07112 53.26638 325
-195.04968 11.91903 53.28804 325
-11196.23047 742.83368 1419.56433 1000
-268.94604 57.60623 32.38152 319
-283.34967 59.72620 35.25817 316
-262.58234 58.87618 34.03907 320
-277.13834 61.14182 36.73469 322
-293.26874 63.66391 39.44522 312
-258.61224 60.44350 35.05696 350
-273.27670 62.90783 37.61102 346
-289.12158 65.51183 40.30146 341
-256.73508 62.42050 35.46513 350
-271.24289 64.89521 38.08465 347
-287.28305 67.60448 40.68025 341
-254.84282 64.24832 35.90461 351
-269.22986 66.86573 38.49909 345
-287.71356 70.18406 40.55997 319
-253.01704 66.12801 36.32871 351
-268.29904 68.97607 38.68485 322
-251.15675 68.05942 36.74032 352
-270.14813 71.63937 38.03066 319
-252.26935 70.45993 36.37284 322
-272.39362 74.45141 37.42335 319
-254.26129 73.09765 35.70789 322
-256.27856 75.74403 34.95835 321
-20216.75000 8982.91602 -2078.15747 1000
-1240.99377 642.33643 9.20527 423
-1247.54517 645.39380 33.05262 359
-1233.78784 649.18585 9.36211 496
-1237.04199 650.53638 33.44699 495
-1240.42615 652.07800 57.54345 477
-1245.45825 654.59167 81.63418 353
-2524.93042 1277.88293 81.44263 486
-1231.39758 657.84741 9.39218 473
-1233.84424 658.82336 33.46725 473
-1235.92700 660.13025 57.47639 474
-1238.36792 661.20319 82.12037 473
-1866.42725 972.22833 94.16373 425
-1235.88672 670.27148 8.39118 365
-13125.07031 27158.56055 615.67914 1000
-12953.96777 27232.69141 -372.52191 1000
-12215.00195 27865.29492 -5937.22510 1000
-18055.84375 42474.38672 8521.42871 1000
-5375.48340 14503.19043 -126.31472 459
-5304.68701 14587.55176 -379.96732 458
-5273.11572 14493.24414 -127.09551 464
-5262.37842 14470.72559 128.73453 458
-5206.41699 14587.51660 -380.07910 451
-5169.19141 14484.06738 -124.94820 469
-5161.30176 14468.15723 126.26939 458
-5103.86133 14584.89844 -380.46460 448
-5067.70752 14484.94238 -124.88026 469
-5061.34473 14471.47070 127.69664 327
-4999.49463 14582.44727 -379.09244 449
-4964.03809 14484.48047 -121.40807 470
-4866.14258 14479.61523 -122.46693 470
-4796.87939 14575.19434 -375.21469 450
-4765.37939 14475.25684 -120.07915 471
-4695.80908 14571.36035 -372.82806 450
-4663.48584 14475.89648 -120.16717 471
-4596.94971 14567.82910 -373.34436 451
-4567.52441 14471.99023 -120.79478 472
-5136.70508 16239.67676 129.52330 453
-4496.42090 14564.44531 -372.03015 451
-4467.52002 14471.95703 -119.93525 472
-4395.18506 14559.77148 -371.80426 451
-4368.13428 14468.24023 -117.19872 473
-4298.46582 14556.78027 -369.96417 452
-4271.87695 14467.01074 -118.20538 473
-4200.66309 14552.04883 -368.49182 452
-4172.84424 14465.79199 -117.56008 473
-4102.52783 14551.34473 -365.34283 453
-4077.88550 14460.90137 -118.12811 474
-4004.04834 14546.63379 -366.10910 471
-3982.23340 14461.98828 -118.85941 474
-3906.79419 14544.08105 -366.65106 472
-3881.95190 14460.32031 -116.75249 475
-3810.99609 14542.76172 -365.88287 472
-3785.73413 14457.72559 -113.92029 475
-3712.75854 14542.65234 -361.85614 473
-3690.78467 14456.60059 -114.51490 475
-3616.48682 14538.67090 -361.11215 473
-3597.98828 14452.92480 -115.21217 476
-3521.43408 14536.04785 -362.20163 473
-3500.50024 14448.85840 -115.14732 476
-3428.40747 14533.41309 -359.36041 474
-3407.55151 14449.66113 -113.09816 477
-3329.97095 14532.56738 -358.96918 474
-3311.01465 14448.42188 -113.60698 477
-3237.63281 14528.43262 -358.14450 475
-3216.90112 14443.02637 -114.78033 477
-3143.30591 14527.46777 -356.17529 475
-3123.69165 14440.91504 -110.95704 478
-11171.62012 50573.32031 5226.00879 1000
-3050.84253 14526.12695 -355.71988 475
-3028.07666 14440.02734 -111.16141 478
-2953.08130 14522.83789 -356.04291 476
-2938.44360 14439.96094 -112.79494 478
-2859.67627 14520.20801 -357.02179 476
-2844.27710 14437.75781 -111.95351 479
-2765.69556 14518.82715 -353.02173 476
-2751.83984 14433.19238 -109.31313 479
-2675.41113 14515.47559 -352.24554 476
-2658.60864 14433.17285 -110.44381 479
-2583.03369 14516.85449 -352.28159 478
-2565.61084 14430.49023 -110.75026 487
-2489.40601 14514.88379 -352.19083 478
-2473.00903 14430.24512 -108.46752 488
-2398.28809 14509.34766 -350.19110 479
-2382.39526 14428.87695 -109.15467 488
-2305.12524 14511.22949 -352.26605 479
-2292.74805 14426.37207 -110.09863 488
-2214.66016 14507.07422 -351.16183 479
-2198.81494 14423.97070 -107.78759 488
-2122.77881 14506.92969 -348.07980 480
-2110.14111 14424.74121 -107.58694 489
-2030.82568 14503.35254 -351.48846 480
-2019.61414 14420.81250 -108.26720 489
-1940.59045 14501.94043 -347.61569 480
-1927.81470 14422.87793 -109.49418 489
-2030.48572 15150.97363 128.54482 486
-2031.31665 15158.36523 378.80682 486
-1847.04504 14499.36914 -348.50735 480
-1837.52002 14421.42676 -105.72472 489
-1930.45105 15129.71191 130.66299 487
-1934.75830 15138.23242 381.09982 487
-1757.98376 14495.80762 -349.00662 480
-1746.64771 14416.25098 -105.29004 490
-1836.38953 15111.24609 131.37709 487
-1835.66467 15120.38086 379.71362 487
-1665.87671 14497.64746 -347.73856 481
-1656.62732 14414.75977 -108.32855 490
-1659.19263 14448.28418 130.03946 430
-1739.16174 15102.13867 381.39294 488
-1577.04602 14493.82129 -345.39972 481
-1564.59680 14414.90430 -106.21415 490
-1568.83374 14443.54395 128.82008 430
-1645.59961 15086.68262 380.37988 488
-1486.33325 14492.18555 -344.82144 481
-1475.84595 14415.75488 -107.48607 490
-1479.30518 14444.19238 129.68039 430
-1547.98145 15068.15820 376.62692 488
-1392.43445 14490.35156 -346.70236 481
-1385.14807 14411.30176 -107.59637 490
-1387.59290 14439.85547 129.84804 430
-1451.04126 15050.36621 378.18991 489
-1305.20923 14487.29199 -347.22394 481
-1296.15320 14413.37207 -105.61015 491
-1297.78198 14440.67969 132.58887 430
-1358.46350 15033.48828 376.74994 489
-1213.92480 14486.16016 -346.12982 482
-1206.13696 14408.77734 -106.95684 491
-1211.30859 14437.94727 128.93716 430
-1261.27332 15011.92480 376.66238 490
-1123.80725 14485.17188 -346.97986 482
-1118.20081 14408.21387 -106.53786 491
-1118.88757 14437.33496 130.02988 430
-1166.43860 14998.69629 375.60458 490
-1035.20068 14481.21582 -344.73431 482
-1028.47510 14409.00098 -105.84986 491
-1028.15222 14431.47559 129.67375 431
-1072.53088 14990.52441 378.76825 498
-942.49628 14479.65918 -345.61877 482
-940.05182 14407.51758 -105.00771 491
-939.57800 14429.47461 131.47794 431
-981.00348 14990.46875 376.28644 498
-853.01489 14477.65430 -342.79831 482
-851.22906 14403.37891 -106.67567 491
-851.68066 14429.05566 130.59599 437
-888.30524 14988.55664 376.84210 498
-764.48370 14477.20215 -342.23428 482
-762.37012 14401.28320 -103.32454 491
-761.29944 14428.78027 129.69356 437
-795.57831 14986.64648 376.95682 498
-677.76495 14475.85156 -344.06555 482
-673.65210 14402.57520 -103.24153 492
-675.57574 14429.80469 132.49463 386
-703.65112 14980.50684 378.12766 498
-584.28656 14472.93164 -343.14133 482
-584.33636 14398.78418 -106.57231 492
-585.84760 14430.11133 130.49637 386
-608.95477 14980.73242 376.57410 499
-499.64105 14472.46875 -343.14536 483
-496.37280 14400.84082 -104.17357 492
-494.10339 14431.92090 131.58008 386
-518.74902 14977.67676 377.24402 499
-407.01355 14470.60059 -344.55453 483
-407.39322 14399.05664 -103.07536 492
-406.30191 14430.67969 132.99820 386
-423.41367 14975.78613 376.18936 499
-317.56424 14468.31738 -343.86868 483
-317.35428 14396.14941 -102.35938 492
-317.17096 14430.61523 131.74744 386
-330.34018 14894.39453 375.53854 370
-231.33925 14465.90723 -341.58435 483
-228.91513 14397.20508 -103.17091 492
-229.30495 14432.61230 130.46622 386
-241.57532 14893.30273 377.11340 360
-141.36948 14463.77832 -343.17194 483
-141.08919 14392.51562 -104.99979 492
-143.27394 14698.02734 129.99632 499
-145.27470 14889.06152 376.92850 360
-150.28471 15019.12207 624.39526 499
-52.45591 14463.25879 -340.70364 483
-51.35263 14392.89648 -104.09506 492
-53.64326 14697.33887 131.20618 499
-55.21631 14890.03418 375.65582 328
-57.19547 15018.31445 621.06470 499
-56.95471 15199.25781 878.94220 472
36.09049 14462.39746 -342.71948 483
37.91336 14391.64941 -105.85266 492
35.03285 14694.12402 133.52252 499
36.08587 14891.47266 376.26166 328
35.45506 15018.59668 621.87207 499
33.63540 15158.21289 875.67029 473
127.65163 14459.36426 -341.55869 483
125.76038 14392.14160 -102.46609 492
126.65071 14693.95898 133.08757 499
127.63280 14963.30176 375.35910 499
125.86571 15014.43262 622.18140 499
129.91391 15261.35547 881.73090 320
217.06223 14457.36035 -343.30475 483
215.12195 14390.20703 -103.79707 492
217.98701 14688.61328 129.55699 499
217.67867 14945.19141 375.95065 456
221.43517 14953.03809 619.90442 455
303.79486 14457.04980 -342.20544 483
302.77353 14388.52051 -103.03378 492
308.65518 14689.97949 133.38179 499
308.30927 14879.24121 373.31750 456
311.49966 14892.60645 620.47205 456
312.60846 15002.44434 867.73621 363
393.27216 14456.22070 -341.35153 483
390.28748 14385.99316 -103.24769 495
396.43344 14687.59375 132.25075 499
400.11148 14816.71777 373.17163 457
401.18271 14829.74414 617.87457 457
403.71335 14933.17578 863.87372 363
482.86368 14454.41211 -343.00479 483
480.00137 14386.46973 -104.19104 495
488.01569 14683.88379 131.19618 499
490.22644 14755.90234 373.15500 458
491.19662 14765.05371 615.72534 458
492.12488 14863.08203 860.45465 364
573.34705 14449.40820 -341.96637 483
569.81244 14382.25781 -104.60484 495
577.56342 14681.43848 132.67117 499
581.87909 14738.27539 373.90768 499
578.89868 14746.38477 613.36896 499
581.42255 14826.39062 858.97034 390
588.08557 14959.65527 1114.59351 451
587.56580 14969.70508 1359.49487 451
589.24518 14984.53027 1607.63635 450
589.04901 14995.15918 1859.13232 450
659.11652 14448.86035 -342.06546 483
656.72186 14380.67676 -103.93954 495
668.96594 14681.41602 133.29279 499
670.51526 14705.33789 370.94791 499
668.86743 14741.95801 614.04724 280
675.42377 14826.76270 859.63617 390
685.27704 15105.25293 1124.04138 485
750.82880 14445.64551 -342.78232 483
747.65942 14381.28906 -104.29941 495
760.26331 14676.10938 131.73990 499
760.04675 14704.67480 371.06396 499
761.65546 14709.78223 613.79718 499
766.50677 14826.76367 861.78918 390
778.72278 15105.45703 1123.92236 485
838.50787 14447.67969 -341.02594 483
835.91980 14380.77344 -102.74194 495
848.01233 14675.02051 130.57727 499
851.48718 14700.51270 371.47650 499
852.27161 14707.81250 613.49481 499
857.94794 14826.34082 861.11700 389
870.96887 15103.58105 1120.98938 485
927.42975 14446.02832 -342.24658 483
921.71765 14380.03320 -103.40512 495
939.99744 14673.39453 131.75830 499
943.23718 14697.96875 371.82892 499
943.52423 14705.67871 612.58154 499
947.43762 14822.31445 862.74066 390
960.55029 15046.61133 1120.10596 473
1015.02283 14443.21387 -340.59033 483
1012.99408 14378.27832 -102.70854 495
1031.07422 14671.02832 130.99324 499
1031.23486 14697.47656 372.80246 499
1030.85339 14706.36621 616.12268 499
1039.58875 14822.18164 859.57263 389
1059.55090 15096.94824 1125.47339 485
1104.45569 14440.04688 -340.24136 483
1100.54663 14378.17773 -103.01083 495
1120.33826 14666.44141 131.94116 499
1121.39795 14696.29297 374.75806 499
1125.38342 14701.67188 614.49493 499
1131.34314 14822.87891 860.86621 389
1152.11841 15098.07715 1125.09021 485
1195.35852 14439.82910 -341.09906 483
1190.39819 14374.15039 -104.52412 495
1212.49988 14665.67285 130.01488 499
1212.38562 14691.54395 374.39694 499
1212.69849 14699.48730 612.59375 499
1223.70923 14822.37305 861.36932 389
1245.65503 15095.71191 1124.97034 485
1283.04041 14435.82812 -341.25107 482
1279.20752 14375.33203 -103.00210 495
1302.65515 14664.97168 131.74078 499
1306.66455 14690.20312 371.78098 499
1304.09851 14698.63867 615.70776 499
1315.00598 14821.35840 861.29535 389
1373.80029 14434.69141 -344.53098 482
1368.49438 14374.90527 -103.89129 495
1394.47205 14660.94336 133.88353 499
1396.65906 14691.24414 371.63721 499
1394.53174 14697.26758 614.24518 498
1406.72461 14823.14453 861.73865 389
1462.27881 14435.54395 -341.70343 482
1455.57581 14373.33398 -106.32748 494
1485.81030 14658.61426 133.31680 499
1486.48645 14716.92676 372.84573 499
1488.27856 14722.58301 616.74310 498
1497.77893 14820.10742 864.19263 389
1553.78040 14431.81152 -343.39276 482
1544.92432 14369.58105 -102.38426 494
1573.04541 14654.70215 131.45370 499
1579.24756 14713.72070 375.66055 498
1581.17261 14721.85352 616.40735 498
1591.05505 14820.38965 862.24451 389
1640.59607 14432.01953 -342.10544 482
1633.39758 14367.24219 -105.92982 494
1663.29309 14656.30762 133.17085 499
1656.55908 14577.64551 373.50061 421
1650.18579 14533.55273 612.25641 388
1683.90637 14821.52441 865.83069 389
1729.55103 14429.53516 -341.85376 482
1722.73083 14367.59277 -103.41312 494
1757.63049 14652.15625 130.57925 498
1763.49158 14708.50293 372.35599 498
1762.45422 14718.23047 618.98053 498
1774.95386 14822.89258 866.00043 380
1820.18811 14425.70801 -342.77908 482
1814.55127 14366.78613 -102.68792 494
1849.91003 14649.47461 134.15080 498
1852.75378 14706.94238 374.01660 498
1857.09827 14716.65137 615.30066 498
1868.20947 14821.01172 864.83984 380
1910.35974 14424.53027 -342.61737 482
1903.14148 14366.63574 -105.14072 494
1939.41492 14650.07422 131.37988 498
1943.95471 14706.50391 373.40982 498
1946.07922 14713.93848 618.45984 498
1961.09570 14819.08691 867.64575 380
2000.36438 14423.18848 -343.38791 481
1994.13159 14367.05176 -104.65314 494
2029.85156 14645.54395 132.47092 498
2040.87891 14733.53809 373.50778 445
2043.97290 14741.89355 619.68616 445
2060.78540 14889.41602 868.35907 351
2089.40308 14421.69727 -346.05817 481
2083.14746 14365.76367 -104.80878 493
2123.18335 14642.37988 131.43062 498
2140.15942 14795.20020 378.46985 444
2142.62231 14801.03125 620.41583 444
2164.40405 14968.61816 874.77423 351
2182.41455 14421.22754 -343.87668 481
2171.05273 14361.30176 -105.29752 493
2234.62476 14782.77637 130.28786 468
2243.03857 14846.34082 379.35654 467
2245.39258 14863.17285 623.54010 443
2270.91870 14417.40918 -346.16116 481
2263.88867 14360.24023 -106.91075 493
2330.90405 14814.56348 133.33632 467
2342.31641 14876.93457 380.14111 467
2347.69556 14921.17969 627.07227 442
2362.48877 14416.63770 -347.48178 481
2353.62280 14362.19824 -107.12109 493
2428.41919 14847.99121 133.45157 467
2437.99146 14909.06836 379.79172 466
2452.29272 14416.03125 -346.58093 481
2445.28809 14357.66699 -107.31835 493
2528.95776 14880.84082 130.97829 466
2541.38574 14942.09668 380.20041 465
2542.72754 14412.91211 -347.96231 480
2531.99023 14358.47266 -105.51647 492
2629.21484 14912.28125 133.52032 465
2634.64600 14413.02637 -346.84561 480
2624.92993 14356.67480 -104.90255 492
2727.04736 14941.38965 134.39514 442
2725.06250 14410.38086 -346.87213 480
2716.16040 14357.00293 -106.30028 492
2817.80737 14410.81055 -349.50381 480
2806.69434 14351.97461 -104.64539 492
2909.84082 14407.97656 -349.57391 479
2896.85181 14353.96582 -107.22713 494
2999.80469 14405.16895 -350.51257 479
2990.70728 14350.38379 -105.51817 493
3092.51416 14405.84375 -349.69452 479
3083.14331 14349.82031 -106.00538 493
3183.64404 14402.09082 -349.32068 479
3175.25488 14349.29199 -107.72307 493
3278.40942 14402.26367 -348.75848 478
3267.55103 14347.67188 -109.67446 493
3370.31738 14400.40918 -351.87677 478
3357.79468 14348.94629 -107.40512 492
3464.30225 14398.19336 -351.13556 485
3449.32544 14347.70312 -110.15534 492
3556.44482 14398.75195 -352.55563 485
3545.43604 14347.63379 -107.50945 492
3648.78906 14393.46289 -354.17133 485
3635.44385 14345.88770 -110.07177 491
3744.31177 14392.87500 -353.33218 484
3729.43628 14342.51758 -107.63676 491
3836.24561 14392.77539 -355.21814 484
3826.68945 14341.03711 -110.61671 490
3933.83960 14393.52344 -357.27155 484
3917.70312 14342.37305 -109.73806 490
11740.94336 43639.23047 1611.59729 1000
4027.40674 14392.40039 -354.04318 483
4012.14526 14339.06641 -109.89446 490
4123.16504 14392.26270 -356.93018 483
4105.76855 14339.39062 -111.31351 489
4217.46924 14386.60742 -358.34897 483
4203.93164 14337.98730 -112.37265 489
4311.02930 14388.26074 -359.52573 482
4298.25488 14338.36621 -112.38209 489
4408.38379 14387.70215 -361.24243 482
4394.83496 14338.51953 -114.18208 488
4506.00879 14385.64355 -361.95227 481
4489.73535 14334.40234 -110.71363 488
4601.09863 14384.76758 -359.75143 481
4585.49316 14333.96875 -112.44611 487
4699.64209 14384.22754 -360.85269 480
4681.81445 14331.90332 -114.15837 487
4795.65820 14381.52051 -364.74188 480
4780.76074 14331.57227 -114.70918 486
4892.66943 14378.78027 -362.20966 480
4879.18652 14331.29590 -116.68710 486
4991.14551 14377.90430 -363.79678 479
4975.61426 14331.07227 -113.89757 485
5091.75977 14378.59375 -367.68729 479
5074.44385 14327.62891 -115.92638 485
5189.30713 14374.32715 -368.60471 478
5170.23389 14327.97949 -118.16730 484
5287.68164 14376.47949 -369.33844 478
5269.59766 14327.76562 -115.67643 484
5389.68945 14375.78516 -369.70374 477
5370.53906 14327.19531 -117.38244 483
5489.45166 14374.45605 -371.50235 477
5469.57520 14326.19629 -117.85520 483
5589.86230 14370.75977 -368.94449 476
5571.99316 14322.42285 -118.62339 482
5694.21289 14371.68457 -370.84390 454
5671.13086 14322.37988 -117.61214 482
5800.16211 14385.02344 -375.50845 453
5772.37207 14324.56738 -119.59365 478
5909.07715 14402.96875 -374.12222 454
5877.90967 14327.79980 -121.51674 477
6017.52832 14413.78320 -379.06763 453
5982.62012 14329.22852 -122.26241 477
6128.29053 14426.90234 -379.62369 452
6089.32324 14339.16016 -120.63398 458
6236.00928 14443.43164 -381.12909 451
6196.62207 14351.64258 -123.77660 457
6348.44238 14458.41504 -381.37537 451
6309.29053 14365.60938 -121.51093 456
6461.62402 14471.80176 -386.45932 450
6421.54785 14377.30664 -124.71592 456
6583.66113 14504.52734 -386.34186 405
6533.37549 14394.89746 -125.52663 454
6709.34521 14549.65332 -391.83301 404
6651.72705 14417.70312 -124.75380 453
6838.94043 14593.97363 -393.41190 382
6768.33154 14441.37988 -127.75777 453
6976.97021 14658.96387 -395.62476 381
6886.50293 14458.82910 -129.63681 452
7120.13916 14724.16113 -399.46503 354
7010.58691 14490.08691 -131.45511 395
7277.16602 14815.20508 -404.34207 353
7142.67627 14539.67871 -131.99748 394
7275.45898 14586.69238 -132.17993 393
7419.14209 14645.41797 -136.45609 388
7576.94482 14730.03809 -137.33128 353
7740.44531 14829.96582 -140.94894 352
7968.32617 15039.43750 -145.94736 287
1508.20129 1522.15479 -71.90632 350
1511.36865 1507.27612 -71.03133 492
1516.68079 1512.79675 -37.50723 492
1522.23230 1518.48523 -3.77116 495
1522.71008 1500.08582 -71.49174 475
1530.89661 1508.92871 -37.82934 371
21964.18945 22222.42969 2702.27979 1000
56884.78125 31757.46289 -10574.05469 1000
12901.11914 6759.14551 -808.87738 1000
46551.44531 22346.14453 -10092.44043 1000
3141.28369 685.74377 -19.06409 377
3130.72461 663.51978 -18.82980 464
3182.58813 655.09015 -73.09756 312
3124.20825 643.02118 -17.86547 465
3165.05371 631.88281 -71.83179 413
3118.03809 621.82202 -17.91861 465
3147.89771 608.89172 -70.16937 475
3113.19141 601.54431 -16.93177 483
3145.20142 588.27441 -69.52795 476
3110.39233 581.60229 -16.98034 486
3141.03613 568.68024 -68.89081 477
3108.77148 562.20239 -16.87941 486
3106.89722 542.43762 -16.16616 493
3136.11841 528.78052 -68.77267 489
3107.41089 523.63721 -16.26508 493
3136.12598 509.68201 -68.64996 486
3106.92529 504.75195 -16.12896 493
3136.80688 490.40082 -68.03864 487
3107.32031 485.04880 -15.92519 493
3136.74487 470.79205 -68.11617 488
3108.26147 466.05392 -16.34613 466
3109.98120 448.16245 -16.28608 466
3111.99609 429.07236 -16.10072 466
3270.09863 451.32910 29.29398 274
3113.81714 409.93500 -15.79816 466
3186.25659 420.52237 31.51553 498
3115.65625 391.36575 -15.89240 466
3190.95850 401.66858 31.82433 498
3118.81421 372.73715 -16.11963 466
3234.08594 386.98071 30.60973 486
3121.17065 354.55234 -16.12969 466
3124.11523 335.35965 -15.52435 465
3128.12671 317.32248 -15.54662 465
3132.04980 298.82040 -16.31924 464
3135.47900 280.37488 -16.37364 464
3217.07080 287.46228 31.30643 497
3261.70947 291.38876 134.35039 449
3139.91821 261.60275 -15.98968 463
3221.72510 268.46664 31.03302 497
3260.95703 272.10339 134.35242 477
3143.78491 243.29083 -16.31004 463
3276.08154 253.11043 82.32516 342
3147.97852 224.23186 -16.23689 463
3152.32642 205.44806 -16.83051 463
3156.90674 187.17592 -16.59092 463
3302.07129 195.70705 28.87432 432
3160.88477 168.65840 -16.81407 462
3210.61743 171.57248 31.74281 495
3164.98389 149.74796 -17.07634 462
3215.67212 152.01201 31.86415 495
3169.12158 131.21452 -17.42839 462
3173.35669 111.68914 -17.65344 462
3176.90942 93.26441 -17.70918 462
3358.78003 98.65298 134.02924 486
3181.94653 74.66361 -17.69013 491
3250.85938 75.46803 30.94695 494
3276.48901 76.91585 133.98071 486
3185.95288 55.61921 -18.32085 491
3190.83252 36.40212 -18.52757 490
3195.32886 17.51218 -18.29322 490
3199.15088 -2.06823 -18.90311 490
3204.32104 -20.92001 -18.95172 489
3208.20630 -40.53254 -19.04934 489
3212.85522 -60.05753 -19.81872 489
3217.56689 -78.65356 -19.57548 488
3221.57446 -98.14751 -19.97846 488
24637.30078 -4606.03662 -3559.82129 1000
2539.32080 -1108.55786 1.18325 455
2543.73950 -1110.34204 44.86288 455
2550.49536 -1113.42834 88.68923 333
2530.37695 -1122.15649 1.36205 484
2535.88208 -1125.08362 44.88668 446
56205.43359 -40264.19531 -6652.68311 1000
35642.67969 -28979.85352 -7430.29932 1000
4480.20996 -3665.40869 133.20090 445
4440.41797 -3677.64917 132.61903 446
4402.15625 -3690.59375 132.67232 447
4363.92725 -3704.28467 132.57663 447
4324.34766 -3716.45898 133.69476 446
4285.81787 -3727.56567 132.40749 390
4285.92725 -3775.03955 132.82622 407
4302.81885 -3837.07422 132.35289 365
4328.85303 -3908.32104 132.58691 364
4353.87451 -3981.39673 132.91431 363
4380.38330 -4055.48901 133.34335 362
4407.37061 -4130.96143 132.89191 361
2965.51978 -2996.47339 64.46140 346
2940.76147 -3007.85498 65.30845 478
2997.93774 -4150.32812 132.50789 347
3187.18188 -5126.63818 229.88966 316
3143.60498 -5127.46387 229.53380 356
3134.97852 -5185.57373 132.36511 386
3108.06372 -5138.64697 228.58432 342
3087.37891 -5175.67432 131.03029 402
3143.26807 -5271.24414 231.11243 498
3066.79785 -5155.63623 138.04292 419
3024.76929 -5154.60449 137.19743 424
2984.47705 -5157.28076 137.35129 423
2939.96655 -5152.52783 137.67786 484
2940.09106 -5152.69189 234.11392 476
2942.65576 -5158.88818 331.21542 287
2893.68945 -5143.40039 137.52098 305
2900.13013 -5154.38135 233.26016 477
2896.05420 -5147.81738 329.93924 495
2855.72754 -5149.16260 137.95569 307
2861.83081 -5161.95166 234.13712 496
2860.41919 -5158.71680 328.96823 496
2819.34253 -5157.84326 137.48750 308
2827.68213 -5174.45752 233.34261 496
2827.22290 -5171.31152 328.61090 497
2784.86597 -5168.27148 138.09778 309
2791.52490 -5181.11914 233.69357 497
2789.90332 -5179.93018 328.16812 497
2756.35645 -5192.98145 232.40077 497
2755.45361 -5191.74268 329.00665 497
14739.57617 -28943.26172 -7402.22217 1000
2724.56543 -5209.38086 233.10439 497
2723.67041 -5207.27539 328.59833 497
2691.60767 -5220.89795 232.06503 497
2689.60791 -5219.05566 327.94305 497
2655.90845 -5232.44922 232.12915 497
2656.18042 -5229.95312 328.05002 497
2622.86084 -5244.46143 232.86774 498
2621.79590 -5241.90381 327.23865 498
2626.69556 -5251.97314 423.39948 404
2657.89185 -5403.44922 236.00691 278
2668.44775 -5423.82178 333.62012 292
2587.44189 -5337.63965 426.67722 490
2576.81860 -5402.85889 428.71402 414
2388.79175 -5335.99902 231.65332 499
2346.56934 -5327.76025 231.71805 499
2310.27075 -5334.32373 231.88208 306
2275.63916 -5340.84277 231.87201 306
2268.79614 -5420.18311 232.71724 481
2230.41455 -5419.75195 231.88925 480
2197.68677 -5435.52734 231.54338 495
1389.27844 -4352.74854 210.29143 455
907.66827 -3415.81299 134.82973 293
912.66504 -3440.01221 191.90678 288
862.75958 -3319.97876 134.65721 298
911.74280 -3527.91943 193.49600 472
819.84192 -3224.00586 134.66368 296
823.19586 -3241.02148 188.30830 306
786.91821 -3167.04395 134.48512 332
789.18976 -3181.21460 187.90347 350
758.75165 -3131.64185 134.16258 345
766.17914 -3165.34375 187.45811 449
733.00122 -3103.57227 134.12395 355
745.82648 -3165.29126 187.01988 471
708.30786 -3079.33765 134.04117 375
726.97363 -3173.67871 187.32275 471
684.86896 -3059.15869 133.97575 383
707.87579 -3181.81567 187.02112 470
661.48950 -3041.33862 133.84245 384
689.51465 -3190.51709 187.59703 470
639.43628 -3023.08154 133.54999 385
670.76062 -3198.95703 187.10481 470
617.14624 -3006.77686 134.28207 391
652.02747 -3207.17456 186.83005 469
595.92780 -2991.88501 133.54327 297
632.79657 -3215.78345 187.30721 468
573.99030 -2977.23926 134.05675 280
614.63660 -3224.89258 187.73207 469
555.10925 -2974.43408 133.41055 462
594.95667 -3233.27539 187.51668 468
546.43182 -3041.45728 133.54529 291
576.23657 -3241.87183 187.70647 469
545.70667 -3170.05811 134.10611 261
-5694.77295 -55562.37891 -9076.01953 1000
-3830.69629 -31863.17578 7074.44287 1000
-1250.65564 -2514.94946 132.21443 390
-1249.21338 -2512.53442 178.85123 447
-1248.25977 -2510.29663 225.51231 447
-1246.41870 -2508.54492 271.49023 485
-1245.85193 -2505.95312 318.32129 485
-922.80872 -1875.18933 97.15321 484
-921.44891 -1873.09033 131.89793 484
-920.66010 -1871.62964 166.59474 499
-919.90881 -1869.58472 201.84955 499
-918.69135 -1868.05078 236.56616 499
-917.67566 -1866.10754 271.28400 499
-916.71875 -1864.35242 305.99609 499
-591.16565 -1246.71692 61.92780 406
-591.28766 -1247.62036 85.05342 338
-597.51184 -1240.94299 62.01690 442
-596.96118 -1239.47888 85.32993 482
-596.54419 -1238.48352 108.41720 482
-596.02209 -1237.58826 132.04146 499
-595.38690 -1236.60754 154.89722 499
-594.84760 -1235.81799 178.30746 499
-594.52386 -1235.23462 201.53099 491
-594.18481 -1234.66418 224.77719 491
-593.97632 -1233.74780 247.88728 459
-593.85419 -1233.35413 271.36063 459
-603.76733 -1233.84778 248.10995 313
-602.19543 -1230.88611 271.51556 384
-9129.94727 -7931.38184 -1270.29846 1000
-38429.91406 -29939.55664 10662.48926 1000
-38288.86719 -29829.61328 11459.47070 1000
90.11727 -2.99151 127.74027 359
90.11636 -2.99063 127.98862 359
90.11805 -2.99198 128.23529 360
89.69920 -3.12629 128.38625 302
90.22902 -2.88029 127.76032 360
90.22874 -2.87944 128.00838 361
90.22765 -2.87956 128.25410 361
89.73769 -3.03711 128.38574 302
88.53657 -3.42007 128.38771 298
90.33994 -2.76756 127.78105 361
90.34058 -2.76894 128.02673 362
90.33852 -2.76849 128.27299 362
89.77458 -2.94611 128.38557 302
88.57447 -3.32251 128.38574 298
90.44800 -2.65893 127.80190 363
90.44867 -2.65811 128.04643 363
90.44772 -2.66111 128.28838 364
89.81213 -2.85423 128.38666 302
88.60940 -3.22402 128.38696 298
90.55455 -2.55333 127.82080 364
90.55559 -2.55100 128.06343 364
90.55479 -2.55370 128.30487 365
89.85255 -2.76338 128.38768 302
88.64803 -3.12485 128.38808 298
90.66036 -2.44770 127.84092 365
90.66037 -2.44622 128.08302 366
90.66001 -2.44592 128.32256 366
89.89209 -2.67293 128.38789 302
88.68701 -3.02700 128.38789 298
90.76624 -2.34250 127.85787 367
90.76523 -2.34176 128.09805 367
90.76613 -2.34222 128.33658 368
89.93283 -2.58001 128.38676 302
88.72570 -2.92746 128.38812 298
90.86741 -2.23950 127.87596 368
90.86895 -2.24032 128.11380 368
90.86933 -2.24032 128.35141 369
89.97295 -2.49043 128.38657 302
88.76447 -2.82688 128.38748 298
87.34145 -3.22703 128.38800 294
90.97055 -2.13782 127.89142 369
90.96847 -2.13798 128.13008 370
90.96866 -2.13805 128.36708 370
90.01428 -2.39987 128.38699 302
88.80444 -2.72855 128.38757 298
87.37962 -3.11887 128.38701 294
91.06849 -2.03690 127.90875 370
91.07076 -2.03752 128.14532 371
91.06938 -2.03818 128.38145 371
90.05676 -2.30936 128.38629 302
88.84736 -2.63195 128.38651 298
87.42045 -3.01002 128.38818 294
91.16998 -1.93908 127.92483 372
91.16831 -1.93785 128.16008 372
91.13811 -1.94729 128.38663 306
90.09668 -2.21622 128.38765 302
88.88857 -2.53199 128.38672 298
87.45915 -2.90315 128.38808 294
91.26624 -1.84153 127.93933 373
91.26755 -1.84008 128.17572 374
91.18281 -1.86118 128.38680 306
90.14080 -2.12618 128.38734 302
88.92844 -2.43500 128.38571 298
87.50181 -2.79380 128.38570 294
91.35204 -1.74719 127.95216 461
91.35207 -1.74735 128.18556 462
91.22614 -1.77906 128.38705 306
90.18559 -2.03487 128.38567 302
88.97369 -2.33460 128.38795 298
87.54126 -2.68933 128.38689 294
91.37395 -1.66999 127.94499 462
91.37294 -1.66963 128.17854 463
91.27211 -1.69287 128.38658 306
90.22897 -1.94523 128.38757 302
89.01427 -2.23644 128.38654 298
87.58451 -2.57855 128.38785 294
91.39339 -1.59085 127.93860 462
91.39549 -1.59107 128.17285 463
91.31748 -1.60927 128.38741 306
90.27398 -1.85432 128.38525 302
89.05846 -2.13611 128.38773 298
87.62913 -2.47269 128.38496 294
91.41544 -1.51321 127.93213 463
91.41618 -1.51320 128.16736 464
91.36121 -1.52544 128.38603 306
90.31786 -1.76131 128.38678 302
88.12598 -2.26021 128.18579 364
87.67074 -2.36653 128.38527 294
91.43658 -1.43357 127.92566 464
91.43607 -1.43564 128.16046 465
91.40851 -1.44118 128.38675 306
90.36551 -1.67219 128.38640 302
87.93153 -2.21104 128.13872 363
87.71602 -2.25612 128.38528 294
91.45689 -1.35649 127.91940 464
91.45673 -1.35541 128.15465 465
91.45574 -1.35537 128.38568 306
90.41016 -1.58111 128.38585 302
87.73116 -2.15729 128.08885 361
87.73273 -2.15424 128.38133 362
86.04373 -2.51872 128.38663 290
91.47795 -1.27800 127.91444 465
91.47782 -1.27664 128.14755 466
91.47935 -1.27774 128.38145 467
90.45770 -1.48930 128.38518 302
87.52528 -2.10069 128.03844 360
87.52503 -2.10206 128.33334 360
86.09119 -2.39936 128.38632 290
91.50049 -1.19719 127.90502 466
91.49845 -1.19869 128.14142 467
91.50047 -1.19961 128.37352 468
90.50601 -1.39780 128.38600 302
87.31319 -2.04169 127.98378 359
87.31403 -2.04248 128.28479 359
86.13397 -2.27999 128.38742 290
91.52098 -1.11891 127.89937 466
91.52071 -1.11954 128.13510 467
91.52099 -1.11889 128.36809 468
90.55360 -1.30958 128.38588 302
87.12804 -1.97696 127.93827 453
87.12729 -1.97940 128.24437 454
86.18061 -2.16452 128.38652 290
91.54240 -1.04017 127.89316 467
91.54075 -1.03967 128.12648 468
91.54136 -1.03980 128.36105 469
90.60237 -1.21751 128.38562 302
87.04037 -1.89042 127.91255 452
87.03983 -1.88982 128.21700 453
86.23023 -2.04497 128.38585 290
91.56416 -0.96029 127.88596 468
91.56380 -0.96013 128.12189 469
91.56261 -0.96194 128.35490 470
90.65175 -1.12815 128.38736 302
-15.64156 -2.85689 -3.16414 451
86.95181 -1.80385 128.19221 452
86.27740 -1.92733 128.38756 290
91.58565 -0.88075 127.87785 468
91.58587 -0.88189 128.11340 469
91.58416 -0.88044 128.34698 470
90.70226 -1.03743 128.38583 302
86.86407 -1.71172 127.85770 450
86.86381 -1.71470 128.16722 451
86.32464 -1.80635 128.38792 290
91.60692 -0.79982 127.87021 469
91.60555 -0.80252 128.10669 470
91.60713 -0.80157 128.34105 471
90.75034 -0.94645 128.38698 302
86.77266 -1.62126 127.82904 449
86.77148 -1.62244 128.14217 450
86.37428 -1.69205 128.38797 290
91.62879 -0.71979 127.86322 470
91.62740 -0.72186 128.09810 471
91.62865 -0.72085 128.33365 471
90.80179 -0.85543 128.38765 302
86.68051 -1.53128 127.80006 449
86.68143 -1.53124 128.11642 449
86.42408 -1.57260 128.38458 290
91.64882 -0.64147 127.85526 470
91.64987 -0.63921 128.09094 471
91.65032 -0.64004 128.32719 472
90.85414 -0.76494 128.38727 302
86.66113 -1.42598 127.78644 298
86.58830 -1.43762 128.08812 448
86.47630 -1.45549 128.38591 290
91.67143 -0.55937 127.84679 471
91.67094 -0.56011 128.08551 472
91.67123 -0.56001 128.32083 473
90.90615 -0.67470 128.38678 302
86.71043 -1.30759 127.78826 298
86.49144 -1.34068 128.06219 447
86.49075 -1.34359 128.37991 448
91.69247 -0.47917 127.83928 471
91.69154 -0.47905 128.07677 472
91.69226 -0.47786 128.31207 473
90.95809 -0.58592 128.38583 302
86.76154 -1.19288 127.78941 298
86.39452 -1.24573 128.03636 447
86.39719 -1.24589 128.35742 447
91.71484 -0.39688 127.83031 472
91.71283 -0.39688 128.06990 473
91.71464 -0.39633 128.30649 474
91.01080 -0.49616 128.38527 302
86.81140 -1.07724 127.78693 298
86.30492 -1.14717 128.01125 494
86.30382 -1.14817 128.33073 494
91.73628 -0.31562 127.82365 473
91.73492 -0.31625 128.06209 473
91.73593 -0.31688 128.29883 474
91.06522 -0.40390 128.38727 302
86.86156 -0.96042 127.78693 298
86.27481 -1.03900 127.99468 493
86.27370 -1.03982 128.31641 494
91.75719 -0.23479 127.81486 473
91.75910 -0.23461 128.05385 474
91.75833 -0.23501 128.29163 475
91.12064 -0.31599 128.38667 302
86.91472 -0.84300 127.78606 298
86.24551 -0.93056 127.98158 493
86.24289 -0.93007 128.30319 494
91.78135 -0.15335 127.80749 474
91.78134 -0.15346 128.04576 475
91.78049 -0.15202 128.28308 476
91.17558 -0.22600 128.38664 302
86.96790 -0.72800 127.78818 298
86.21501 -0.81856 127.96557 493
86.21640 -0.81820 128.28827 494
91.80299 -0.06925 127.79819 474
91.80139 -0.07103 128.03734 475
91.80273 -0.06909 128.27618 476
91.23093 -0.13615 128.38774 302
87.02113 -0.61362 127.78728 298
86.18631 -0.70718 127.95061 493
86.18547 -0.70585 128.27541 493
91.81737 0.01095 127.78696 488
91.81734 0.01233 128.02867 489
91.81646 0.01188 128.26633 490
91.28514 -0.04642 128.38780 302
87.07387 -0.49624 127.78677 298
86.15626 -0.59537 127.93307 493
86.15448 -0.59682 128.25980 493
91.79757 0.08995 127.76796 488
91.79691 0.09019 128.00957 489
91.79597 0.08990 128.24904 490
91.04840 -0.05583 128.38631 302
87.13005 -0.37923 127.78658 298
86.12683 -0.48296 127.91666 492
86.12483 -0.48290 128.24739 493
91.77532 0.16893 127.74634 488
91.77496 0.16800 127.98832 489
91.77501 0.16982 128.23035 490
91.39781 0.13315 128.38539 302
87.18481 -0.26793 127.78575 298
86.09711 -0.37073 127.90070 492
86.09393 -0.37028 128.23264 493
84.92747 -0.47898 128.38658 286
91.75481 0.24908 127.72548 487
91.75488 0.24852 127.97071 488
91.75446 0.24815 128.21086 489
91.45703 0.22309 128.38626 302
87.24239 -0.15186 127.78748 298
86.06482 -0.25247 127.88660 492
86.06461 -0.25388 128.21931 492
84.98898 -0.34765 128.38548 286
91.73359 0.32930 127.70647 487
91.73307 0.33074 127.95087 488
91.73168 0.32974 128.19397 489
91.51480 0.31126 128.38667 302
87.29731 -0.03477 127.78794 298
86.03172 -0.14063 127.87083 492
86.03222 -0.13843 128.20166 492
85.04910 -0.22127 128.38551 286
91.71085 0.41247 127.68431 487
91.71005 0.41120 127.93120 488
91.70960 0.41271 128.17499 489
91.57185 0.40179 128.38739 302
87.35466 0.07826 127.78680 298
86.00453 -0.02385 127.85436 491
86.00202 -0.02380 128.18832 492
85.10744 -0.09089 128.38782 286
91.68872 0.49403 127.66393 487
91.68760 0.49476 127.91088 488
91.68991 0.49328 128.15671 488
91.63333 0.49124 128.38705 302
87.41237 0.19330 127.78783 298
86.02359 0.09856 127.84521 482
86.02326 0.09694 128.18219 483
85.17395 0.03765 128.38443 286
91.66693 0.57769 127.64052 486
91.66567 0.57758 127.89108 487
91.66666 0.57769 128.13652 488
91.66562 0.57658 128.38039 489
87.47068 0.31085 127.78717 298
86.05563 0.22129 127.83929 483
86.05392 0.22037 128.17610 483
85.23544 0.16873 128.38647 286
91.64490 0.66117 127.62048 486
91.64297 0.66288 127.87053 487
91.64380 0.66071 128.11638 488
91.64293 0.66070 128.36176 489
90.53906 0.59975 128.38652 298
86.08920 0.34243 127.83504 483
86.08744 0.34190 128.17107 484
85.29729 0.29383 128.38812 286
91.62147 0.74838 127.59843 486
91.62107 0.74532 127.84947 487
91.62035 0.74620 128.09917 488
91.61971 0.74690 128.34578 488
90.59974 0.69388 128.38736 298
86.12128 0.46412 127.83299 483
86.12080 0.46443 128.16809 484
85.36095 0.42577 128.38806 286
-47026.56250 -2423.39575 9517.66992 1000
91.59780 0.83252 127.57616 485
91.59903 0.83211 127.82986 486
91.59904 0.83197 128.07845 487
91.59869 0.83352 128.32631 488
90.66148 0.78903 128.38762 298
86.15372 0.58485 127.82700 484
86.15266 0.58617 128.16258 485
85.42915 0.55322 128.38805 286
91.57487 0.92092 127.55535 485
91.57437 0.92016 127.80862 486
91.57409 0.91862 128.05960 487
91.57488 0.92072 128.30934 488
90.72327 0.88597 128.38666 298
86.18719 0.71048 127.82182 484
86.18407 0.70798 128.15436 485
85.49192 0.68157 128.38480 286
91.55127 1.00606 127.53187 485
91.54988 1.00753 127.78682 486
91.55265 1.00615 128.03859 487
91.55022 1.00616 128.29094 487
90.78792 0.98300 128.38632 298
86.21834 0.83165 127.81327 485
86.22083 0.83044 128.15031 486
85.56090 0.80829 128.38644 286
91.52663 1.09433 127.50891 484
91.52812 1.09489 127.76634 485
91.52677 1.09645 128.01981 486
91.52832 1.09615 128.27045 487
90.85027 1.07793 128.38774 298
86.25153 0.95475 127.80711 485
86.25345 0.95276 128.14403 486
85.62989 0.93867 128.38794 286
91.50264 1.18383 127.48676 484
91.50357 1.18609 127.74298 485
91.50251 1.18387 128.00031 486
91.50233 1.18392 128.25078 487
90.91607 1.17387 128.38799 298
86.28385 1.07555 127.80197 486
86.28421 1.07567 128.13795 486
85.69591 1.06570 128.38658 286
91.47997 1.27516 127.46453 484
91.47874 1.27511 127.72120 485
91.47889 1.27443 127.97825 486
91.48003 1.27585 128.23201 486
90.98215 1.26829 128.38588 298
86.35284 1.20207 127.80551 421
86.35188 1.20015 128.13815 421
85.76553 1.19378 128.38496 286
91.45438 1.36821 127.44133 483
91.45544 1.36761 127.70162 484
91.45602 1.36683 127.95878 485
91.45330 1.36685 128.21255 486
91.04665 1.36491 128.38737 298
86.47630 1.32661 127.81553 422
86.47482 1.32542 128.14761 422
85.83366 1.31879 128.38538 286
91.43043 1.45984 127.41569 483
91.42977 1.45898 127.67738 484
91.43040 1.46040 127.93760 485
91.42871 1.45935 128.19565 486
91.11371 1.45830 128.38684 298
86.59924 1.45036 127.82336 423
86.59934 1.44916 128.15707 424
85.90697 1.44844 128.38731 286
