# .PCD v.7 - Point Cloud Data file format
VERSION .7
FIELDS x y z rgb
SIZE 4 4 4 4
TYPE F F F U
COUNT 1 1 1 1
WIDTH 1223
HEIGHT 1
VIEWPOINT 6864.903809 -2793.797363 139.716599 -0.596600 -0.113792 -0.093244 0.788940
POINTS 1223
DATA ascii
-196.03337 1.22010 53.31964 324
-196.05032 3.03871 53.30108 324
-196.05373 4.79915 53.29607 324
-196.09663 6.60639 53.29047 324
-196.01703 8.42264 53.30888 324
-196.01659 10.23350 53.30976 324
-195.98434 11.97696 53.30360 324
-283.03625 60.19358 35.74356 317
-262.62003 59.15422 34.49278 325
-277.04645 61.57612 37.19453 323
-293.02655 64.15995 39.96061 313
-259.22232 60.94834 35.26411 350
-273.81863 63.35072 37.92054 346
-289.89371 66.11531 40.53658 341
-257.32330 62.78091 35.69646 350
-271.82486 65.39165 38.33972 347
-287.93744 68.20016 40.95293 341
-255.36087 64.72211 36.13578 351
-269.89236 67.31270 38.71897 345
-289.49075 70.94737 40.54647 318
-253.47275 66.57127 36.53630 351
-269.72482 69.59813 38.67170 321
-16307.46582 3095.33325 957.13300 458
-251.77640 68.47035 36.96257 325
-271.79868 72.30519 37.95824 318
-16365.31641 3212.20361 688.81757 453
-16240.69824 3185.23828 954.19788 458
-253.71031 71.05025 36.28594 322
-275.89172 75.49324 36.85401 260
-16294.63281 3299.53418 685.39630 463
-16170.31445 3277.16455 953.61194 464
-255.67635 73.72894 35.64654 321
-16230.28223 3391.80615 685.82635 463
-16106.97070 3365.90308 952.21057 472
-257.72284 76.37103 34.99181 321
-16162.65332 3480.74976 684.35492 464
-16043.52344 3456.66406 948.99536 473
-16100.06445 3575.31592 680.67932 464
-15982.62207 3544.99536 946.98737 473
-16035.76270 3663.85840 677.70465 465
-15919.98047 3638.83252 943.95197 474
-15974.01465 3750.71411 680.57709 465
-15856.89258 3725.97656 943.58929 474
-15910.45898 3840.94092 675.34827 466
-15796.61621 3813.57007 943.18915 475
-15850.13086 3930.52417 674.86493 466
-15731.16211 3900.35132 940.02216 475
-280.55750 93.38969 222.52356 1000
-15785.23633 4016.65771 676.72357 467
-15672.44629 3992.52783 936.37976 476
-15724.56543 4105.92773 674.13190 468
-15610.21973 4077.15112 936.72089 476
-15660.24902 4195.18213 674.35602 468
-15550.20801 4166.04004 934.01483 477
-15599.35254 4279.05371 671.09589 469
-15487.54492 4251.45508 932.80743 477
-15537.39844 4369.09473 668.34644 469
-15429.85938 4337.02930 930.69678 478
-11771.34668 3314.81860 2587.84058 1000
-15480.11426 4456.80566 667.35962 469
-15368.93066 4424.86572 929.80310 478
-15419.67090 4540.87842 666.28979 470
-15309.31152 4506.35645 924.99237 479
-15358.62598 4627.42285 665.12347 470
-15247.39941 4593.94434 924.03931 479
-15297.58789 4711.97705 664.55316 471
-15188.29102 4677.76562 923.77307 480
-15238.51172 4795.56396 665.34790 471
-15129.76855 4760.03662 923.12671 480
-15175.82129 4881.20312 662.15894 472
-15070.83789 4844.72461 920.23260 481
-15117.56543 4963.05713 663.83276 472
-15014.65039 4931.06006 917.07855 481
-15058.86230 5049.77881 660.41559 473
-14956.33496 5013.27686 919.18390 482
-15000.33008 5130.06494 659.29077 473
-14895.64258 5094.50342 916.55200 482
-14942.38184 5214.56592 658.87231 473
-14837.60352 5179.44531 915.09552 482
-14882.60352 5296.54785 660.09418 474
-14780.82324 5262.35303 913.11798 483
-14825.31348 5380.75195 656.65021 474
-14721.18457 5341.92529 912.49164 483
-14767.23047 5461.22021 655.48804 475
-14666.29785 5424.66504 911.41168 484
-14706.21777 5544.77881 657.64197 475
-14608.09863 5509.19824 911.12799 484
-14648.25195 5627.58936 656.01343 475
-14550.69238 5588.68848 907.01270 484
-14591.94141 5709.94727 653.03046 476
-14490.89746 5670.99463 905.35077 485
-56948.72656 22166.00391 11292.36133 1000
-14535.76953 5788.99365 652.57843 476
-14437.85547 5751.98340 906.51978 485
-14475.25684 5871.26270 652.38452 476
-14378.11426 5830.97803 905.43640 485
-14419.04297 5950.28125 652.97284 477
-14323.46094 5910.60547 902.47345 486
-15006.86426 6191.06055 1206.23877 480
-14361.31250 6029.54932 650.61725 477
-14268.47363 5990.56738 901.98071 486
-14930.49316 6270.70459 1206.11426 480
-14939.85938 6271.41357 1474.75037 404
-14305.31836 6111.37793 650.86884 477
-14209.55859 6071.58789 902.55981 486
-14855.03320 6346.22559 1201.41809 481
-14861.28125 6348.34375 1471.92517 405
-14247.94727 6193.77832 651.03131 478
-14155.39844 6152.88037 900.09387 487
-14777.63574 6422.13232 1198.02991 481
-14780.78027 6422.72070 1466.24622 405
-14191.74512 6269.99756 649.62451 478
-14099.33496 6229.70312 898.77136 487
-14704.13770 6496.50049 1199.39758 482
-14701.70605 6494.66602 1462.48157 405
-14134.00879 6350.06348 648.19861 478
-14044.20312 6308.80566 896.56000 487
-14624.98535 6571.77051 1193.38428 483
-14624.54492 6571.65967 1459.82373 406
-14079.36230 6429.36084 648.11035 478
-13985.62402 6390.11572 897.52972 488
-14550.73828 6645.29150 1194.45361 483
-14551.05371 6643.93506 1455.11267 406
-14023.97949 6512.66602 646.99237 479
-13932.22168 6470.91553 898.98669 488
-14477.35547 6719.79834 1189.78430 484
-14471.40723 6717.90332 1452.86707 407
-13968.26465 6589.63281 646.69012 479
-13875.53809 6546.53369 896.57501 488
-14400.71289 6793.76123 1189.77075 484
-14397.26562 6789.69385 1448.24097 407
-13908.40039 6668.29590 647.71686 479
-13819.95410 6625.74951 893.59637 488
-14333.84180 6868.84424 1183.62695 495
-14327.01562 6864.01709 1446.71179 495
-13856.43262 6748.65088 643.82837 479
-13765.91211 6706.12500 894.28522 489
-14272.08203 6951.53809 1183.47729 495
-14266.65430 6944.13672 1447.51672 495
-13798.42285 6823.84863 644.83252 480
-13710.77148 6783.21777 891.65436 489
-14214.50586 7032.40332 1182.33008 496
-14207.68457 7026.61328 1443.84863 496
-13743.49902 6904.41211 642.58276 480
-13658.30566 6859.46533 893.69519 489
-14156.09082 7112.01807 1180.54541 496
-14149.86133 7107.98828 1441.98987 496
-13689.40625 6981.86670 644.85242 480
-13599.23438 6939.43652 892.65155 489
-14091.36133 7186.91748 1178.96484 460
-14092.70703 7185.87256 1444.03552 496
-13631.87695 7058.65820 640.99219 480
-13548.10840 7016.15137 891.09003 490
-13989.80566 7244.45605 1178.08740 461
-14031.93457 7266.32129 1441.72559 496
-13578.07422 7140.80029 644.21680 481
-13493.07812 7093.75195 891.79932 490
-13892.33594 7301.34961 1170.51685 462
-13975.78906 7346.42236 1440.60535 497
-13522.71973 7215.28711 642.44006 481
-13437.98242 7169.97998 888.87231 490
-13792.32617 7361.03711 1168.35950 463
-13919.37207 7424.92529 1437.55640 497
-13467.41699 7293.27148 643.19806 481
-13381.05371 7250.80713 891.52521 490
-13696.07227 7418.85010 1164.74377 463
-13860.17090 7507.16064 1438.52295 497
-13411.33105 7370.86377 643.61139 481
-13326.95996 7325.53320 889.31610 490
-13600.25098 7474.18896 1162.54639 464
-13801.01367 7585.77344 1435.20081 497
-13357.71094 7450.64111 640.19476 481
-13273.28906 7403.39600 887.71240 490
-13523.79688 7540.20117 1159.01196 498
-13744.47949 7662.77539 1434.35132 497
-13775.18652 7682.05566 1701.52661 497
-13302.80664 7527.16211 641.76807 481
-13218.31543 7479.83398 889.60242 491
-13466.22754 7621.74072 1158.87537 498
-13689.61035 7745.87744 1433.79590 498
-13719.17285 7761.80225 1700.31885 497
-13860.89062 7842.57031 1980.71228 463
-13246.75879 7604.40283 640.60413 482
-13164.69336 7558.44141 885.94177 491
-13410.27051 7697.16309 1157.08752 498
-13630.13477 7824.82471 1432.66235 498
-13662.61719 7838.92676 1695.72986 498
-13761.56641 7900.70264 1972.86328 463
-13190.92383 7681.27881 641.54303 482
-13109.66797 7633.73340 885.11273 491
-13354.24805 7775.62500 1153.89966 498
-13571.62402 7901.68115 1431.72620 498
-13588.69629 7911.06299 1692.62109 442
-13138.61621 7757.19580 640.45148 482
-13057.48340 7711.27344 886.90375 491
-13298.88965 7854.74268 1157.28821 498
-13479.01465 7958.92773 1428.87317 444
-13471.53418 7956.53662 1687.19421 443
-13082.47852 7837.00293 640.96930 482
-13000.50195 7787.03369 888.12299 491
-13239.92090 7931.01416 1154.17444 498
-13362.31152 8004.09082 1419.66675 444
-13354.60156 7999.04443 1681.05481 444
-13497.21680 8080.54639 1954.92151 356
-13024.67578 7913.70898 638.41180 482
-12949.56055 7864.32715 887.73669 491
-13183.51172 8009.45361 1153.32434 499
-13249.86426 8048.31592 1416.08521 445
-13240.99805 8041.69385 1673.21777 445
-13370.02148 8117.56348 1947.28821 357
-12971.85254 7988.91797 640.72412 482
-12893.83301 7940.98584 886.74963 491
-13130.34180 8084.54346 1155.54480 499
-13161.16113 8104.56104 1409.80603 498
-13156.92969 8102.23340 1667.56335 498
-13249.33496 8157.83594 1937.52588 390
-12918.64453 8067.63916 640.82507 482
-12838.17578 8018.74268 886.71686 491
-13072.63184 8163.58594 1152.02612 499
-13107.26172 8184.60059 1411.37268 499
-13101.17090 8179.29004 1666.25903 498
-13189.38867 8236.66016 1936.38989 390
-13776.55078 8599.72949 2284.52100 324
-13771.96484 8593.19824 2558.39795 324
-13761.85449 8587.95410 2827.95410 324
-13756.29980 8584.38574 3102.39941 324
-13751.72266 8581.23047 3378.13232 324
-12863.38379 8143.46582 638.07605 482
-12784.59766 8092.94043 883.28790 492
-13017.72656 8237.91211 1152.56445 499
-13026.12793 8246.52344 1408.64087 499
-13018.54102 8239.04883 1663.09204 499
-13133.20508 8310.48535 1936.78223 390
-13327.48047 8434.12793 2226.47705 485
-12805.85938 8220.03223 639.28845 482
-12731.98145 8169.46484 885.65149 492
-12963.61328 8316.74414 1153.40894 499
-12970.44922 8322.80762 1405.95020 499
-12962.56055 8315.30371 1661.07410 499
-13079.32520 8390.65918 1933.89514 390
-13270.00879 8513.99414 2224.98877 485
-12752.62891 8297.56934 639.28162 482
-12678.13770 8249.21973 886.54224 492
-12905.72168 8394.40234 1149.81433 499
-12913.74414 8398.13672 1405.30066 499
-12906.28418 8394.33398 1663.89404 499
-13022.23730 8469.44238 1935.42249 390
-13183.23145 8571.96484 2217.13159 453
-12699.77930 8370.90625 639.38257 483
-12622.36230 8321.95312 882.30322 492
-12850.96582 8469.66211 1152.71680 499
-12859.07227 8478.44824 1408.78186 499
-12847.41309 8471.95703 1662.85364 499
-12962.90137 8545.27637 1931.04956 390
-13157.56348 8672.01465 2223.02393 485
-12642.20605 8450.32227 638.93719 483
-12571.29590 8401.45117 885.72040 492
-12793.04883 8549.20117 1150.98242 499
-12801.44434 8551.04395 1405.95581 499
-12796.19727 8547.52539 1661.58789 499
-12905.76465 8623.62500 1933.65381 390
-13097.29883 8751.53809 2222.55444 485
-12590.97461 8523.64160 637.98590 483
-12515.44824 8476.76074 883.74493 492
-12736.56934 8622.30957 1148.86475 499
-12746.08203 8629.50195 1405.12463 499
-12739.36426 8627.68848 1658.70691 499
-12850.98633 8702.74414 1930.77661 390
-13041.54492 8827.18262 2220.82959 485
-12535.04883 8601.44141 636.94946 483
-12463.96094 8551.04395 885.06409 492
-12683.78027 8701.54297 1151.48071 499
-12690.92773 8706.44531 1403.95435 499
-12682.47168 8700.32422 1661.10510 499
-12794.68555 8777.89258 1934.04590 390
-12482.73145 8676.92090 636.16614 483
-12408.73828 8628.24414 883.28064 492
-12627.79590 8779.85156 1151.41736 499
-12659.58008 8800.19922 1406.09192 499
-12653.74512 8794.88770 1663.59436 499
-12739.62012 8857.64648 1933.76196 390
-12424.00977 8755.84375 638.30292 483
-12353.82031 8703.72266 885.13190 492
-12571.76660 8856.75293 1149.89453 499
-12602.98340 8879.49219 1409.27295 499
-12594.70605 8872.15820 1660.93506 499
-12683.77148 8932.71777 1933.50464 390
-12372.92188 8832.73926 637.47205 483
-12299.90430 8781.74902 881.85168 492
-12514.58887 8929.79883 1149.65662 499
-12548.81250 8953.74902 1409.83289 499
-12538.72363 8951.08691 1660.96338 499
-12628.24609 9011.06836 1929.35425 390
-12315.92285 8908.50879 637.27820 483
-12244.75684 8855.93066 883.17609 492
-12460.39453 9008.78223 1152.58130 499
-12376.32520 8949.00488 1396.77087 476
-12482.96875 9025.24805 1664.06787 499
-12571.04297 9088.47949 1930.80408 390
-12264.24121 8984.55469 639.67279 483
-12191.63867 8931.88281 884.84607 492
-12404.38477 9087.14355 1149.86877 499
-12437.16602 9111.51660 1407.32959 499
-12429.69141 9106.52832 1660.52478 499
-12515.15137 9166.76660 1931.69617 390
-12208.00391 9058.37695 636.42596 483
-12137.68457 9010.08789 885.72961 492
-12347.09180 9161.25488 1152.40491 499
-12380.42969 9185.58008 1406.05261 499
-12372.77344 9179.05957 1662.84363 499
-12458.13379 9243.96289 1933.36279 381
-12154.86914 9137.95996 637.01111 483
-12084.17285 9086.86719 883.33917 492
-12290.78125 9240.04102 1152.25537 499
-12322.66016 9263.52637 1407.02124 499
-12314.69434 9259.61719 1664.68408 499
-12418.83008 9336.43066 1935.33496 361
-12099.40820 9213.32520 638.85284 483
-12031.35742 9162.39160 883.52124 492
-12236.21484 9315.00000 1149.10852 499
-12313.69238 9373.80957 1411.48657 458
-12304.97363 9369.77246 1669.39880 458
-12422.14355 9459.37598 1943.54248 360
-12046.64648 9291.23047 637.43793 483
-11977.89160 9239.25293 882.83545 492
-12180.24023 9393.77539 1150.96790 499
-12307.92969 9491.45801 1419.30017 457
-12300.84375 9482.91504 1673.15479 457
-12427.89648 9584.65039 1953.97229 360
-11990.14258 9367.03809 639.32330 483
-11924.42871 9315.11719 883.40479 492
-12123.08594 9470.83301 1152.18237 499
-12280.20117 9593.34277 1421.19019 476
-12292.52930 9599.97559 1681.95886 456
-1746.40454 1445.36292 94.47336 480
-1749.44836 1447.45947 132.92700 486
-1752.68982 1449.93433 171.15242 440
-11937.06445 9441.61621 636.69220 482
-11869.87500 9387.86230 882.98950 492
-12096.91406 9567.02637 1152.80420 419
-12253.01172 9688.46582 1425.32825 475
-12283.52637 9715.50781 1685.70471 456
-1737.77930 1456.35962 94.79142 461
-1742.67932 1460.87878 132.89207 455
-11883.57324 9517.35156 636.74811 482
-11816.70898 9465.65723 885.99347 495
-12085.70215 9679.14062 1156.17273 419
-12222.26758 9788.89258 1426.09497 475
-11825.18262 9595.34375 640.14886 482
-11759.44336 9544.16211 883.92841 495
-12073.24219 9791.71582 1162.20190 418
-12194.26562 9891.48047 1429.17493 474
-11771.96875 9671.22656 638.38586 482
-11704.91113 9618.81934 886.96259 495
-12061.49023 9905.84180 1166.26587 417
-11715.48047 9746.84961 639.14441 482
-11651.36621 9693.49414 885.71130 494
-12051.50000 10023.35059 1171.59741 417
-11660.45020 9824.02539 640.50610 482
-11596.17773 9772.09961 883.72845 494
-11606.30859 9900.48047 638.41461 482
-11544.36914 9848.30859 886.16217 494
-11550.85059 9980.05469 640.98022 482
-11489.86914 9924.71289 888.56769 494
-11497.02832 10056.34668 639.88269 482
-11434.90137 10001.95801 886.14136 494
-11442.29395 10132.56836 640.29700 482
-11381.50977 10079.42090 888.85797 494
-11387.33691 10210.04785 639.54883 481
-11325.00391 10156.37988 886.51593 494
-11332.78906 10286.53711 639.50873 481
-11269.58496 10232.70215 890.00842 493
-11277.45996 10364.88379 642.03839 481
-11215.39062 10311.03613 890.98877 493
-11222.43945 10440.25781 641.44763 481
-11162.54590 10386.25391 890.64069 493
-11164.09375 10520.78711 642.28833 481
-11106.61621 10465.17383 891.11084 493
-11110.27734 10595.23242 642.25769 481
-11052.54297 10542.37012 890.50562 493
-11053.15918 10676.08789 642.15088 480
-10997.78223 10621.12695 889.75909 492
-10999.21777 10753.40820 642.39069 480
-10942.94434 10699.67578 891.83746 492
-10943.76758 10830.06348 643.92749 480
-10888.78223 10774.36914 893.32269 492
-10885.63281 10907.85547 644.85486 480
-10830.29102 10854.71484 892.61853 494
-10828.85059 10988.11133 644.82391 479
-10776.86719 10934.37012 893.18286 494
-10772.51562 11066.86426 646.39227 479
-10718.92969 11010.10938 893.24976 494
-10716.14453 11144.20312 645.18256 479
-10663.42969 11090.00586 897.92401 493
-10662.37012 11222.84766 646.46924 479
-10609.62012 11167.17871 896.84161 493
-10606.45508 11302.41406 648.06873 478
-10551.97949 11245.46973 897.06830 493
-10548.13086 11379.42676 645.04803 486
-10496.17188 11325.72852 899.47876 493
-10492.57715 11461.21289 649.04578 486
-10442.01465 11407.84082 901.21899 492
-10435.66992 11541.45312 646.51141 485
-10384.90625 11486.62402 900.81805 492
-10378.26465 11619.92773 651.12488 485
-10326.34180 11567.28320 902.76587 492
-10319.02734 11698.98438 650.70825 485
-10271.23730 11644.78223 903.82324 491
-10262.60840 11780.81152 651.95355 484
-10213.81152 11725.70215 903.11072 491
-10204.47168 11864.69141 650.25104 484
-10159.84961 11806.00000 905.44696 491
-10148.59766 11942.89551 652.24670 484
-10102.21191 11888.30762 906.18164 490
-10090.32617 12024.67676 651.86804 483
-10043.52051 11969.18066 906.16022 490
-10034.39258 12106.04004 653.90558 483
-9984.49707 12051.21875 907.07288 489
-9982.90918 12197.73828 653.02844 463
-9927.14648 12132.67480 908.07166 489
-9933.49805 12292.59180 654.64911 464
-9868.15234 12216.13477 911.69330 486
-9882.21289 12382.54199 655.65906 463
-9815.99316 12301.49219 913.71997 486
-9834.48828 12480.17285 658.71539 463
-9762.75781 12387.13672 913.94836 469
-9785.95801 12573.57031 661.26569 462
-9713.45605 12483.33008 917.34918 468
-9735.29688 12671.06445 663.49524 461
-9661.20703 12576.01562 918.09534 468
-9685.18359 12768.16797 661.96063 461
-9610.94727 12671.80273 921.65918 467
-9634.13867 12863.89941 665.55646 460
-9560.79980 12768.96289 925.26489 466
-9596.90918 12983.26367 666.06342 418
-9510.87793 12864.93848 926.16888 467
-9564.19043 13105.11621 667.72943 418
-9464.89941 12968.07227 929.74493 466
-9531.92969 13230.96387 670.92914 395
-9417.28711 13073.28418 932.97314 465
-9507.48047 13366.12891 673.85303 394
-9369.92676 13179.28516 935.40320 464
-9477.79688 13502.16992 680.39429 368
-9329.95117 13295.14648 937.89948 408
-9467.73926 13662.93262 683.05164 367
-9296.55176 13418.74707 940.12488 407
-9488.10156 13868.78027 690.16998 299
-9259.98535 13543.90430 944.09814 406
-9224.34180 13674.22559 948.97394 406
-9208.47363 13830.23145 957.22577 368
-9196.04102 13993.21582 963.25494 367
-9183.59473 14160.07031 967.12061 366
-11221.29395 64156.15625 13100.35840 1000
-153.44070 2276.57837 94.83885 321
-136.89662 2254.17065 95.43696 393
-127.61719 2298.92285 56.56561 350
-121.32312 2236.42432 95.79653 395
-110.70547 2272.74585 57.81032 356
-106.09963 2220.76440 95.96745 394
-91.89603 2217.19824 59.47049 281
-91.33716 2209.34985 96.29984 414
-76.69005 2196.62866 60.22228 363
-77.09422 2198.85229 96.50090 414
-61.94466 2178.70801 61.16778 364
-62.74598 2189.79663 96.36161 373
-47.79204 2165.65356 61.26599 441
-48.73717 2182.75293 96.32676 372
-36.09204 2195.92773 24.10908 437
-33.85585 2155.97754 61.82205 442
-35.19931 2176.55811 96.46513 375
-22.01626 2185.53613 24.62028 438
-20.39756 2145.87109 62.29509 443
-21.23712 2170.60449 96.53365 398
-8.00291 2175.11377 25.39788 439
-6.59574 2136.03345 62.54805 444
-8.12002 2164.56787 96.76263 428
5.28525 2165.25781 26.09583 440
6.67389 2126.76196 62.73857 456
-0.74688 2323.33936 94.67519 476
19.11230 2155.90552 26.44191 446
20.13927 2119.10474 63.00276 460
13.37858 2324.96777 94.46654 476
32.80892 2147.39917 26.81299 447
33.16059 2111.56543 63.07516 461
27.84999 2325.04297 94.57019 382
45.87998 2138.51782 27.46959 448
46.35958 2104.36206 63.26659 462
42.27847 2326.43237 94.28992 382
58.88921 2130.46484 27.61981 449
59.31718 2097.05591 63.84131 462
55.97971 2327.28564 94.21096 384
72.32115 2120.31592 28.03995 305
72.66843 2089.58862 64.20438 463
70.20023 2328.22144 94.21938 384
85.06057 2105.60620 28.96819 312
85.59708 2083.45410 63.93602 449
85.02241 2166.88574 97.18882 482
97.98170 2093.73193 29.70115 314
97.80712 2077.77808 64.20358 449
98.28073 2161.57227 96.71078 483
98.70639 2191.17700 132.54324 483
110.92661 2082.79126 30.27062 314
111.02335 2072.35229 64.74756 450
111.49415 2156.58569 97.10451 483
111.76262 2150.50269 132.56438 484
123.58356 2071.93872 30.57451 415
123.54385 2066.72998 64.79807 455
124.47273 2151.64233 97.01469 484
126.33554 2232.73242 132.24403 255
136.03391 2064.95557 30.74471 415
135.82323 2062.36035 64.93753 455
137.92773 2148.85376 97.38691 321
140.03912 2241.52100 132.21609 255
148.72949 2058.15869 31.05894 416
148.33713 2057.57959 65.13460 456
152.15157 2183.25610 96.47480 320
154.22614 2262.98730 132.55638 318
160.75406 2051.77710 31.58148 416
161.10754 2052.65967 64.83444 456
166.80731 2218.28711 95.99594 319
173.07957 2045.23340 31.68019 423
173.45763 2047.87976 65.52229 457
181.38943 2255.01074 95.59784 318
185.49544 2040.43713 31.87983 423
185.62027 2043.45862 65.33379 458
197.56825 2034.73291 32.36784 423
197.96640 2038.85461 65.71121 458
202.57988 2125.58716 97.62948 487
209.95905 2029.66699 32.50842 424
210.12459 2034.58545 65.69607 459
214.91550 2114.78271 97.46712 315
222.09540 2024.20056 32.65902 424
222.66689 2030.08545 65.52753 459
228.02066 2110.41455 97.74805 488
234.46013 2019.11157 32.78871 425
234.72292 2025.91541 65.60096 389
240.40263 2106.67432 97.77977 322
246.26018 2013.93591 32.92809 425
246.78380 2022.06213 66.20882 390
258.02859 2162.21167 96.79510 429
257.35764 2160.57031 132.35934 489
256.24161 2144.29150 202.59859 331
258.01605 2009.04639 33.08926 487
258.74680 2018.21216 65.91609 390
269.53574 2144.80298 132.27832 489
269.30792 2139.32983 202.58076 345
270.07043 2004.39148 33.76257 487
271.13049 2014.32947 66.33343 390
282.55542 2143.33276 202.52849 300
282.00116 1999.82837 33.64503 487
283.04089 2010.48206 66.36797 390
294.44977 2125.46997 202.29184 490
293.92978 2124.88745 237.08051 490
293.83124 1995.19934 33.60691 488
295.28860 2006.55164 66.49883 390
311.50192 2166.08667 203.34122 427
311.31802 2164.80151 238.98686 427
311.33627 2163.14453 275.06500 490
306.11548 1990.48315 34.12311 488
307.43961 2002.67371 66.29385 391
311.72244 2042.09155 98.87396 491
317.74341 1985.54468 33.90522 489
319.15683 1998.57996 66.37164 391
323.51910 2037.56628 98.93215 491
329.42593 1980.99011 34.48986 489
331.40240 1994.92493 66.54181 391
335.80850 2032.71875 99.00835 492
341.11285 1976.70532 34.33906 489
343.21362 1991.16528 66.52986 391
355.38824 2086.42139 97.75447 309
353.28574 1972.23132 34.79134 490
354.87241 1987.25000 66.71011 391
374.87326 2138.34595 97.20970 308
364.45239 1967.37256 34.69386 490
366.92215 1983.06873 67.01915 391
395.54123 2189.18799 96.33742 313
376.29239 1963.06433 34.88057 490
378.81204 1979.09082 66.59422 392
388.06467 1958.40735 34.89553 491
390.53418 1975.64758 66.98501 392
399.66745 1953.71265 35.19831 491
402.44476 1971.52161 67.24512 392
411.27002 1949.56677 35.18213 491
414.09058 1968.01880 66.98527 392
424.54242 2030.77661 166.10840 401
423.75745 2028.11084 199.82222 494
422.30273 1945.13062 35.45535 492
425.73923 1964.91541 66.91522 300
438.38580 2039.12842 199.90453 299
434.06769 1940.52686 35.36848 492
437.88654 1962.56592 66.88211 300
465.28519 2115.24683 202.91582 499
445.43875 1935.89722 35.87151 492
450.11356 1959.89832 67.21131 300
456.82812 1931.61426 35.96864 493
461.68845 1957.52795 67.14829 300
9709.63867 50625.07031 2666.33691 1000
468.07510 1927.01465 35.66651 493
473.81442 1954.86816 67.29190 300
479.62131 1922.39624 36.16410 493
487.09720 1960.58533 66.66130 430
491.05136 1918.14539 36.27094 493
498.01526 1951.04468 67.20392 369
502.18732 1913.64575 36.37950 494
508.28436 1940.12708 67.38890 439
521.37811 1943.23840 2.07054 453
513.61005 1909.18726 36.17467 494
519.46887 1936.83850 67.24136 439
532.89777 1938.50317 1.87541 453
525.05920 1904.89392 36.28788 495
531.19995 1933.49365 67.11864 439
543.86212 1933.86621 1.96939 454
536.08789 1901.07642 36.46843 495
593.25824 2143.20386 60.41354 468
555.41730 1928.95959 2.24424 454
547.55347 1896.48157 36.39363 496
605.70953 2138.49585 60.59501 383
566.53497 1924.45825 2.60249 454
558.66913 1892.29236 36.49257 496
618.84277 2134.47510 60.47862 383
578.21405 1919.83728 2.36667 454
569.81519 1887.85950 36.72216 496
631.96393 2130.29077 60.34603 383
581.54675 1883.86462 36.80669 496
617.33905 2021.48279 64.13617 498
616.87097 2020.86536 97.89297 498
592.72369 1879.44299 36.45558 496
657.53461 2121.65674 60.32993 383
603.57843 1875.66602 36.62000 493
669.90747 2117.36792 60.74481 383
631.82581 1976.89197 132.28059 392
616.16791 1874.61926 36.66151 493
683.01068 2113.07617 60.74372 383
627.96429 1873.98511 36.74235 492
696.31232 2110.37207 60.11803 384
640.08386 1873.07458 36.53074 492
711.11938 2114.70093 60.40547 330
652.61682 1871.87219 36.43892 492
664.48358 1871.21240 35.95860 491
677.06879 1870.92188 35.87191 465
689.74011 1870.49353 35.60473 398
31047.52539 48010.90234 -14190.09277 1000
968.62476 809.59875 -25.36798 285
964.25488 796.04572 -23.83816 470
968.01721 799.05896 -4.80498 423
972.25549 803.11151 14.60562 359
966.82367 788.50745 -23.48701 496
969.60901 790.91650 -4.04392 495
972.06720 793.27295 15.04949 470
975.11993 795.86273 34.35933 465
978.23206 798.71625 53.89367 397
971.94421 783.12360 -23.38431 497
974.19928 785.28461 -4.05339 496
976.90063 787.53613 15.30282 496
979.12360 789.52039 34.43603 477
981.94800 791.80023 53.84070 484
979.04376 779.64020 -23.98093 427
982.08319 782.05664 -4.71346 427
985.10498 785.04370 14.84420 427
989.56848 788.88147 33.91092 299
993.70337 782.67346 -25.62775 290
3929.03052 876.05878 -61.20256 441
3946.41724 854.99152 -62.05364 444
3964.53735 834.46228 -63.32160 446
3984.52148 814.21997 -63.50995 441
4005.64893 792.46869 -64.92625 447
4026.16846 772.30054 -65.49667 446
4048.74976 751.31140 -66.35357 430
4075.04932 731.41205 -66.69855 425
4104.33447 711.23944 -68.08644 423
4135.68311 690.95801 -69.96479 404
4175.22168 671.82892 -71.38046 371
4227.79883 654.59497 -74.13840 359
4285.09375 636.19122 -76.17309 358
4343.09717 618.78870 -79.34817 357
4402.17432 601.03931 -81.45497 355
4456.30664 580.77533 -85.16461 324
4528.55664 561.71558 -87.57338 351
2759.73169 74.20884 -86.93689 457
2767.58887 74.28315 -43.88803 456
2761.30737 57.74462 -87.49505 444
3721.14526 -573.00018 -109.05365 498
3729.58960 -573.78772 -48.65541 444
4639.62158 -978.37543 -96.08482 414
4618.21338 -1003.09686 -95.46002 480
4603.16309 -1028.21277 -95.34724 461
4588.70801 -1054.62927 -94.74372 425
4574.35205 -1079.83691 -94.68437 435
4562.79053 -1106.89880 -94.04262 403
4576.16699 -1138.73682 -171.39862 488
4550.68896 -1132.94385 -94.38243 410
4542.95898 -1159.21863 -169.99393 304
4540.07227 -1158.84106 -93.38686 360
4518.53857 -1181.60413 -168.60088 371
4531.94482 -1186.11023 -93.30354 360
4500.17334 -1206.13672 -168.07767 373
4537.70850 -1216.54248 -94.69836 488
4485.24951 -1231.58423 -166.86852 433
4521.83545 -1241.08850 -93.47363 489
4547.56885 -1249.50415 -19.20016 314
4471.00781 -1256.58752 -166.35648 435
4507.15479 -1266.15833 -94.03486 489
4506.06543 -1265.85950 -18.87730 499
26087.94531 -7459.34814 1903.95056 1000
4459.34180 -1282.32446 -166.51260 435
4495.85156 -1292.85046 -93.42937 499
4497.33350 -1292.73853 -18.90617 499
4447.08398 -1307.99744 -166.60878 437
4487.10840 -1320.05042 -93.57962 499
4489.39502 -1320.76355 -18.47033 499
4437.05176 -1333.69885 -166.53799 475
4473.10107 -1345.16724 -93.24580 499
4474.60596 -1345.23230 -18.15076 499
4426.98682 -1360.22461 -166.38658 476
4464.65039 -1372.07141 -93.14327 499
4467.65381 -1372.82080 -17.89676 499
14799.69434 -4614.10449 636.30823 1000
4418.48340 -1386.66736 -165.96835 476
4456.03955 -1398.81116 -93.48367 499
4458.79736 -1398.81848 -17.98014 499
4409.93164 -1413.39197 -165.24759 476
4447.47119 -1425.85840 -93.18484 499
4450.54980 -1426.35815 -18.48312 499
4401.09570 -1439.94250 -166.52647 476
4439.82031 -1452.20923 -92.81593 499
4447.72607 -1454.83850 -18.54684 499
4394.16797 -1466.59753 -166.01154 476
4431.10010 -1478.52576 -93.30184 499
4438.82568 -1482.30066 -18.33117 499
4459.93555 -1489.35229 56.38266 427
4384.87451 -1493.42200 -166.41231 476
4428.99170 -1507.58167 -93.61900 499
4430.03174 -1509.03699 -18.41891 499
4451.81104 -1515.52258 56.55523 427
4503.50098 -1534.02185 132.63921 359
4377.33789 -1519.91724 -165.70755 476
4420.42090 -1535.08740 -93.03267 499
4422.17236 -1535.95691 -17.85329 499
4434.57910 -1540.54919 56.66831 259
4369.53711 -1546.21582 -166.06441 439
4491.27539 -1590.12573 55.81439 499
4360.74170 -1572.95715 -166.70183 439
4483.84521 -1619.11755 55.62442 494
4526.82764 -1634.62781 131.48701 483
4352.09180 -1599.91833 -166.50092 439
4525.11572 -1664.18762 131.72409 482
4345.13184 -1626.63989 -165.93246 439
4335.67139 -1653.77881 -166.35722 439
4328.49951 -1680.47546 -166.18880 439
4320.55127 -1707.47107 -166.47362 439
4312.39355 -1734.59155 -167.17638 443
4467.69971 -1798.53064 -99.83086 370
4470.73096 -1799.69873 -23.46785 370
4304.51074 -1760.83118 -167.18394 443
4354.11084 -1781.63696 -95.53929 498
4295.08154 -1788.52026 -167.71008 443
4565.98828 -1903.76843 -106.81964 498
4286.80762 -1815.26929 -167.70642 443
4556.79639 -1931.98474 -106.72575 498
4279.48389 -1841.80432 -168.42555 442
4463.90430 -1923.05151 -102.54790 445
4270.98682 -1869.47424 -167.93446 442
4363.08691 -1910.85400 -98.44409 494
4346.29346 -1934.65552 -98.11287 494
4296.78906 -1943.67224 -95.75240 497
4324.05713 -1987.48999 -97.18098 483
12428.39941 -6262.82812 3357.68408 1000
2981.46436 -1996.31592 -98.23608 369
2966.44434 -2012.30554 -98.14114 467
2142.33130 -1939.65381 -99.84468 362
2123.66138 -1922.00586 -51.56092 365
2108.13452 -1931.05042 -97.24945 365
2089.63330 -1912.86548 -49.34570 366
2074.46533 -1921.87158 -94.39551 365
2050.61621 -1898.88416 -46.96262 375
2041.45105 -1913.58081 -92.15834 367
2017.70544 -1889.83386 -44.59207 327
2065.77417 -1936.93286 -3.59790 296
2010.41736 -1905.97742 -89.43595 373
1986.61133 -1882.13330 -43.31027 377
2058.41577 -1953.74927 -4.32204 366
1980.31799 -1898.56396 -87.50851 374
1955.44165 -1874.36169 -41.04351 378
2052.98584 -1972.84399 -4.67123 366
1950.27490 -1891.84961 -85.19559 376
1925.96826 -1867.63513 -39.87007 346
2048.86108 -1992.31555 -5.08800 365
1920.84509 -1885.00024 -83.17235 377
1898.66833 -1861.70740 -37.86287 264
1892.00659 -1878.44006 -81.35584 378
1871.42310 -1856.28333 -36.78697 383
1864.26965 -1871.89587 -79.16709 379
1843.54663 -1849.41125 -35.24966 384
1837.11951 -1865.21521 -77.60284 373
1815.57275 -1842.62256 -33.54725 385
2032.17041 -2074.96289 -7.50389 380
1809.98730 -1859.03479 -75.52909 365
1788.49414 -1835.62549 -32.18314 387
1797.21655 -1845.98352 8.36502 389
1782.53418 -1852.43250 -73.84962 362
1761.45105 -1829.32068 -30.09300 388
1770.70325 -1839.04358 9.39850 390
1756.15686 -1846.12207 -72.07696 363
1736.40894 -1823.73450 -28.82940 415
1744.57397 -1833.05151 10.91740 392
1730.50146 -1840.49084 -70.03197 373
1714.29858 -1821.93896 -27.90305 426
1722.16882 -1830.46252 11.16701 427
1707.42615 -1836.65527 -68.37225 393
1693.78247 -1821.13196 -27.34754 433
1700.45117 -1828.36670 12.30826 426
1686.69910 -1835.51477 -67.69801 398
1674.49780 -1820.76965 -26.46429 442
1688.04663 -1836.66980 12.29117 484
1667.20471 -1835.33545 -66.07687 402
1655.47705 -1821.78210 -25.50105 447
1674.54761 -1843.69678 12.84035 485
44998.00000 -52458.58203 8075.78564 1000
1648.18774 -1835.97534 -65.70622 403
1637.04102 -1822.64880 -24.83191 449
1670.21667 -1861.59375 11.86765 436
1629.44800 -1836.95837 -64.13765 402
1619.71411 -1824.29004 -24.27340 450
1665.32263 -1879.73499 11.41834 435
1612.05750 -1837.94446 -63.72768 403
1601.99377 -1826.33484 -23.70787 455
1660.32141 -1897.32312 11.07821 434
1594.11328 -1839.85608 -62.51566 409
1585.06665 -1828.35022 -22.85905 462
1655.77856 -1915.05420 10.43309 433
1576.98730 -1842.05249 -61.86295 409
1568.97229 -1832.05847 -22.11683 463
1650.63562 -1933.47827 9.68330 432
1560.96570 -1844.50745 -61.23013 420
1553.84509 -1835.37122 -21.82015 467
1646.03625 -1951.55347 9.44917 431
1545.49756 -1847.95227 -60.88409 427
1538.16846 -1839.23010 -21.20664 468
1641.32275 -1969.94031 8.44948 431
1529.77112 -1851.76807 -60.28734 427
1523.17065 -1842.69128 -21.25624 468
1636.50586 -1988.82275 8.08291 430
1514.22485 -1854.64441 -59.82659 428
1507.67297 -1846.30249 -20.91180 463
1630.97192 -2007.38550 7.61320 429
1498.77039 -1858.01489 -59.35039 433
1492.95093 -1850.46814 -20.28616 464
1626.05273 -2026.37976 7.22637 428
1483.45898 -1861.02600 -58.92405 434
1477.85498 -1853.91064 -19.84176 462
1467.85718 -1864.17810 -58.06155 437
1463.51208 -1858.46375 -19.34070 465
1456.07898 -1871.85205 -57.74461 284
1449.38367 -1862.89807 -19.15002 461
1455.32410 -1895.19458 -59.44374 284
1435.80969 -1867.68042 -19.12771 464
1422.07031 -1872.90613 -18.66390 459
1410.73242 -1881.21680 -18.62782 385
882.28473 -4306.77100 1006.74677 1000
348.40012 -16213.96191 3369.56323 1000
167.83223 -21532.31836 851.94916 1000
-30.24899 -3115.59644 -18.85301 498
-30.10191 -3116.37231 32.22805 498
-30.16359 -3117.10181 82.89831 494
-30.17697 -3117.84766 134.23151 494
-30.05035 -3118.54712 185.49280 466
-376.32248 -2487.34326 9.17072 499
-376.25385 -2486.51831 50.50117 485
-375.70868 -2486.61182 92.08936 485
-376.30478 -2486.58813 133.57729 448
-376.29315 -2487.33545 174.97144 391
-17117.15430 -57400.76172 14139.05273 1000
-17943.56445 -50933.86328 -11509.52148 1000
-706.55188 -1856.59314 0.02467 443
-706.17346 -1855.15723 33.20998 482
-705.73596 -1854.42310 66.78792 499
-705.34534 -1853.78882 99.40238 499
-705.34485 -1853.56458 132.47429 491
-705.52521 -1853.62451 165.85207 459
-705.57800 -1854.87817 199.08800 407
-31159.76953 -56369.12109 16305.31445 1000
-3864.02930 -2039.04675 131.93279 489
-3874.21582 -2044.25818 204.80241 400
-3245.05664 -1668.73169 132.06314 498
-3253.12891 -1673.37659 193.19714 420
-2628.81982 -1319.94751 81.56191 492
-2632.14673 -1321.48181 131.17381 473
-2645.10938 -1306.96423 81.59857 379
90.14021 -2.96730 127.43126 371
90.14100 -2.96808 127.67549 371
90.14062 -2.96687 127.92030 372
90.13910 -2.96780 128.16216 372
90.06002 -2.98892 128.38632 298
88.78045 -3.32931 128.38519 294
90.24197 -2.86500 127.44817 372
90.24312 -2.86430 127.69155 372
90.24243 -2.86458 127.93546 373
90.24196 -2.86496 128.17546 373
90.10622 -2.89986 128.38658 298
88.82840 -3.23097 128.38570 294
90.34446 -2.76425 127.46361 373
90.34428 -2.76455 127.70714 374
90.34243 -2.76481 127.94840 374
90.34422 -2.76572 128.18674 375
90.15532 -2.81301 128.38786 298
88.87771 -3.13576 128.38542 294
90.44411 -2.66432 127.47788 374
90.44212 -2.66413 127.72066 375
90.44307 -2.66538 127.96059 375
90.44324 -2.66516 128.19980 376
90.20372 -2.72270 128.38782 298
88.92699 -3.03924 128.38541 294
90.54276 -2.56638 127.49272 376
90.54263 -2.56540 127.73473 376
90.54169 -2.56512 127.97324 377
90.54079 -2.56558 128.21130 377
90.25265 -2.63421 128.38548 298
88.97510 -2.94211 128.38622 294
90.63740 -2.46939 127.50654 377
90.63799 -2.46888 127.74587 377
90.63956 -2.46981 127.98420 378
90.63887 -2.46862 128.22179 378
90.30216 -2.54653 128.38750 298
89.02507 -2.84536 128.38782 294
87.49475 -3.20255 128.38661 290
90.73637 -2.37210 127.51946 378
90.73381 -2.37337 127.76051 379
90.73450 -2.37364 127.99645 379
90.73436 -2.37141 128.23193 380
90.35296 -2.45772 128.38666 298
89.07670 -2.75001 128.38678 294
87.54633 -3.09569 128.38606 290
90.82975 -2.27837 127.53313 379
90.83021 -2.27611 127.77113 380
90.82993 -2.27810 128.00679 381
90.82959 -2.27691 128.24146 381
90.40508 -2.37148 128.38623 298
89.12770 -2.65283 128.38658 294
87.59525 -2.99037 128.38631 290
90.92329 -2.18383 127.54699 381
90.92363 -2.18404 127.78283 381
90.92474 -2.18386 128.01852 382
90.92371 -2.18206 128.25040 382
90.45686 -2.28404 128.38736 298
89.17976 -2.55674 128.38524 294
87.64752 -2.88566 128.38666 290
91.01809 -2.09016 127.55772 382
91.01855 -2.09119 127.79493 383
91.01808 -2.09065 128.02727 383
91.01701 -2.09062 128.26018 384
90.50900 -2.19658 128.38658 298
89.23019 -2.46148 128.38724 294
87.70065 -2.77823 128.38788 290
91.11131 -1.99734 127.57119 383
91.11011 -1.99847 127.80549 384
91.10870 -1.99822 128.03767 384
91.10903 -1.99826 128.26791 385
90.56276 -2.10751 128.38536 298
89.28493 -2.36707 128.38594 294
87.75333 -2.67264 128.38805 290
91.20006 -1.90610 127.58324 384
91.20241 -1.90664 127.81561 385
91.20022 -1.90695 128.04709 386
91.20200 -1.90668 128.27837 386
90.61462 -2.01967 128.38571 298
89.33917 -2.26934 128.38570 294
87.80839 -2.56764 128.38779 290
91.29046 -1.81625 127.59324 386
91.29238 -1.81600 127.82639 386
91.29159 -1.81539 128.05644 387
91.29076 -1.81615 128.28520 387
90.66895 -1.93272 128.38612 298
89.39115 -2.17477 128.38554 294
87.86297 -2.46317 128.38535 290
91.35645 -1.73193 127.59808 468
91.35624 -1.73145 127.83078 469
91.35809 -1.73090 128.06035 470
91.35829 -1.73016 128.28889 470
90.72363 -1.84704 128.38754 298
89.44490 -2.07944 128.38554 294
87.91862 -2.35754 128.38776 290
91.37688 -1.65307 127.58855 468
91.37758 -1.65395 127.82087 469
91.37721 -1.65379 128.05286 470
91.37756 -1.65421 128.27974 471
90.77800 -1.75912 128.38623 298
89.50135 -1.98371 128.38701 294
87.97363 -2.25177 128.38725 290
86.10628 -2.57923 128.38504 286
91.39767 -1.57788 127.58216 469
91.39894 -1.57762 127.81303 470
91.39864 -1.57784 128.04356 471
91.39876 -1.57677 128.27415 472
90.83467 -1.67237 128.38676 298
87.82973 -2.18128 128.06598 352
87.83079 -2.18094 128.35393 352
86.16503 -2.46222 128.38812 286
91.42018 -1.49934 127.57304 470
91.41843 -1.49932 127.80585 471
91.42001 -1.49867 128.03587 471
91.42010 -1.49878 128.26442 472
90.88986 -1.58535 128.38733 298
87.60572 -2.12109 128.01541 351
87.60732 -2.12099 128.30515 351
86.22330 -2.34875 128.38551 286
91.44065 -1.42155 127.56384 470
91.43911 -1.42035 127.79697 471
91.44062 -1.42151 128.02742 472
91.43910 -1.42245 128.25726 473
90.94736 -1.49981 128.38535 298
87.37528 -2.06097 127.96429 349
87.37318 -2.05885 128.25903 350
86.28229 -2.23261 128.38612 286
91.46098 -1.34283 127.55439 471
91.46017 -1.34472 127.78777 472
91.46111 -1.34298 128.01950 473
91.46161 -1.34517 128.24944 473
91.00452 -1.41296 128.38683 298
87.14519 -1.99405 127.91128 447
87.14391 -1.99391 128.20901 448
86.34027 -2.11467 128.38844 286
91.48175 -1.26482 127.54550 471
91.48219 -1.26592 127.78128 472
91.48097 -1.26496 128.01337 473
91.48218 -1.26588 128.24268 474
91.06171 -1.32724 128.38611 298
87.05438 -1.90591 127.88521 446
87.05362 -1.90399 128.18379 447
86.39934 -1.99788 128.38487 286
91.50379 -1.18793 127.53884 472
91.50399 -1.18750 127.77279 473
91.50228 -1.18830 128.00456 474
91.50343 -1.18887 128.23349 475
91.11920 -1.24101 128.38643 298
86.96576 -1.81623 127.85661 446
86.96661 -1.81308 128.16066 446
86.46059 -1.88372 128.38617 286
91.52454 -1.10948 127.52891 473
91.52355 -1.10756 127.76351 474
91.52454 -1.10944 127.99595 474
91.52363 -1.10909 128.22647 475
91.17960 -1.15427 128.38771 298
86.87358 -1.72312 127.82905 445
86.87360 -1.72096 128.13629 445
86.52264 -1.76633 128.38826 286
91.54619 -1.02996 127.52056 473
91.54579 -1.02966 127.75320 474
91.54618 -1.02993 127.98828 475
91.54472 -1.02951 128.21753 476
91.23888 -1.06733 128.38567 298
86.78019 -1.63100 127.80220 444
86.77973 -1.63013 128.10855 444
86.58394 -1.65125 128.38676 286
91.56672 -0.95213 127.50903 474
91.56548 -0.94983 127.74448 475
91.56543 -0.95127 127.97915 476
91.56691 -0.95190 128.21062 476
91.29885 -0.98230 128.38577 298
86.75751 -1.52623 127.78734 294
86.68370 -1.53350 128.08301 443
86.64723 -1.53689 128.38678 286
91.58647 -0.87256 127.50159 474
91.58606 -0.87234 127.73654 475
91.58788 -0.87144 127.97092 476
91.58730 -0.87071 128.20157 477
91.36050 -0.89790 128.38681 298
86.81900 -1.41076 127.78927 294
86.58898 -1.43607 128.05557 442
86.58711 -1.43815 128.36972 443
91.60838 -0.79317 127.49218 475
91.60988 -0.79184 127.72676 476
91.60847 -0.79096 127.96062 477
91.60916 -0.79287 128.19255 477
91.41909 -0.81285 128.38603 298
86.87691 -1.29684 127.78822 294
86.48872 -1.33717 128.03171 441
86.48991 -1.34032 128.34444 442
91.62899 -0.71298 127.48289 475
91.63114 -0.71290 127.71874 476
91.62897 -0.71293 127.95308 477
91.62893 -0.71221 128.18518 478
91.48083 -0.72758 128.38763 298
86.93778 -1.18431 127.78674 294
86.39235 -1.23942 128.00433 441
86.38963 -1.23797 128.31839 441
91.65165 -0.63220 127.47350 476
91.65182 -0.63125 127.70776 477
91.65204 -0.63194 127.94343 478
91.65248 -0.63195 128.17633 479
91.54459 -0.64329 128.38544 298
86.99985 -1.07129 127.78947 294
86.29879 -1.13728 127.97967 493
86.30183 -1.13627 128.29767 493
91.67336 -0.55202 127.46384 476
91.67402 -0.55119 127.69852 477
91.67454 -0.55064 127.93529 478
91.67319 -0.55081 128.16759 479
91.60710 -0.55670 128.38766 298
87.06237 -0.95945 127.78831 294
86.26981 -1.02997 127.96167 492
86.27132 -1.02703 128.28235 493
91.69508 -0.47050 127.45145 477
91.69399 -0.47088 127.69023 478
91.69434 -0.47083 127.92650 479
91.69513 -0.47018 128.16006 480
91.67095 -0.47398 128.38550 298
87.12345 -0.84623 127.78594 294
86.24185 -0.92058 127.94910 492
86.24127 -0.91972 128.26587 493
91.71754 -0.39026 127.44194 477
91.71615 -0.38998 127.67957 478
91.71697 -0.39001 127.91746 479
91.71616 -0.39052 128.14966 480
91.71642 -0.38878 128.38223 481
87.18858 -0.73346 127.78563 294
86.21297 -0.80722 127.93288 492
86.21394 -0.80958 128.25443 493
91.73892 -0.30828 127.43177 478
91.73821 -0.30763 127.67214 479
91.73714 -0.30909 127.90829 480
91.73728 -0.30742 128.14230 481
91.73742 -0.30931 128.37477 481
90.53561 -0.39100 128.38547 294
86.18070 -0.69472 127.91735 492
86.18092 -0.69600 128.24013 492
91.76070 -0.22772 127.42118 478
91.76095 -0.22662 127.66096 479
91.76075 -0.22628 127.89832 480
91.76105 -0.22572 128.13373 481
91.76069 -0.22644 128.36647 482
90.60168 -0.30130 128.38623 294
86.15126 -0.58252 127.89909 491
86.15108 -0.58389 128.22195 492
91.78294 -0.14385 127.41161 479
91.78326 -0.14535 127.65047 480
91.78226 -0.14449 127.88749 481
91.78132 -0.14595 128.12383 482
91.78309 -0.14421 128.35693 482
90.66829 -0.20820 128.38518 294
86.12370 -0.46938 127.88367 491
86.12215 -0.46937 128.21021 492
85.01810 -0.53187 128.38611 282
91.80410 -0.06398 127.40125 479
91.80499 -0.06215 127.63991 480
91.80449 -0.06354 127.87963 481
91.80388 -0.06125 128.11447 482
91.80408 -0.06158 128.34845 483
90.73589 -0.11619 128.38635 294
86.09068 -0.35453 127.86996 491
86.09004 -0.35553 128.19333 491
85.09012 -0.40731 128.38454 282
91.81586 0.02007 127.38821 485
91.81620 0.01956 127.62842 486
91.81490 0.01993 127.86704 487
91.81493 0.02009 128.10339 488
91.81510 0.02084 128.33698 489
90.80268 -0.02492 128.38628 294
86.06190 -0.23960 127.85254 490
86.06037 -0.23869 128.17905 491
85.16660 -0.28045 128.38483 282
91.79348 0.10073 127.36655 485
91.79334 0.10089 127.60625 486
91.79401 0.09978 127.84789 487
91.79335 0.09993 128.08469 488
91.79396 0.10020 128.31892 489
90.87160 0.06466 128.38791 294
86.02731 -0.12410 127.83469 490
86.02820 -0.12597 128.16328 491
85.24156 -0.15629 128.38802 282
91.77136 0.18348 127.34391 485
91.77306 0.18229 127.58684 486
91.77296 0.18111 127.82759 487
91.77307 0.18189 128.06645 487
91.77155 0.18400 128.30338 488
90.93945 0.15602 128.38557 294
85.99905 -0.00754 127.81662 490
85.99813 -0.00826 128.14740 490
85.31615 -0.02810 128.38794 282
91.75092 0.26570 127.32121 484
91.74852 0.26573 127.56520 485
91.74984 0.26566 127.80630 486
91.74966 0.26512 128.04524 487
91.74850 0.26504 128.28514 488
91.00894 0.24590 128.38519 294
86.02502 0.11421 127.81054 486
86.02454 0.11237 128.14175 487
85.39501 0.09384 128.38503 282
91.72691 0.35081 127.29726 484
91.72783 0.34899 127.54263 485
91.72742 0.34826 127.78648 486
91.72771 0.34999 128.02670 487
91.72688 0.35073 128.26651 488
91.07912 0.33650 128.38800 294
86.05678 0.23171 127.80661 486
86.05875 0.23375 128.13487 487
85.46992 0.21948 128.38689 282
91.70464 0.43352 127.27296 484
91.70599 0.43389 127.52145 485
91.70383 0.43347 127.76466 486
91.70513 0.43477 128.00673 486
91.70522 0.43390 128.24947 487
91.15138 0.42657 128.38676 294
86.09019 0.35481 127.79848 487
86.09052 0.35205 128.13042 487
85.54977 0.34313 128.38579 282
91.68060 0.52024 127.25012 483
91.68233 0.51986 127.49856 484
91.68179 0.51868 127.74506 485
91.68227 0.52039 127.98728 486
91.68090 0.52045 128.22913 487
91.22212 0.51414 128.38744 294
86.12164 0.47155 127.79330 487
86.12252 0.47203 128.12335 488
85.62714 0.46791 128.38670 282
91.65872 0.60571 127.22629 483
91.65835 0.60609 127.47532 484
91.65890 0.60689 127.72179 485
91.65775 0.60677 127.96798 486
91.65959 0.60652 128.21095 486
91.29394 0.60453 128.38690 294
86.17240 0.59418 127.78606 290
86.15632 0.59387 128.11589 488
85.70596 0.59289 128.38690 282
