# .PCD v.7 - Point Cloud Data file format
VERSION .7
FIELDS x y z rgb
SIZE 4 4 4 4
TYPE F F F U
COUNT 1 1 1 1
WIDTH 1150
HEIGHT 1
VIEWPOINT 6431.934082 -3666.817627 137.571762 -0.397814 -0.140252 -0.043638 0.905632
POINTS 1150
DATA ascii
-195.94286 1.22063 53.33567 324
-195.91611 3.00641 53.33524 324
-195.98750 4.84871 53.32467 324
-195.97820 6.65008 53.34984 324
-195.94319 8.42633 53.29461 324
-195.94490 10.19971 53.34587 324
-66659.05469 1891.41711 6772.85254 1000
-195.92101 11.98383 53.28845 324
-284.26056 59.95504 35.40415 316
-263.37314 59.00613 34.31629 319
-278.00571 61.33448 36.98438 322
-294.39999 63.90940 39.66081 312
-259.57248 60.62996 35.21051 350
-274.17657 63.08400 37.86746 346
-290.31912 65.67104 40.49072 340
-257.58551 62.55124 35.71243 350
-272.19583 65.04483 38.20495 346
-288.37454 67.79765 40.90503 341
-255.77667 64.46584 36.10094 350
-270.25192 67.01150 38.62854 345
-289.30826 70.44595 40.65079 319
-253.79163 66.37888 36.46052 351
-269.54584 69.27581 38.66032 322
-251.92441 68.20475 36.87318 349
-271.57245 71.96953 38.07046 319
-253.50697 70.72794 36.35843 322
-273.74188 74.74909 37.45856 318
-255.47385 73.36770 35.75978 321
-257.50751 76.03034 35.09045 321
-12153.58496 10174.51660 140.02766 454
-12068.17480 10098.47949 394.84247 460
-19834.92578 16757.55078 -1992.88684 1000
-12049.95117 10213.81250 136.31442 455
-11966.13867 10142.58398 394.71753 460
-11949.29785 10257.25391 135.95508 464
-11869.09863 10188.32227 396.68851 466
-11855.81934 10303.78418 139.85573 465
-11778.00586 10234.27148 392.65979 466
-11763.15234 10350.62891 138.08963 466
-11684.89355 10280.52148 393.90201 467
-11668.08496 10393.73828 136.28171 466
-11591.29590 10326.10254 392.60260 467
-11572.63770 10442.59863 136.28334 467
-11497.67676 10375.55176 390.77695 468
-11480.70117 10490.60059 136.82803 467
-11408.01172 10420.24902 390.39578 469
-11388.89355 10531.35840 136.99948 468
-11313.73926 10463.35059 392.69705 469
-11298.68066 10580.63672 138.65315 468
-11224.73047 10510.22754 388.60049 470
-11206.51172 10626.41211 135.41701 469
-11132.79492 10553.76270 387.20456 478
-11114.52734 10669.78906 135.55351 469
-11041.46777 10600.07812 390.24124 478
-11022.53516 10713.77344 135.00673 470
-10954.02148 10647.16211 390.20505 479
-10933.40430 10758.98047 138.23439 470
-10862.34863 10689.66406 388.83826 479
-10842.60938 10802.24219 137.26958 471
-10773.90332 10735.59570 385.01895 480
-10753.46289 10846.83398 135.66325 471
-10687.36523 10780.09668 384.38040 483
-10665.32715 10890.88574 138.55023 472
-10597.43359 10826.06445 386.02661 484
-10575.26953 10933.25195 135.26730 472
-10510.70605 10870.25488 386.17636 484
-10486.23633 10979.87305 134.77733 472
-10422.07031 10914.52148 384.19540 485
-10397.82422 11022.91309 136.93726 473
-10337.61523 10958.70801 383.14435 485
-10310.62988 11067.37891 134.34972 473
-10252.46191 11000.77051 385.39389 486
-10226.28320 11108.79102 136.07520 474
-10166.11230 11045.26172 384.82278 486
-10136.83594 11154.34863 134.40237 474
-10077.27734 11089.19922 381.50558 486
-10049.23340 11193.29785 134.79904 475
-9991.79004 11131.41797 383.25119 487
-9962.66602 11239.45117 135.90999 475
-9907.11230 11173.32812 382.42215 487
-9875.98730 11279.77930 135.97945 475
-9821.60938 11219.80859 381.53629 488
-9789.23047 11322.78027 136.01335 476
-9738.51855 11260.03418 382.63696 488
-9704.14844 11365.29492 136.46222 476
-9654.40137 11304.74023 381.00385 488
-9618.74316 11407.87402 135.87140 476
-9568.03613 11348.41406 377.68570 489
-9538.19922 11449.36816 135.49486 477
-9485.60645 11388.24121 378.61432 489
-9449.05566 11492.80273 133.43298 477
-9402.39062 11431.39551 376.97952 489
-9364.75879 11532.58594 137.39522 477
-9318.23633 11476.21289 378.11880 490
-9282.72949 11574.92773 137.49916 478
-9235.88281 11518.50293 379.24698 490
-9196.80664 11618.81934 136.65344 478
-9149.39453 11559.11523 375.72922 490
-9113.86426 11658.65332 137.13010 478
-9067.61328 11599.43945 377.15558 491
-9031.50977 11698.68848 133.90770 479
-8984.29199 11643.71875 377.53207 491
-9451.76367 12242.10449 644.30450 483
-8945.11035 11739.09277 136.13989 479
-8902.73242 11683.30078 374.84763 491
-9356.78027 12271.22754 644.62830 484
-8862.05371 11782.52246 135.93634 479
-8821.93945 11726.00879 375.46802 491
-9258.51855 12303.30957 639.03149 484
-8779.16602 11823.56152 133.71379 480
-8739.68848 11766.35352 376.63870 492
-9161.52734 12331.43457 639.63373 485
-8698.70996 11863.43652 136.90721 480
-8658.38965 11808.27930 377.70563 492
-9067.68262 12361.36621 637.93622 485
-8614.63379 11901.53223 134.17628 480
-8575.10352 11853.03125 375.97876 492
-8968.82617 12391.55566 639.11597 486
-8531.54199 11942.34668 135.33911 480
-8495.67773 11892.79980 375.04251 493
-8875.38867 12420.59375 637.42969 486
-8446.60547 11985.41602 135.28369 481
-8413.64160 11934.64941 372.55542 493
-8781.72168 12453.21875 636.80450 487
-8366.38184 12026.46973 134.89932 481
-8332.66797 11975.47656 375.64752 496
-8686.20020 12482.20703 634.88153 487
-8286.23535 12066.75586 135.76436 481
-8249.49707 12017.13770 375.62540 496
-8592.74023 12512.51172 634.98926 497
-8203.72559 12104.62305 135.13338 481
-8169.62549 12056.79883 373.49020 496
-8508.39160 12554.71875 633.21661 497
-8175.77393 12224.21387 -107.62812 478
-8123.21875 12146.86621 133.40512 481
-8090.74170 12098.39453 375.15811 496
-8424.83398 12594.35938 632.38934 497
-8092.10205 12266.99805 -106.39553 479
-8039.97070 12189.79004 133.22562 482
-8007.83350 12137.55762 374.22653 496
-8341.41309 12636.69922 633.31396 497
-8009.74756 12304.29688 -104.92979 479
-7961.07568 12227.83203 133.97176 482
-7925.98877 12180.94043 373.93182 497
-8257.32129 12678.69043 631.31934 498
-7927.80469 12346.29297 -107.85498 479
-7877.42188 12265.59863 134.56218 482
-7847.13281 12223.70215 371.94989 497
-8171.33008 12723.11719 630.91388 498
-7847.57373 12386.93555 -106.36195 479
-7795.26172 12307.49707 134.04469 482
-7766.43848 12262.98340 372.91534 497
-8086.73975 12761.79297 631.49854 498
-7764.61230 12424.26172 -105.89990 479
-7717.03906 12348.52344 132.78688 482
-7687.95117 12304.45117 371.82950 497
-8003.46582 12804.28711 630.51794 498
-7684.53271 12466.27930 -104.98265 479
-7632.25293 12388.64746 136.13490 482
-7609.30469 12344.73438 370.71341 497
-7920.86182 12844.78027 628.08221 498
-7599.41699 12505.53613 -107.24992 480
-7553.01367 12426.66211 133.92110 491
-7526.41895 12385.91602 372.65067 497
-7794.83154 12824.42090 627.85931 417
-7518.60693 12545.18750 -104.81114 480
-7472.85742 12469.02734 135.07155 491
-7447.23828 12426.40918 370.00876 497
-7712.00146 12862.15039 624.59033 417
-7778.04443 12968.27246 880.98456 498
-7437.90918 12584.70508 -107.49206 480
-7392.81641 12511.09766 135.19409 491
-7365.17090 12467.45508 373.16110 498
-7625.13672 12900.98535 626.98615 417
-7693.71094 13011.30371 877.71130 498
-7358.79688 12627.39648 -106.15054 480
-7313.44922 12548.92090 135.19943 491
-7287.54932 12509.57910 369.87360 464
-7541.91211 12942.72949 627.85376 403
-7608.03076 13051.38281 880.70770 498
-7689.44580 13188.18066 1138.75793 451
-7277.02393 12666.27148 -105.94505 480
-7232.25244 12590.39746 135.06941 491
-7210.02295 12551.47266 373.06012 464
-7458.22900 12976.16699 625.62592 404
-7524.04541 13093.98340 878.21448 499
-7595.01221 13218.91016 1137.58789 488
-7196.93799 12705.03223 -106.48186 480
-7151.10498 12629.20215 135.69734 491
-7132.07812 12593.31250 372.31519 425
-7418.24219 13097.99023 629.79944 499
-7432.78320 13118.31543 878.77020 449
-7434.38086 13126.28711 1123.68958 449
-7114.28516 12745.24805 -105.49261 480
-7071.49902 12670.88477 133.63063 491
-7051.57520 12638.36328 370.76044 425
-7314.43604 13096.91699 624.95074 450
-7317.75928 13104.27344 872.94641 450
-7320.65869 13110.56738 1121.95520 450
-8014.50781 14543.30762 -3177.59131 1000
-7033.70947 12787.66699 -105.12027 480
-6990.84521 12710.48047 132.39030 491
-6973.50977 12679.78516 370.45773 425
-7200.23242 13085.50195 622.16498 451
-7202.07861 13091.66309 872.07776 451
-7206.72363 13100.26758 1115.55042 451
-6953.64697 12825.40430 -106.94093 480
-6911.09131 12751.26465 132.04030 491
-6898.51221 12728.42871 371.58823 302
-7086.51172 13072.35254 623.01837 452
-7088.93555 13078.25098 868.33423 452
-7095.63330 13084.74902 1113.95203 452
-6870.22705 12866.18457 -104.72887 480
-6833.42627 12790.82324 132.48036 491
-6826.82324 12781.83887 370.55200 302
-6984.01074 13073.97461 620.60944 499
-6983.93164 13076.42773 862.78278 499
-6985.81738 13076.46191 1108.63867 499
-6790.87939 12905.74316 -105.61914 480
-6753.81104 12831.15039 133.22491 491
-6754.24707 12838.00879 372.45547 297
-6903.78076 13116.44824 621.65942 499
-6903.50000 13118.14551 864.39423 499
-6903.87695 13119.88086 1106.02112 499
-7056.43604 13405.66406 1379.85168 480
-7000.23828 13304.75098 1618.74438 433
-6998.91797 13298.94824 1866.92053 432
-7000.50732 13301.10352 2120.13940 474
-7004.64990 13308.01758 2368.78833 444
-6711.93164 12944.44531 -107.08047 480
-6670.66992 12872.04492 134.56088 491
-6796.73633 13113.33691 377.35886 499
-6807.05322 13127.71484 621.08508 499
-6806.31982 13130.37695 863.01562 499
-6822.25586 13160.50586 1108.18762 499
-6971.16797 13444.16895 1379.05188 480
-6630.69531 12985.69434 -103.70901 481
-6592.59961 12911.22656 133.00055 491
-6714.98877 13154.72754 377.30603 499
-6724.58008 13169.30078 617.60620 499
-6727.01416 13171.27051 862.90106 499
-6738.29785 13199.22266 1107.58325 499
-6887.58252 13487.34863 1377.44592 480
-6549.24658 13023.29688 -106.96851 481
-6513.43652 12951.89355 132.19034 491
-6634.46338 13190.65820 375.22137 499
-6643.03857 13213.70410 619.22510 499
-6643.62939 13214.30176 861.11407 499
-6657.93213 13240.79297 1105.65100 499
-6777.11865 13470.53613 1372.73987 476
-6465.89600 13063.71289 -105.64241 481
-6430.34375 12991.44336 131.81015 491
-6551.80078 13235.67383 374.67691 499
-6561.41309 13253.92090 617.35504 499
-6562.28174 13254.97266 863.91541 499
-6575.66309 13281.64551 1106.89014 499
-6701.73926 13532.45117 1377.04895 476
-6388.30664 13104.78613 -107.55126 481
-6352.11914 13032.09766 133.24081 491
-6470.71240 13272.81836 374.31674 499
-6482.06104 13293.17969 620.87048 499
-6482.44580 13295.03320 863.31958 499
-6494.70801 13323.51270 1106.71814 499
-6637.27930 13614.12109 1379.42773 471
-6307.17090 13142.20703 -105.66356 481
-6272.71533 13073.58496 134.40483 491
-6392.12842 13315.43066 375.55472 499
-6396.69824 13332.47754 618.24292 499
-6397.30957 13335.63477 860.24750 499
-6413.60840 13364.39941 1106.86108 392
-6556.73975 13655.65332 1376.99646 471
-6227.45215 13183.00879 -106.43513 481
-6192.05859 13111.59473 131.73935 491
-6309.56982 13356.52930 375.54611 499
-6318.11621 13373.39941 617.21674 499
-6318.29980 13377.82812 864.05359 499
-6331.65137 13409.53613 1107.33960 392
-6474.65576 13699.36523 1378.76099 471
-6145.10303 13224.76074 -106.13107 481
-6109.95898 13152.82324 131.98239 491
-6227.52197 13395.83203 376.75046 499
-6236.50928 13417.05273 618.93872 499
-6235.62354 13414.85547 863.07544 499
-6252.92383 13455.57520 1107.90247 392
-6391.05713 13743.05176 1377.51636 471
-6064.81592 13265.17383 -108.04861 481
-6030.90723 13193.59473 132.67313 491
-6144.26123 13435.54883 375.50943 499
-6164.55322 13482.50098 619.12866 499
-6164.22607 13484.72070 862.84082 499
-6051.60449 13232.26758 1089.97693 359
-6307.32861 13786.60645 1379.90344 471
-5984.05908 13300.96387 -107.93870 480
-5952.57178 13232.34473 131.91884 491
-6062.55371 13477.66992 375.21997 499
-6083.21826 13523.85156 621.30072 499
-6083.29395 13524.39258 862.00494 499
-5943.92725 13222.77441 1086.96326 499
-6223.52832 13829.01562 1381.81982 471
-5903.05664 13344.54785 -107.02271 482
-5871.14453 13273.71973 133.94217 491
-5984.13672 13518.02832 377.30551 499
-5928.45312 13405.04492 614.24823 421
-5924.39600 13394.15625 853.26788 277
-5864.62988 13261.09473 1087.25293 499
-6138.06641 13870.92090 1380.15564 471
-16135.16992 36709.69531 -5818.36865 1000
-5822.13037 13383.71680 -108.36372 482
-5790.56982 13313.17676 134.64339 491
-5900.68359 13557.39453 375.51624 499
-5869.11426 13486.24707 615.65863 282
-5836.10840 13409.58008 853.51807 458
-5784.21631 13302.22168 1086.42554 499
-6056.87842 13915.37988 1382.51343 471
-5740.58301 13423.08301 -107.96580 482
-5711.29785 13353.27539 134.63777 491
-5817.32617 13599.94141 374.48135 499
-5838.32275 13644.77539 620.88086 499
-5838.82324 13647.84180 863.66144 499
-5706.24121 13343.80566 1087.09192 498
-5974.62793 13959.15527 1380.59753 471
-5662.09570 13461.84570 -106.77159 482
-5631.24805 13395.39648 133.80042 491
-5643.32959 13417.69531 372.10205 430
-5753.99170 13686.41016 621.45734 499
-5759.35938 13689.29590 864.49420 499
-5767.09766 13717.78320 1109.25720 383
-5892.62402 14002.16406 1381.17334 474
-5579.25000 13502.05273 -106.63261 482
-5550.20654 13435.40820 133.14699 491
-5558.25635 13456.64160 369.71301 430
-5679.91016 13737.05566 619.59918 452
-5677.79785 13734.24902 862.66010 452
-5693.70215 13774.38574 1111.58069 357
-5810.52441 14049.99414 1380.97925 454
-5496.99951 13543.78516 -106.72850 482
-5472.23975 13476.57617 134.00189 491
-5478.51318 13493.30664 371.51239 430
-5617.50293 13832.17969 624.11780 451
-5617.08789 13830.06836 868.76953 451
-5640.37744 13891.81250 1118.30383 358
-5735.79199 14124.42969 1383.96033 453
-5416.84375 13581.42676 -108.46621 481
-5392.09570 13516.44727 133.71774 491
-5397.92090 13536.16309 372.98465 438
-5556.52686 13927.51758 625.84521 472
-5556.97656 13925.63574 870.65363 450
-5591.12354 14011.29297 1123.13684 357
-5334.86377 13621.81836 -108.41472 481
-5309.66748 13555.14355 133.02605 491
-5320.23047 13579.64941 373.07153 438
-5485.32471 13997.26855 626.25690 472
-5496.91162 14025.27441 872.59668 449
-5537.08936 14128.04102 1131.03101 357
-5256.50293 13663.84082 -106.80760 481
-5231.00586 13596.84766 131.04417 494
-5239.26416 13627.53125 372.06519 387
-5417.08887 14072.03125 629.44012 471
-5435.59229 14121.51758 875.80048 470
-5173.79346 13701.37305 -109.10158 481
-5149.40088 13635.29688 134.01530 494
-5277.68555 13970.89355 379.09915 414
-5342.58252 14146.91992 629.84741 470
-5093.38330 13744.09961 -105.96439 481
-5067.46289 13677.17676 131.11952 493
-5214.19189 14065.86816 380.15930 413
-5272.04492 14222.58301 629.67090 470
-5012.26025 13783.36719 -107.12630 481
-4987.27734 13720.78906 133.37105 493
-5152.60449 14165.26270 380.33304 412
-4928.81494 13825.27930 -107.95259 481
-4906.47998 13758.40039 133.24013 493
-5091.23340 14263.74902 382.18039 411
-4849.15869 13863.14258 -107.78354 480
-4825.37549 13799.33594 130.64224 493
-4765.75293 13903.21875 -106.95654 480
-4744.05469 13842.33008 133.56958 493
-4683.42969 13943.84863 -110.15238 480
-4663.51904 13884.25488 131.65216 492
-4601.90527 13983.49707 -110.61492 480
-4580.96826 13926.49414 131.87508 492
-4518.41650 14025.23828 -108.49509 480
-4500.04736 13964.66602 132.25021 492
-4436.46191 14066.22559 -108.59524 480
-4418.50928 14007.04785 133.57376 494
-4353.82764 14106.15039 -110.17981 479
-4334.36182 14049.11328 133.42575 494
-4272.35840 14149.54883 -111.39415 479
-4253.86670 14091.39355 134.16093 494
-4188.57275 14189.07715 -109.88176 487
-4171.51953 14131.68848 131.61388 494
-4106.52734 14233.91504 -110.42358 487
-4088.64502 14174.36621 130.15048 493
-4023.38013 14274.33398 -109.26617 486
-4005.04077 14216.91895 133.57230 493
-3941.19971 14313.67090 -112.02665 486
-3923.68408 14259.95703 132.56479 493
-3858.86719 14356.46777 -113.06182 486
-3840.07275 14302.10156 131.78772 492
-3774.51294 14398.97070 -111.91404 485
-3760.34888 14344.64062 133.06876 492
-3690.07202 14438.67676 -114.00224 485
-3675.34058 14384.81250 133.97974 492
-3606.64844 14481.57910 -113.53048 485
-3590.71289 14427.37695 131.38557 491
-3520.13989 14527.15234 -113.08209 484
-3507.65112 14473.53223 132.17496 491
-3438.17261 14568.79199 -113.22131 484
-3422.63623 14515.27734 131.48512 491
-3351.65283 14610.79688 -114.46880 484
-3340.67822 14559.37207 132.47643 490
-3267.07080 14653.65723 -113.23314 483
-3254.14038 14599.99121 132.13104 490
-4944.63867 22601.16211 -2916.50342 1000
-3181.44019 14698.52930 -113.90565 483
-3169.29663 14644.46973 130.63609 490
-3097.68750 14740.76172 -116.75945 483
-3086.23267 14686.03711 132.96735 489
-3010.80591 14785.06152 -116.22993 482
-3000.90381 14729.25977 132.35820 489
-2922.57739 14826.80078 -117.07762 482
-2913.70312 14773.10840 130.80972 488
-2839.00537 14867.29199 -117.43375 482
-2827.64648 14819.73242 130.91457 488
-4141.47559 22194.58594 -1720.94287 1000
-2753.32324 14914.51367 -114.95453 481
-2742.63013 14863.19531 129.73965 488
-2666.86572 14956.41797 -115.56811 481
-2655.89600 14908.65039 133.46265 487
-2578.88452 15002.62207 -118.24401 480
-2568.81396 14951.76367 131.93523 487
-2491.18799 15048.22168 -118.81705 480
-2480.23413 14994.61621 133.49373 486
-2418.83276 15179.02246 -372.93909 456
-2403.76221 15088.93164 -116.72959 479
-2393.53711 15039.04492 131.21095 486
-2330.08545 15235.19824 -373.82990 455
-2315.81470 15135.48047 -117.38557 479
-2305.77759 15086.14355 132.97054 485
-2243.74292 15295.90625 -373.82196 455
-2226.43140 15181.54688 -119.28075 457
-2217.17529 15132.53027 132.65001 482
-2158.55127 15350.59961 -376.52405 454
-2137.75171 15241.49512 -120.77290 457
-2131.03125 15184.01270 129.87247 481
-2068.88403 15411.27441 -376.76663 456
-2052.87109 15301.90430 -120.26563 456
-2045.22449 15234.52539 131.13225 481
-1980.21985 15473.56543 -379.59833 455
-1965.31689 15363.75586 -123.37387 455
-1953.00024 15283.13770 130.99170 480
-1892.11157 15532.63184 -379.65945 455
-1877.75366 15424.36816 -121.35102 455
-1866.06335 15337.33887 132.41624 480
-1802.57312 15601.55566 -383.65067 411
-1785.87134 15483.30957 -121.94508 455
-1775.26331 15389.87500 133.54881 479
-1715.06201 15700.45605 -384.54858 388
-1694.90479 15545.91699 -123.13911 455
-1688.75146 15455.57129 130.51666 461
-1628.44751 15805.18945 -388.11716 387
-1606.81250 15608.05176 -124.74768 454
-1599.19348 15523.98340 132.53825 453
-1542.46094 15913.27637 -393.06842 387
-1517.37207 15673.54590 -126.03403 411
-1511.07251 15597.73535 132.12738 452
-1454.34229 16022.63867 -394.47058 386
-1430.07666 15765.78906 -127.01022 410
-1419.54053 15671.81055 133.31291 451
-1364.82922 16147.15625 -397.64215 359
-1339.15332 15861.51074 -129.22694 409
-1326.61682 15741.78711 131.26990 453
-1247.74182 15957.64453 -130.07979 408
-1239.47668 15814.99902 129.29689 452
-1160.25623 16059.13379 -131.49689 386
-1142.64941 15887.77441 130.51985 452
-1065.83252 16174.78027 -134.31194 359
-1054.14929 15964.70215 132.26199 288
-975.27032 16320.97559 -137.88379 358
-963.58075 16088.42480 131.98541 310
-884.96082 16469.13477 -140.15192 357
10.71957 1969.00317 131.98532 1000
60.90708 1845.21411 -49.85045 283
60.73909 1849.85779 -19.75511 491
61.08270 1855.90894 10.53784 445
60.53069 1862.18750 40.52128 383
72.40892 1845.12695 -49.51525 281
72.21663 1850.28784 -19.60178 481
72.48917 1855.88892 10.30534 478
72.44472 1861.29553 40.64610 440
387.52429 20228.45312 130.86179 1000
2165.35498 23365.38672 5196.61426 1000
1972.21631 16562.87695 -687.88379 1000
1871.60938 1887.42517 -40.35455 415
1898.97864 1892.63098 -85.32428 425
1874.39954 1867.30554 -39.67632 443
1901.39734 1871.32153 -84.02319 426
1879.34546 1849.48230 -38.89276 443
1897.67322 1844.88721 -82.43546 302
1884.86316 1832.44214 -38.57197 440
1890.56482 1815.02417 -80.27108 303
1890.75671 1815.28613 -37.80090 393
1892.86755 1795.18530 -78.71835 419
1898.67004 1801.15076 -37.68905 387
1897.48669 1777.23438 -78.22356 420
1907.91541 1787.54163 -37.14561 383
1901.89417 1759.77893 -77.57768 421
1915.90894 1773.88379 -36.86113 384
1906.40015 1742.96460 -76.88055 431
2036.81592 1867.17749 -46.77965 306
49684.86719 46792.08984 -11193.08691 1000
1913.82007 1728.90039 -76.19922 488
2061.16943 1867.43982 -48.54879 428
1921.14343 1714.46045 -75.63116 488
1928.82886 1699.70105 -75.64691 489
1935.84167 1685.12256 -75.17668 489
1943.58728 1671.45496 -75.17384 494
1951.92017 1658.32349 -74.39442 494
1959.42212 1644.99646 -74.01920 494
1967.52246 1631.63745 -74.32632 494
2026.87585 1682.65430 -37.98544 441
1976.18274 1618.29968 -73.56432 493
2036.19507 1669.96179 -37.86543 499
1984.56665 1605.57532 -73.62694 495
2046.67090 1658.23865 -38.22577 499
1993.41919 1592.35913 -73.31493 495
2057.75439 1646.18823 -38.58052 499
2002.38904 1580.23096 -73.42883 496
2011.42542 1567.71228 -73.71625 496
2021.05664 1555.55750 -73.14533 496
2030.33630 1544.11511 -73.75454 496
2040.49207 1531.93909 -73.77945 496
2112.62842 1588.62708 -38.63680 499
2049.92944 1520.48645 -73.26242 495
2123.40186 1576.66125 -38.39013 499
2060.47168 1509.02600 -73.46636 495
2129.56177 1561.65942 -38.07024 499
2181.20215 1601.11353 0.94889 388
2168.23193 1590.86902 87.33531 435
2070.41797 1497.03784 -73.30605 495
2176.57617 1577.08179 87.50212 483
2080.19409 1485.49817 -73.34189 495
2195.10791 1570.86353 87.43652 409
2090.38232 1473.96875 -74.09973 495
2198.89014 1553.36963 87.70815 498
2100.73145 1462.18713 -74.08140 495
2249.39404 1570.01550 173.95164 498
2110.54932 1450.61536 -74.03247 495
2120.87305 1438.75378 -73.89133 495
2204.57715 1498.22668 -40.04525 390
2131.26611 1427.49304 -74.16689 494
2175.26099 1457.76929 -36.83488 498
2141.31152 1415.66272 -74.24241 494
2185.76636 1445.91833 -36.61648 498
2151.64038 1404.05884 -74.30205 494
2161.99780 1392.22351 -74.62118 494
2172.10669 1380.39392 -75.02438 494
2181.60864 1368.65417 -74.67849 494
2351.15283 1479.39404 86.23534 497
2359.10547 1484.57483 130.41814 403
2192.23071 1356.98169 -74.79005 493
2252.81934 1395.66272 -38.64349 497
2267.00781 1404.83240 3.10518 323
2267.12036 1404.83752 45.28732 497
2269.58472 1406.77075 88.09406 484
2288.51880 1419.30530 173.19881 342
2202.14038 1345.26343 -75.08621 493
2212.39185 1333.11914 -75.21218 493
2222.95435 1321.38599 -75.85892 493
2233.18140 1309.80188 -75.95810 492
2243.34912 1297.66809 -75.83776 494
2253.85229 1285.84814 -76.53046 494
2264.43115 1273.84753 -76.64850 494
2275.16479 1261.77808 -76.77572 493
2285.20752 1250.33813 -77.15141 493
2295.76172 1238.25623 -77.26489 493
2306.43774 1225.63159 -77.29399 492
2435.87305 1297.36584 -45.53625 494
2317.00439 1214.01184 -77.84110 492
2414.35474 1266.34375 -43.38322 493
2327.36914 1201.85559 -77.88137 492
2337.93726 1189.81738 -78.13091 491
2348.44214 1177.50293 -78.24757 491
2363.06958 1167.36084 -79.44273 463
2379.25903 1158.01208 -80.41884 462
2395.38208 1147.95203 -81.16993 408
2415.87817 1140.38513 -81.95802 315
2182.35254 24.82669 -40.00065 356
2172.82568 12.06849 -39.44888 494
2178.71289 11.87248 -5.60467 497
2179.66333 -1.08486 -39.98362 368
4917.95166 -1311.78857 -113.94521 295
5060.28613 -1350.26111 -37.60700 450
4900.37793 -1338.53650 -113.44034 295
5031.91113 -1374.58960 -35.84434 388
4883.80859 -1365.93298 -113.13037 295
5160.38135 -1444.55078 -41.54421 470
4899.94727 -1402.96594 -115.03772 390
5129.14893 -1469.24011 -40.10097 444
4948.38672 -1448.94019 -34.96652 417
4913.18066 -1470.86572 -33.90860 400
4935.78564 -1509.92358 -34.44901 410
4966.14160 -1552.37402 -36.55048 366
5019.21289 -1603.27222 -37.38681 353
5076.16602 -1655.80762 -39.64503 352
5134.81934 -1708.84985 -42.46847 350
5193.66260 -1764.80017 -45.11100 349
5256.40137 -1821.77856 -48.28078 325
3416.67065 -1456.67932 -46.57491 477
3424.75952 -1460.23694 12.73185 371
3414.00879 -1479.80347 -46.74990 351
6091.06543 -3269.96729 1725.02136 1000
4002.48267 -2454.57202 -18.55758 314
4675.88965 -3243.63623 40.89776 342
4609.08838 -3238.16528 41.66735 465
4575.34619 -3257.30591 40.65045 454
4545.39502 -3276.37085 41.52905 420
4515.04150 -3296.83057 42.06551 431
4485.89551 -3317.97510 41.32499 405
4456.54834 -3338.16064 42.97978 407
4429.35352 -3359.21533 42.04106 358
4403.90381 -3380.98169 43.18277 359
4377.26465 -3404.48315 42.17513 359
4386.94531 -3410.85889 132.73973 498
4352.10693 -3427.38452 43.26003 360
4363.14111 -3434.81128 131.99568 498
4326.36523 -3448.29883 42.12288 361
4339.88037 -3459.98950 131.71855 498
4299.60645 -3471.45166 42.65990 361
4315.47559 -3483.69653 131.94516 499
4274.44434 -3493.66626 42.64702 362
4287.82959 -3503.83984 132.31865 499
4249.21777 -3515.19922 43.62958 363
4264.53076 -3528.97729 131.57048 499
4223.17773 -3538.19092 42.68340 363
4294.34131 -3597.65137 130.53203 299
4198.75439 -3560.51123 42.49119 355
4221.52197 -3579.68921 132.10008 499
4318.13135 -3663.51221 223.85338 499
4174.21338 -3583.75024 43.52208 419
4197.35986 -3604.46216 131.73123 499
4257.54639 -3656.34912 222.58730 499
4149.87207 -3606.48877 43.02464 419
4174.90186 -3627.97925 132.77896 499
4183.52734 -3635.88452 221.00288 488
4125.88818 -3629.56177 43.59037 419
4331.40820 -3815.24463 131.95135 484
4100.50635 -3652.76514 42.77331 419
4187.40381 -3731.12549 223.41133 498
5800.00391 -5201.41064 892.66168 1000
4077.08350 -3675.33301 42.89144 419
3979.93823 -3766.84424 42.90765 441
4097.90918 -3882.52734 131.34865 389
3955.15649 -3790.33472 43.25433 441
3932.41821 -3813.56787 44.23734 479
3909.03125 -3836.50806 43.36643 479
3885.62720 -3860.56079 43.23932 435
3931.96143 -3955.46387 42.13671 282
3898.19604 -3969.30908 42.50810 470
3910.10547 -3982.98047 132.49315 277
3848.05127 -3966.55713 131.79694 452
2659.11133 -3392.90869 62.21000 493
1933.35498 -2884.97998 75.87133 329
1881.39221 -2841.67822 76.80947 273
1831.79492 -2800.47314 78.15768 302
1786.65320 -2765.78662 79.13995 339
1743.03748 -2731.85645 79.97248 341
1738.44836 -2762.69482 26.85197 338
1702.54089 -2701.62427 80.62064 342
1701.25659 -2737.77490 27.89278 339
1665.24805 -2676.91431 80.60113 344
1662.53613 -2710.02832 29.40344 330
1626.99731 -2647.40894 81.46750 355
1633.41235 -2659.46094 131.41081 348
1635.13940 -2675.24414 35.26904 335
1602.66711 -2619.71191 87.04098 387
1608.09753 -2628.98413 136.81416 389
1600.46326 -2652.18726 36.64751 341
1574.04138 -2605.81665 87.76956 402
1584.06628 -2623.55493 136.34030 478
1569.79565 -2637.38599 37.53243 362
1546.46753 -2595.91919 87.49993 406
1564.46411 -2626.28662 136.91646 460
1542.07349 -2624.67554 38.00013 372
1521.04688 -2587.20190 87.85722 415
1551.57410 -2642.42554 137.03815 458
1516.56335 -2616.99683 38.94894 376
1496.34216 -2579.07886 88.57175 421
1539.42651 -2657.94360 137.07263 458
1491.21179 -2608.28174 39.49274 376
1472.53540 -2573.63623 89.06401 433
1526.49731 -2673.96069 136.61353 457
1466.39941 -2600.31592 40.46384 383
1450.12439 -2568.77148 88.98343 441
1514.76672 -2690.10986 136.27982 457
1443.03699 -2595.32300 40.69257 396
1427.94812 -2564.67773 88.84068 435
1501.84094 -2706.22363 136.97372 456
1420.69238 -2590.90405 41.49095 406
1405.65845 -2560.81372 89.02551 436
1488.19104 -2722.44116 136.94617 455
1411.81616 -2611.72803 40.87598 290
1384.10889 -2557.38379 89.90218 436
1475.97913 -2738.75903 136.53171 455
1402.95789 -2633.84106 40.14327 290
1363.01538 -2554.32324 90.02224 439
1463.18738 -2754.96875 136.84918 454
1393.74280 -2657.16260 39.90049 285
1342.41211 -2551.99756 89.57490 443
1508.68347 -2889.37671 126.43902 477
1322.44678 -2550.69653 89.90223 439
1446.43127 -2806.72339 136.44560 337
1301.98535 -2549.39575 90.59123 407
12355.20508 -63215.03906 225.77505 1000
-499.89392 -2990.40503 235.18152 376
-499.68619 -2985.97363 285.31659 437
-498.17862 -2982.26489 334.69626 479
-521.33862 -2279.86060 95.74468 484
-521.00824 -2277.89038 134.49850 484
-520.44220 -2276.25342 172.95322 499
-519.59802 -2273.88574 211.43945 499
-519.19788 -2272.44067 249.95569 490
-518.81763 -2271.01172 288.48996 490
-516.29987 -1554.66321 270.61600 348
-514.92877 -1551.57568 297.88489 414
-529.03717 -1559.85559 78.22408 492
-528.21429 -1557.75928 105.77647 493
-527.64148 -1555.78882 133.34764 498
-527.05969 -1554.23572 160.82748 498
-526.28766 -1552.35071 188.07996 479
-525.67865 -1551.14917 215.50929 479
-525.04010 -1549.64709 243.13240 437
-524.64746 -1548.32886 270.36414 437
-524.27917 -1547.87671 297.63712 376
-10185.45996 -16428.34961 -1761.92236 1000
90.09061 -3.01615 127.79295 349
90.09218 -3.01669 128.02888 350
90.09086 -3.01592 128.26414 350
90.20399 -2.90321 127.81460 351
90.20482 -2.90388 128.04875 351
90.20415 -2.90409 128.28336 352
89.64967 -3.10973 128.38547 302
90.31377 -2.79463 127.83679 352
90.31387 -2.79408 128.07147 352
90.31506 -2.79320 128.30072 353
89.68349 -3.02263 128.38568 302
88.55289 -3.43029 128.38686 298
90.42225 -2.68417 127.85797 353
90.42233 -2.68570 128.09048 354
90.42210 -2.68455 128.31879 354
89.71756 -2.93498 128.38751 302
88.58498 -3.33668 128.38611 298
90.52737 -2.57938 127.87943 355
90.52782 -2.57886 128.10815 355
90.52953 -2.57842 128.33792 356
89.75494 -2.84699 128.38539 302
88.61778 -3.24291 128.38707 298
90.63441 -2.47356 127.89735 356
90.63501 -2.47393 128.12753 357
90.63449 -2.47427 128.35300 357
89.79063 -2.76255 128.38652 302
88.65437 -3.15003 128.38608 298
90.73560 -2.37101 127.91651 357
90.73716 -2.37154 128.14449 358
90.73830 -2.37099 128.36940 358
89.82760 -2.67426 128.38551 302
88.68935 -3.05599 128.38708 298
90.83676 -2.26951 127.93633 359
90.83920 -2.26906 128.16156 359
90.83943 -2.26890 128.38441 360
89.86443 -2.58694 128.38612 302
88.72600 -2.95930 128.38609 298
90.93828 -2.17006 127.95376 360
90.93842 -2.16932 128.17841 361
90.88119 -2.18721 128.38635 306
89.90192 -2.50276 128.38635 302
88.76186 -2.86575 128.38629 298
91.03763 -2.07073 127.97114 361
91.03608 -2.07134 128.19325 362
90.92145 -2.10752 128.38608 306
89.93982 -2.41559 128.38580 302
88.80077 -2.77182 128.38676 298
87.45403 -3.19509 128.38707 294
91.13510 -1.97398 127.98594 363
91.13448 -1.97450 128.20934 363
90.96078 -2.02800 128.38678 306
89.97906 -2.32692 128.38641 302
88.83725 -2.68011 128.38661 298
87.49100 -3.09185 128.38606 294
91.22961 -1.87718 128.00233 364
91.23044 -1.87891 128.22279 364
91.00034 -1.94554 128.38725 306
90.01861 -2.24290 128.38594 302
88.87495 -2.58283 128.38721 298
87.52838 -2.98757 128.38626 294
91.32387 -1.78402 128.01762 365
91.32402 -1.78305 128.23730 366
91.04066 -1.86641 128.38754 306
90.05946 -2.15409 128.38649 302
88.91338 -2.49039 128.38591 298
87.56718 -2.88563 128.38652 294
91.36337 -1.70456 128.01807 457
91.36382 -1.70645 128.23738 457
91.08222 -1.78720 128.38588 306
90.09904 -2.06794 128.38632 302
88.95467 -2.39430 128.38783 298
87.60338 -2.78437 128.38695 294
91.38223 -1.63342 128.01236 457
91.38331 -1.63185 128.23201 458
91.12341 -1.70529 128.38571 306
90.14093 -1.98177 128.38654 302
88.99306 -2.30232 128.38657 298
87.64362 -2.68046 128.38596 294
91.40267 -1.55998 128.00673 458
91.40192 -1.56044 128.22624 459
91.16679 -1.62623 128.38663 306
90.18194 -1.89562 128.38788 302
89.03416 -2.20820 128.38678 298
87.68397 -2.57859 128.38753 294
91.42252 -1.48926 128.00104 459
91.42264 -1.48758 128.22055 460
91.21039 -1.54557 128.38539 306
90.22429 -1.80893 128.38553 302
89.07665 -2.11209 128.38756 298
87.72215 -2.47548 128.38705 294
91.44278 -1.41574 127.99475 460
91.44206 -1.41485 128.21265 460
91.25159 -1.46480 128.38609 306
90.26616 -1.72016 128.38666 302
88.15935 -2.26977 128.19078 371
87.76560 -2.37115 128.38646 294
91.46110 -1.34355 127.98746 460
91.46049 -1.34243 128.20766 461
91.29642 -1.38598 128.38672 306
90.30967 -1.63471 128.38605 302
87.98685 -2.22483 128.14410 369
87.80675 -2.27130 128.38496 294
86.18347 -2.68135 128.38823 290
91.48035 -1.27144 127.97988 461
91.48055 -1.27008 128.20241 462
91.34029 -1.30534 128.38765 306
90.35339 -1.54943 128.38530 302
87.80923 -2.17586 128.10089 368
87.81010 -2.17711 128.37909 368
86.22742 -2.56743 128.38678 290
91.50078 -1.19652 127.97379 462
91.50014 -1.19738 128.19585 463
91.38492 -1.22401 128.38588 306
90.39849 -1.46112 128.38707 302
87.62876 -2.12709 128.05646 367
87.62708 -2.12756 128.33798 367
86.26617 -2.45512 128.38837 290
91.51859 -1.12375 127.96727 462
91.51987 -1.12276 128.18864 463
91.43072 -1.14588 128.38741 306
90.44275 -1.37559 128.38582 302
87.44337 -2.07745 128.00845 365
87.44189 -2.07948 128.29550 366
86.31084 -2.34133 128.38631 290
91.53997 -1.05063 127.96197 463
91.53982 -1.05135 128.18222 464
91.47592 -1.06417 128.38565 306
90.48810 -1.29020 128.38678 302
87.24924 -2.02558 127.96032 364
87.25072 -2.02676 128.24886 364
86.35533 -2.22886 128.38618 290
91.55798 -0.97664 127.95359 464
91.56039 -0.97658 128.17505 465
91.52320 -0.98377 128.38612 306
90.53393 -1.20405 128.38599 302
87.11224 -1.96064 127.92532 456
87.11022 -1.95926 128.21524 457
86.39680 -2.11713 128.38550 290
91.57963 -0.90239 127.94807 464
91.57888 -0.90141 128.16852 465
91.56850 -0.90460 128.38722 306
90.57990 -1.11758 128.38605 302
87.03049 -1.87985 127.89680 455
87.02910 -1.87786 128.19336 456
86.44437 -2.00196 128.38568 290
91.59887 -0.82949 127.94006 465
91.59801 -0.82790 128.16255 466
91.59850 -0.82774 128.38123 467
90.62685 -1.03114 128.38716 302
86.94592 -1.79679 127.87366 455
86.94637 -1.79777 128.17030 455
86.48988 -1.89007 128.38518 290
91.61824 -0.75384 127.93361 466
91.62022 -0.75410 128.15468 467
91.61929 -0.75294 128.37570 468
90.67414 -0.94398 128.38588 302
86.86401 -1.71603 127.84680 454
86.86510 -1.71278 128.14537 454
86.53745 -1.77920 128.38815 290
91.64027 -0.67949 127.92638 466
91.63763 -0.67971 128.14850 467
91.63959 -0.67960 128.36914 468
90.72262 -0.85842 128.38754 302
86.77871 -1.62961 127.81940 453
86.78140 -1.62957 128.12001 454
86.58361 -1.66655 128.38631 290
91.65828 -0.60379 127.91917 467
91.65824 -0.60394 128.14113 468
91.65923 -0.60342 128.36320 469
90.77165 -0.77138 128.38629 302
86.69421 -1.54476 127.79614 452
86.69435 -1.54136 128.09770 453
86.63100 -1.55546 128.38643 290
91.67953 -0.52940 127.91036 468
91.67944 -0.52944 128.13472 469
91.67998 -0.52968 128.35622 470
90.82046 -0.68593 128.38657 302
86.70657 -1.43750 127.78714 298
86.60844 -1.45628 128.07088 452
86.60702 -1.45593 128.37567 452
91.70068 -0.45460 127.90262 468
91.69953 -0.45552 128.12576 469
91.69946 -0.45362 128.34789 470
90.87054 -0.60202 128.38692 302
86.75236 -1.32617 127.78569 298
86.51981 -1.36879 128.04594 451
86.52007 -1.36758 128.34979 452
91.71811 -0.37912 127.89600 469
91.72080 -0.37926 128.11996 470
91.71873 -0.37886 128.34036 471
90.92080 -0.51586 128.38739 302
86.79861 -1.21639 127.78739 298
86.42979 -1.27881 128.02245 450
86.42854 -1.27978 128.32640 451
91.73926 -0.30414 127.88839 470
91.74020 -0.30343 128.11201 471
91.73924 -0.30285 128.33337 471
90.97230 -0.42960 128.38734 302
86.84513 -1.10441 127.78818 298
86.33723 -1.18861 127.99713 449
86.33882 -1.18591 128.30275 450
91.75931 -0.22851 127.87908 470
91.76092 -0.22725 128.10390 471
91.76131 -0.22765 128.32613 472
91.02380 -0.34303 128.38734 302
86.89442 -0.99242 127.78583 298
86.28558 -1.08939 127.97728 494
86.28607 -1.08888 128.28859 495
91.78107 -0.15255 127.87220 471
91.78104 -0.15115 128.09633 472
91.78062 -0.15031 128.32008 473
91.07582 -0.25811 128.38716 302
86.94435 -0.88382 127.78904 298
86.25938 -0.98393 127.96434 494
86.25916 -0.98609 128.27344 495
91.80093 -0.07617 127.86420 471
91.80054 -0.07579 128.08907 472
91.80118 -0.07433 128.31178 473
91.12647 -0.17208 128.38622 302
86.99323 -0.77112 127.78905 298
86.23236 -0.88319 127.94734 494
86.23286 -0.88100 128.25874 494
91.82039 0.00193 127.85423 489
91.82054 0.00054 128.08055 490
91.82101 0.00126 128.30487 491
91.17900 -0.08792 128.38736 302
87.04350 -0.66186 127.78645 298
86.20256 -0.77496 127.93572 494
86.20362 -0.77763 128.24852 494
85.05514 -0.93307 128.38768 286
91.80166 0.07172 127.83637 489
91.80166 0.07315 128.06227 490
91.80173 0.07285 128.28822 491
91.23286 -0.00122 128.38647 302
87.09617 -0.55050 127.78782 298
86.17776 -0.67135 127.91715 493
86.17510 -0.66939 128.23303 494
85.10889 -0.81240 128.38785 286
91.78169 0.14567 127.81727 489
91.78153 0.14494 128.04356 490
91.78215 0.14374 128.26923 491
91.28622 0.08353 128.38641 302
87.14769 -0.43682 127.78606 298
86.14535 -0.56344 127.90394 493
86.14748 -0.56558 128.22014 494
85.16512 -0.68920 128.38739 286
91.76245 0.21910 127.79839 489
91.76260 0.21933 128.02625 490
91.76231 0.21789 128.25278 490
91.34202 0.16722 128.38579 302
87.20033 -0.32976 127.78733 298
86.11971 -0.45678 127.89123 493
86.11923 -0.45710 128.20413 494
85.22254 -0.56400 128.38576 286
91.74284 0.29147 127.77806 488
91.74314 0.29178 128.00865 489
91.74231 0.29174 128.23482 490
91.39630 0.25189 128.38612 302
87.25468 -0.21825 127.78893 298
86.09012 -0.35113 127.87558 493
86.09171 -0.34966 128.19000 493
85.27921 -0.44195 128.38470 286
91.72393 0.36699 127.75784 488
91.72295 0.36589 127.98898 489
91.72269 0.36550 128.21925 490
91.45229 0.33780 128.38625 302
87.30529 -0.10746 127.78695 298
86.06035 -0.24137 127.85945 493
86.06155 -0.24187 128.17653 493
85.33725 -0.31660 128.38730 286
-2002.20056 -224.19298 96.71841 486
-2006.52637 -224.47688 131.31264 402
91.70240 0.44208 127.73880 488
91.70307 0.44258 127.97138 489
91.70267 0.44331 128.20064 490
91.50806 0.42245 128.38652 302
87.36198 0.00279 127.78777 298
86.03247 -0.13110 127.84290 492
86.03043 -0.13156 128.16342 493
85.39282 -0.19506 128.38863 286
-2004.05078 -211.32014 96.67936 452
-2007.58728 -211.84503 131.08775 484
-2010.92932 -211.67017 166.07565 394
91.68240 0.51724 127.71960 488
91.68182 0.51777 127.95248 489
91.68129 0.51885 128.18263 490
91.56594 0.50703 128.38774 302
87.41470 0.11336 127.78652 298
86.00161 -0.01816 127.82655 492
86.00100 -0.01910 128.14972 493
85.45414 -0.07477 128.38510 286
91.66087 0.59440 127.69807 487
91.66127 0.59470 127.93250 488
91.66194 0.59351 128.16528 489
91.62106 0.59148 128.38751 302
87.47346 0.22260 127.78850 298
86.01982 0.09472 127.82230 481
86.02211 0.09445 128.14180 481
85.51462 0.05133 128.38800 286
-2705.08862 -247.02267 131.24953 481
-2713.25171 -247.65616 177.72433 390
91.63953 0.67217 127.67902 487
91.64103 0.67261 127.91283 488
91.63991 0.67269 128.14682 489
91.63972 0.67237 128.37730 490
90.53114 0.57991 128.38780 298
86.05490 0.21206 127.81518 481
86.05238 0.21478 128.13885 482
85.57664 0.17270 128.38536 286
-2711.22412 -230.42030 131.35074 405
91.61904 0.75131 127.65791 487
91.62083 0.75022 127.89362 488
91.61897 0.75086 128.12907 489
91.61976 0.75195 128.36218 490
90.58847 0.67277 128.38757 298
86.08127 0.32886 127.80998 482
86.08470 0.33025 128.13518 482
85.63567 0.29541 128.38634 286
-3431.79517 -267.39911 131.70235 398
91.59921 0.83056 127.63565 487
91.59824 0.83104 127.87411 488
91.59992 0.82970 128.10925 489
91.59988 0.83008 128.34430 489
90.64897 0.76459 128.38522 298
86.11406 0.44655 127.80856 482
86.11553 0.44586 128.12825 483
85.69798 0.41607 128.38733 286
91.57726 0.90851 127.61525 486
91.57804 0.90995 127.85378 487
91.57697 0.91167 128.09050 488
91.57597 0.90991 128.32678 489
90.70908 0.85351 128.38588 298
86.14666 0.56143 127.80007 483
86.14600 0.56175 128.12410 483
85.75993 0.53767 128.38792 286
91.55550 0.98940 127.59468 486
91.55561 0.99194 127.83344 487
91.55528 0.99051 128.07205 488
91.55550 0.98927 128.30887 489
90.76994 0.94645 128.38615 298
86.17873 0.68323 127.79789 483
86.17884 0.68251 128.11905 484
85.82278 0.66106 128.38814 286
91.53239 1.07310 127.57355 486
91.53328 1.07209 127.81462 487
91.53352 1.07316 128.05273 488
91.53455 1.07329 128.29216 488
90.82986 1.03629 128.38768 298
86.20840 0.79889 127.79136 483
86.20834 0.79900 128.11247 484
85.88988 0.78264 128.38757 286
91.51087 1.15418 127.55135 485
91.51150 1.15620 127.79309 486
91.51244 1.15487 128.03549 487
91.51242 1.15495 128.27415 488
90.89245 1.12622 128.38599 298
86.25569 0.91714 127.78558 294
86.24182 0.91810 128.10835 485
85.95262 0.90425 128.38573 286
91.48904 1.23886 127.52932 485
91.48784 1.23872 127.77393 486
91.48898 1.23932 128.01523 487
91.48833 1.23928 128.25563 488
90.95446 1.21818 128.38699 298
86.31780 1.03538 127.78945 294
86.27145 1.03430 128.10329 485
86.02068 1.02407 128.38809 286
91.46787 1.32314 127.50977 485
91.46695 1.32394 127.75288 486
91.46591 1.32185 127.99595 487
91.46587 1.32257 128.23753 487
91.01674 1.30682 128.38741 298
86.37793 1.15342 127.78573 294
86.30183 1.15221 128.09734 486
86.08604 1.14643 128.38547 286
91.44385 1.40628 127.48641 484
91.44357 1.40701 127.73286 485
91.44281 1.40715 127.97648 486
91.44425 1.40704 128.21942 487
91.07841 1.39851 128.38588 298
86.44376 1.27453 127.78922 294
86.42228 1.27199 128.10649 419
86.15473 1.26500 128.38773 286
91.42202 1.49318 127.46497 484
91.42005 1.49272 127.71077 485
91.42077 1.49257 127.95599 486
91.42128 1.49409 128.19954 487
91.14204 1.48792 128.38550 298
86.54379 1.39321 127.79353 420
86.54373 1.39298 128.11571 420
86.22189 1.38408 128.38699 286
91.39757 1.57929 127.44093 484
91.39760 1.57968 127.69175 485
91.39697 1.57886 127.93621 486
91.39785 1.57884 128.18237 486
91.20813 1.57748 128.38725 298
86.66375 1.51132 127.80210 421
86.66158 1.51119 128.12349 421
86.29156 1.50495 128.38696 286
91.37455 1.66933 127.41860 483
91.37508 1.66785 127.66962 484
91.37309 1.66813 127.91694 485
91.37360 1.66888 128.16150 486
91.27087 1.66717 128.38687 298
89.92957 1.65567 128.38789 294
86.77949 1.62892 128.13393 422
86.36244 1.62568 128.38661 286
91.35128 1.75636 127.39571 483
91.35181 1.75682 127.64670 484
91.35133 1.75729 127.89769 485
91.35155 1.75688 128.14397 486
91.33789 1.75690 128.38757 298
89.99770 1.75467 128.38753 294
86.89849 1.74735 128.13892 424
86.42949 1.74610 128.38857 286
