# .PCD v.7 - Point Cloud Data file format
VERSION .7
FIELDS x y z rgb
SIZE 4 4 4 4
TYPE F F F U
COUNT 1 1 1 1
WIDTH 670
HEIGHT 1
VIEWPOINT 4171.112793 -4089.468506 128.601074 -0.003037 -0.122437 0.010302 0.992418
POINTS 670
DATA ascii
-60066.21484 983.32635 7081.83594 1000
-276.50214 58.38988 33.51865 319
-270.26682 59.69691 35.02426 326
-284.72968 62.00193 37.72104 323
-265.80646 61.13562 36.17443 350
-280.36923 63.70766 38.81003 347
-296.53943 66.43571 41.42858 341
-263.96552 63.03459 36.53823 351
-278.41574 65.60643 39.19730 345
-294.80649 68.60706 41.71096 319
-262.02380 64.95193 37.05194 351
-276.64883 67.66832 39.48388 345
-299.15958 71.76084 40.65882 258
-260.06836 66.78563 37.40191 351
-276.94315 70.02850 39.33301 321
-258.86023 68.74618 37.63785 325
-278.84879 72.66315 38.78219 318
-260.73306 71.39824 37.01494 322
-262.68909 74.05277 36.36528 321
-268.00247 77.47234 34.71992 261
-45263.55469 13941.87402 -11745.45508 1000
-59314.85156 23610.48047 4325.83057 1000
-58198.83203 36733.11719 125.37748 1000
-36512.10938 26343.94336 9865.24609 1000
-277.44803 1943.41370 -30.22401 451
-278.37073 1950.02039 1.81046 393
-265.04657 1942.57825 -29.71768 498
-266.06281 1948.65759 2.57606 486
-266.93936 1954.36633 34.72385 450
-254.23129 1952.72131 -30.55586 395
1194.72705 15431.17383 -122.47523 469
1189.20374 15346.04492 129.50664 282
1284.28809 15393.09863 -125.07626 473
1280.57544 15309.76172 131.39502 487
1378.59009 15356.66113 -121.88671 476
1372.22498 15279.38672 127.27766 488
1470.09753 15325.01367 -123.95969 476
1461.23181 15242.27344 128.01398 488
229.03989 1454.56384 -11.57960 378
229.69638 1461.30383 12.16384 306
1561.11646 15295.41309 -121.49066 477
1554.92676 15215.72461 129.57764 489
237.42331 1448.24561 -10.64853 479
237.85394 1452.27466 12.91944 479
237.97728 1456.67432 36.70137 479
238.38165 1460.63245 60.22335 476
1655.35571 15267.12891 -123.04827 477
1645.85059 15184.60840 127.67323 489
246.03159 1447.27405 -10.81753 492
246.71693 1451.65356 12.71225 492
247.17873 1456.38269 36.37524 463
247.91037 1461.99390 60.30656 419
1746.74231 15233.79590 -119.09953 477
1735.87744 15152.94434 128.46672 489
255.71767 1452.38501 -11.60952 411
1837.00330 15203.92285 -121.53762 478
1826.31848 15120.66895 130.75163 490
1924.99866 15174.25586 -121.81188 478
1916.17090 15091.91504 127.55753 490
2017.18774 15140.77344 -119.90695 478
2008.05554 15061.62402 128.63356 490
2109.34912 15112.80176 -118.27842 478
2097.75342 15028.93066 130.52332 490
2199.53711 15083.19922 -119.67280 479
2188.33789 14999.66113 131.43158 491
2289.27637 15050.76660 -120.78477 479
2278.50024 14970.79980 127.78658 491
2379.51221 15022.55176 -117.80005 479
2367.24512 14940.35352 130.52780 491
2469.23096 14989.41504 -119.47301 480
2454.49536 14910.75391 131.59047 492
2558.25220 14959.22559 -120.09068 480
2545.43994 14878.24414 132.10066 492
2645.38892 14932.00586 -116.61158 480
2634.08374 14848.97461 127.96223 492
2736.07178 14900.75977 -117.09034 480
2723.23218 14818.36719 130.54182 492
2824.29321 14869.88672 -117.92783 480
2810.15356 14789.27832 130.59645 493
5806.93457 30047.04297 -7534.44824 1000
2914.72607 14839.72656 -117.20364 481
2897.52051 14761.02051 128.47368 493
3000.71484 14812.62793 -114.86198 481
2986.26685 14728.63477 131.87360 493
3088.55542 14778.87598 -117.22155 481
3074.05322 14700.24121 129.02315 493
4325.95215 20228.96680 -1225.33801 1000
3177.93188 14751.77246 -115.22030 481
3161.43042 14670.98340 132.01303 493
3267.60571 14720.93164 -115.65726 481
3251.24683 14639.59570 129.05533 494
3356.32690 14689.89062 -115.12573 481
3335.38428 14608.97363 128.86000 494
3444.02002 14663.68750 -116.56430 482
3423.47168 14581.41992 129.76607 494
3531.90747 14633.42285 -116.00979 482
3513.49390 14553.18066 132.36511 494
3618.21191 14602.07227 -116.38259 482
3599.29443 14522.45117 129.39439 494
3704.31055 14574.62988 -114.61037 482
3685.65894 14493.83398 132.55705 494
3792.35205 14545.79883 -114.24718 482
3772.11230 14463.30371 132.44295 494
3879.22144 14514.63965 -116.65601 482
3859.81177 14434.04297 129.06560 495
3970.16968 14483.23828 -116.32335 482
3945.46582 14403.72559 130.37991 491
4056.57886 14457.03516 -112.89251 482
4032.09546 14374.46094 129.49852 492
4142.43213 14426.79395 -116.50910 482
4122.18555 14344.74902 131.24117 492
4230.95850 14399.27734 -116.14439 483
4206.01953 14317.54688 130.83820 492
4316.57812 14369.75195 -114.07868 483
4293.91064 14286.63770 128.97154 492
10521.69434 35445.72266 8743.08301 1000
4405.11865 14337.58398 -113.77224 483
4381.09961 14258.30566 132.23978 492
4588.63428 14953.53223 386.89853 494
4593.12744 14958.66797 643.71808 413
4491.30811 14311.20801 -115.06489 483
4468.89355 14231.46191 131.53618 492
4673.53125 14904.15430 384.09735 494
4676.60254 14905.01562 639.66833 414
4580.87109 14280.87500 -112.42765 483
4553.10059 14201.48535 129.84288 492
4762.32373 14856.31543 385.40463 494
4759.96045 14860.68945 642.47394 494
4667.39893 14249.25879 -115.56841 483
4641.77588 14173.22559 131.58975 492
4847.53027 14808.95215 384.51456 495
4845.43555 14814.15527 639.65094 494
4753.97656 14222.15723 -113.81322 483
4726.22363 14140.70508 131.68303 492
4931.06299 14764.09863 383.20023 495
4930.08301 14766.64648 638.61005 495
4841.45312 14192.62988 -113.83885 483
4812.54785 14115.08301 130.01118 492
5017.33105 14713.43945 386.17715 495
5015.41895 14717.67871 641.21161 495
5502.63379 16170.58203 3522.89600 1000
4927.75342 14163.54590 -114.81599 483
4898.51855 14084.33398 132.47159 492
4909.67920 14110.87207 376.71307 387
5101.60400 14669.65137 639.52710 495
5015.47119 14132.52637 -113.92955 483
4985.29248 14054.64941 130.70979 492
4993.57373 14074.26074 373.89032 387
5185.98828 14625.18848 638.00116 496
5103.37207 14103.11035 -114.77233 483
5072.49658 14026.31543 132.97763 492
5080.35986 14043.81738 373.39044 438
5269.22021 14579.08984 636.12384 496
5189.83691 14074.90527 -113.21403 483
5160.77783 13995.34766 130.83968 492
5164.77930 14014.92090 375.59335 431
5354.45312 14536.89551 639.04138 499
5276.79688 14044.46289 -114.44460 483
5244.79688 13968.25098 130.39191 492
5252.56787 13988.97461 375.62598 431
5444.66943 14503.73242 637.70459 499
5361.81152 14014.86816 -115.05782 483
5332.49414 13940.64746 129.90633 492
5342.19336 13962.70020 374.29556 431
5531.81299 14472.85156 636.04993 499
5451.05029 13986.57129 -112.71326 483
5421.63184 13910.75391 132.58235 492
5623.13770 14437.52734 384.84464 499
5624.84619 14437.91406 638.58411 499
5538.73242 13956.55273 -115.33841 481
5508.56152 13879.77441 133.54095 492
5709.39600 14402.68750 383.59177 481
5712.74072 14405.29883 639.28937 499
5623.38037 13930.31445 -112.28788 481
5595.37744 13852.79785 132.84592 492
5786.00781 14331.52051 384.02515 482
5801.40088 14374.65332 640.23376 499
5710.02197 13901.47461 -113.70618 481
5682.52490 13821.45996 131.95052 491
5859.36670 14264.80566 384.59418 483
5891.17432 14344.47266 640.34296 499
5798.46045 13871.48633 -114.68190 481
5766.71533 13793.85645 131.99141 491
5931.78369 14193.40332 381.98886 483
5982.94189 14312.35059 640.57611 499
5886.69043 13841.15137 -112.03456 481
5854.17627 13764.31738 130.35829 491
6006.49951 14123.49902 384.53687 484
6026.96875 14179.16504 635.89795 496
5973.86084 13814.07422 -115.78783 481
5941.86768 13735.86914 131.69302 491
6078.51172 14056.25195 383.48572 484
6120.00000 14152.31250 635.08472 497
6064.21240 13783.92480 -113.78712 480
6028.45947 13703.78223 133.76506 491
6151.95068 13990.14258 382.80664 485
6208.54541 14121.44727 636.27539 497
6268.80518 14259.54492 896.73865 498
6149.36377 13752.49023 -112.94840 480
6117.16357 13674.59961 130.92839 491
6233.73730 13938.12305 382.08591 499
6296.46680 14086.35742 636.01538 497
6358.13867 14226.65039 894.96924 498
6420.89502 14372.32422 1162.09399 482
6237.41943 13725.42480 -114.59405 480
6205.15381 13647.40918 133.21771 491
6321.69238 13908.69434 380.36359 499
6387.38818 14053.74121 634.49591 492
6447.98584 14192.14258 896.02240 498
6504.43408 14322.10742 1161.80798 475
6326.53418 13692.48926 -114.19770 480
6290.31055 13618.12598 133.96927 491
6408.51709 13873.66406 380.12692 499
6473.90625 14020.52637 637.45599 492
6537.68018 14157.30078 895.50897 469
6412.64941 13664.73145 -115.81847 480
6377.38281 13586.05273 132.36853 490
6497.32764 13844.76172 380.84247 498
6601.42480 14072.94238 637.65436 469
6603.44434 14073.16992 894.02911 469
6625.79150 14118.50977 1152.77039 372
6500.55273 13636.55469 -112.53354 480
6467.80273 13558.37988 130.53824 490
6586.56982 13809.94629 380.95300 498
6669.05078 13988.54785 637.88129 470
6668.85596 13987.69629 892.86261 470
6681.77979 14019.96094 1148.70178 373
6591.07520 13607.40723 -112.83685 480
6554.21631 13530.58105 130.76633 490
6672.08887 13781.43848 380.67596 498
6733.08545 13901.63770 635.56500 471
6732.78662 13901.97070 888.40466 471
6742.11865 13924.00195 1145.79163 373
6680.49854 13574.47656 -115.49554 479
6641.09229 13500.59277 132.71799 490
6764.16895 13746.66113 381.95975 498
6797.29443 13818.24707 634.52313 472
6796.81641 13813.15430 887.25403 471
6800.71631 13831.66211 1138.37341 374
7145.45801 14534.80273 1456.70178 371
6769.69482 13546.76660 -113.46140 479
6729.53271 13470.91016 133.25522 490
6735.63477 13479.11230 378.15433 295
6874.53906 13762.63379 636.57867 498
6873.90381 13764.28223 885.87372 497
6881.97510 13778.74316 1139.07886 390
7028.88818 14073.70410 1418.51562 478
7242.28320 14509.79590 1991.37183 468
6858.07178 13514.94141 -114.75769 479
6818.56934 13441.37988 131.83842 490
6818.14990 13435.23730 378.51956 295
6963.07812 13728.60840 635.88898 497
6955.24658 13715.77832 886.52142 305
6970.26807 13746.83594 1137.82068 390
7057.61670 13916.71094 1408.91858 474
7058.74805 13924.74707 1667.58411 473
7068.67236 13938.68262 1926.96301 345
6946.31641 13487.19238 -116.20779 479
6908.19922 13409.18359 133.37813 489
6897.41260 13397.01270 377.06586 301
7040.34424 13671.86230 636.56744 497
7041.22510 13675.41992 887.09076 497
7060.13428 13710.78223 1142.58691 390
7207.46777 14003.60645 1418.86133 478
7036.22412 13455.86719 -116.47906 479
6993.31787 13380.24609 133.53781 489
6982.00342 13355.62793 379.37842 301
7127.98730 13640.18848 637.05072 497
7129.50000 13643.34277 887.00940 497
7147.58594 13676.83398 1142.85303 390
7273.01807 13918.69043 1417.76624 467
7126.00732 13429.24902 -114.27307 478
7085.01807 13350.81445 130.93526 489
7067.20654 13319.42480 379.17087 422
7219.81836 13608.13867 634.61560 497
7219.12695 13609.38184 889.31476 497
7237.72949 13640.16309 1142.65723 496
7391.02441 13935.13965 1422.62244 469
7211.43652 13398.16406 -116.85874 478
7173.48389 13319.14941 132.75807 489
7153.72559 13288.05078 376.99826 422
7307.30615 13575.62988 638.06348 497
7307.52686 13580.45996 889.39618 496
7327.47314 13610.57422 1142.36169 496
7482.11670 13904.93945 1425.27100 469
7304.42920 13366.50000 -115.61086 478
7262.83643 13290.77734 132.62686 488
7240.16406 13255.00977 379.46976 422
7399.29346 13543.58105 636.42419 496
7398.81836 13544.83496 890.13336 496
7417.18945 13576.73242 1143.77612 496
7574.92188 13868.22949 1426.28027 468
7393.42236 13340.06055 -114.43455 478
7352.18115 13262.15820 132.18773 488
7330.27295 13222.72754 377.62393 461
7489.17920 13512.73535 637.51031 496
7490.43457 13515.28809 889.81763 496
7506.29785 13546.02246 1142.65857 496
7664.93311 13834.53516 1424.39062 468
7481.67334 13305.86719 -117.22216 477
7441.94434 13231.48340 130.99989 488
7419.01172 13191.90820 381.82587 444
7577.94629 13480.79785 635.47119 496
7581.34570 13483.61719 889.99585 496
7594.53271 13509.48340 1146.75037 495
7755.84814 13800.76270 1426.91150 468
7574.62646 13275.78320 -115.64365 477
7531.65283 13198.33496 134.82640 488
7507.73682 13162.28418 381.41516 444
7681.36475 13472.63184 639.39697 496
7686.28369 13477.43457 892.23853 495
7575.74609 13283.89648 1134.19556 390
7849.33740 13769.95801 1429.43799 468
7662.02490 13249.16504 -115.66544 477
7617.88232 13168.89941 131.46695 487
7599.88232 13134.93652 380.88943 443
7773.97217 13437.70117 640.97601 495
7777.06592 13441.05957 895.43066 495
7608.47217 13151.96191 1124.35693 495
7939.95508 13736.48730 1430.80115 468
7754.89990 13216.08105 -114.99135 477
7708.51416 13139.32715 132.53841 487
7687.11084 13102.62598 379.68002 374
7833.16602 13348.43262 639.33856 334
7814.96240 13324.76074 889.83179 312
7698.17480 13117.57812 1127.92700 495
8032.44385 13700.59277 1430.36548 467
7845.48340 13188.73633 -126.05305 476
7798.88965 13109.54688 122.17198 487
7775.30957 13067.85840 372.99966 374
7875.09521 13237.89160 625.33960 424
7834.55176 13165.78516 875.38489 491
7787.15283 13089.01660 1118.80615 494
8129.33691 13670.14258 1421.73132 470
7933.80957 13156.34473 -129.11026 476
7888.34619 13081.78027 125.39486 486
7863.47266 13036.28320 370.10306 493
8046.56396 13340.33984 632.09625 495
8050.46973 13345.73633 887.17487 494
7875.84473 13057.44629 1118.98315 494
8223.68262 13636.20312 1425.17090 470
8025.27197 13128.72949 -126.44468 476
7978.92529 13049.68555 122.87830 486
7954.67676 13008.65723 373.21072 492
8139.90430 13311.52148 634.40588 494
8138.64551 13313.62207 889.32037 494
7965.75000 13025.05469 1120.88623 494
8317.58594 13604.81055 1426.43835 440
8118.69629 13097.98730 -126.93369 475
8070.07861 13017.40625 122.71879 486
8044.18066 12976.73535 371.39252 492
8236.22656 13286.90039 634.11841 429
8241.18652 13294.39551 889.94928 429
8268.29883 13337.37891 1146.65686 344
8432.33594 13603.81738 1430.47205 441
8211.86621 13063.28516 -126.19582 475
8160.80127 12985.74707 122.35252 485
8137.87500 12947.77930 374.87329 492
8364.00684 13311.91406 635.80768 457
8373.89941 13326.02051 894.31244 428
8392.40332 13360.17676 1155.10950 344
8303.84277 13033.70020 -129.13609 475
8253.69434 12955.42090 123.87726 485
8227.24512 12913.98340 373.60574 491
8477.15137 13309.78516 638.84247 456
8506.62988 13352.88086 899.69769 427
8523.53906 13381.61523 1161.54443 350
8396.74121 13002.91797 -127.53979 474
8344.36133 12926.77441 123.79200 485
8319.15527 12883.37598 372.46011 491
8589.75879 13310.30469 640.06311 455
8629.62695 13367.03418 902.59131 454
8651.98047 13405.77148 1165.95276 349
8486.98730 12974.62012 -127.87971 474
8436.65234 12894.41797 123.92235 484
8409.85645 12853.13770 374.37100 491
8705.50488 13307.08301 644.28217 455
8742.57812 13368.33789 904.41571 454
27027.73242 41057.28516 -3115.93262 1000
8579.44824 12942.61914 -132.30150 474
8528.88477 12863.58301 124.61677 484
8503.92578 12821.37305 375.18225 490
8822.43164 13306.34082 643.71832 454
726.16571 958.64380 -0.38892 431
728.74945 962.27875 18.24822 431
731.59143 966.61487 36.86764 369
8675.61230 12911.53125 -128.63930 473
8625.06348 12832.86816 123.03740 484
8593.03223 12788.62402 374.14191 490
8981.79492 13367.29102 649.60388 438
730.04755 951.66602 0.08226 497
732.13110 954.49408 18.54922 497
733.79523 957.43689 37.25364 476
735.82263 960.33099 56.16560 475
737.80725 963.14069 74.84174 431
8714.06836 12802.98730 121.38374 483
8688.37305 12758.11035 375.23959 489
735.93689 947.64740 -0.00893 494
737.68732 950.26251 18.59540 494
739.50922 953.01526 37.34548 494
741.61200 955.84747 56.02784 494
743.58862 958.53296 75.06854 467
8808.11133 12768.85742 122.48037 483
8780.93750 12725.13281 375.22229 489
743.20306 945.98889 -0.39930 467
745.60040 949.17804 18.32368 418
748.05560 952.93433 36.96572 418
751.96576 958.46466 55.52221 293
8903.53809 12737.34961 124.26717 482
8875.05371 12696.33691 374.75073 489
754.28229 949.59637 -1.49572 353
8998.27734 12705.37598 122.12047 482
8967.04492 12662.09082 376.60645 488
9090.08398 12676.82520 125.09975 482
9059.61523 12632.83496 377.57465 488
9185.00000 12643.32227 123.26667 481
9156.02246 12599.02637 376.20078 487
9280.99707 12613.61621 123.97800 481
9250.06641 12566.94434 376.45398 487
9376.22559 12579.48047 123.85245 480
9343.62793 12535.73438 376.98587 486
9471.23242 12550.02246 121.32566 480
9439.56641 12505.17188 379.94839 486
9570.10156 12514.86816 121.78516 479
9532.69629 12469.78809 377.34961 485
9663.60840 12482.89844 124.78904 479
9629.73145 12438.77441 379.39108 485
9759.40332 12450.77832 124.42370 478
9724.86914 12406.44727 381.90454 484
9858.00293 12417.04492 122.84283 478
9821.49414 12373.57520 379.73157 484
9958.50586 12386.17188 121.89549 477
9920.51660 12339.39062 381.42352 483
10055.60156 12352.45312 121.51199 477
10019.08594 12308.49219 379.51471 483
36122.19531 44653.85547 6696.25586 1000
10153.64746 12318.99316 122.63908 476
10115.76172 12272.10938 382.40625 482
10250.73828 12286.57324 122.14502 476
10213.76367 12239.70117 380.17404 482
10354.16504 12250.35352 122.86440 475
10315.40332 12208.28711 382.28680 481
10453.10352 12219.95312 123.15392 475
10411.30566 12173.05957 384.54083 481
10551.23926 12185.61328 120.34319 474
10514.37305 12137.60352 383.77377 480
10655.63574 12149.90430 120.88776 474
10615.67188 12103.11719 386.76392 480
10754.69434 12117.64551 123.68713 473
10716.58203 12069.03223 383.77121 479
10858.02246 12083.78613 120.80428 472
10817.36328 12034.92285 385.35608 478
10960.25195 12049.95410 121.05086 472
10919.23828 12000.25391 388.81842 478
11064.89062 12011.53613 121.82947 471
11022.82812 11967.19629 386.59634 477
11167.87695 11977.07715 119.68021 471
11125.97168 11929.64258 388.26926 477
11269.65820 11943.42285 123.48772 470
11225.54590 11894.80273 389.24216 476
11378.34375 11905.49316 120.51157 469
11329.46973 11860.40527 390.49426 475
11484.11035 11870.55176 121.99083 469
11435.65820 11822.99707 389.10916 475
11588.48633 11836.62891 122.02524 468
11541.75586 11791.23145 390.78601 474
11705.25781 11812.73438 122.72106 444
11649.05078 11753.96387 393.49536 473
11824.66602 11789.48633 122.14103 444
11757.90527 11720.62500 391.47751 468
11946.86621 11769.04004 120.29124 443
11870.62891 11686.18457 393.44739 468
12071.66211 11743.05859 120.20136 442
11986.68848 11660.86133 391.80795 448
12196.31641 11718.80566 120.73584 441
12109.38184 11635.65430 396.26306 447
12319.07324 11696.41309 119.20821 440
12234.41992 11615.66504 398.16028 446
12460.82715 11684.85156 121.69025 394
12361.88574 11589.62402 397.10559 445
12621.19629 11690.58984 119.83707 393
12486.45703 11566.19824 399.12988 444
12794.85352 11710.64941 121.51374 370
12618.46875 11543.95605 399.19058 442
12973.14062 11728.08789 122.16864 369
12760.40723 11537.10645 401.34698 384
13181.28906 11770.12402 118.48781 341
12925.29199 11542.60645 402.14383 392
13087.89258 11547.90430 406.36707 391
13261.11523 11552.74316 407.10568 369
13476.75977 11597.82617 409.64520 341
13707.73145 11651.87402 414.99811 340
61727.31250 29318.63086 -4385.45312 1000
62261.66406 17763.36523 93.94421 1000
13723.03320 3895.54175 1053.42249 1000
3642.33667 898.95337 70.19315 475
3650.96948 900.88037 130.03810 459
3654.08472 877.85181 69.95357 354
67526.94531 11001.32422 9090.04199 1000
67201.57812 10948.22070 11320.92578 1000
4948.50244 -408.18298 130.08141 441
4925.15820 -435.55249 129.87508 434
4898.32861 -463.54437 129.90814 323
4875.16650 -490.85779 130.50929 330
4855.57422 -518.00757 131.02448 439
4844.16309 -546.38153 131.10057 439
4833.64355 -574.62421 130.34282 439
4824.90527 -603.05933 131.13181 441
4817.38428 -631.31140 130.96660 441
4956.53125 -650.67584 211.07922 266
4809.13623 -659.34137 130.60915 442
4885.39502 -670.34290 210.10991 499
4803.54346 -689.13824 130.84537 498
4799.00000 -717.61334 130.71693 498
4796.27539 -746.72937 130.26926 498
4793.56689 -775.35962 130.92743 497
4876.42188 -789.50934 210.43384 498
4791.11914 -804.72717 131.10371 497
4918.28320 -826.36414 290.47708 484
4790.68213 -834.94623 130.40002 441
4789.49707 -864.52625 130.89056 441
4787.53564 -893.90930 131.06158 441
4835.59619 -902.82520 209.73982 498
4786.25684 -923.01416 130.18442 441
4785.73145 -953.53064 131.16246 441
4784.14111 -982.64124 130.41139 440
4782.59229 -1013.49109 130.56140 440
4782.15137 -1043.33325 131.21021 440
4780.95703 -1072.36682 130.35246 440
4779.59619 -1102.92078 130.37416 439
4777.53174 -1133.63477 131.37897 439
4778.40381 -1163.28711 130.30067 340
4907.00781 -1196.13879 212.52335 411
4778.16650 -1194.54614 131.06870 340
15867.38965 -4122.12793 -406.90240 1000
4778.50342 -1225.35681 131.25404 340
3768.49048 -1926.98474 130.98344 498
3773.55957 -1930.20679 199.64056 462
26737.79883 -15894.72656 126.70010 1000
4661.62109 -4723.70654 239.72719 492
4640.04395 -4760.94385 240.10471 490
4620.76416 -4798.97266 239.96245 406
4603.28857 -4837.62256 240.52815 482
4586.65479 -4879.96094 240.27670 383
4570.92480 -4924.47949 241.31912 399
4560.99365 -4973.38818 242.26544 414
4555.12354 -5028.12891 241.54189 391
4556.17334 -5092.72607 242.22072 388
4557.42041 -5156.91650 244.31114 400
4559.32715 -5224.38477 244.92552 399
4560.76074 -5292.08154 244.82230 398
4562.31543 -5361.20996 246.40314 399
4566.65576 -5431.64111 247.96077 399
24967.98438 -37062.04688 8253.85938 1000
767.11328 -1024.00317 253.43108 299
765.81494 -1022.29187 273.36618 372
760.98041 -1028.48096 51.54090 476
760.75543 -1027.85864 72.04484 477
760.49115 -1027.26550 92.20476 477
760.06061 -1026.80530 112.15179 498
759.68103 -1026.36865 132.21111 498
759.37415 -1025.87427 152.31665 498
759.15887 -1025.52100 172.28789 498
758.60266 -1024.73853 192.30862 498
758.46246 -1024.56067 212.50186 494
758.09052 -1024.09937 232.65320 494
757.74097 -1023.59918 252.79842 494
757.61743 -1023.29871 272.99240 493
755.83606 -1034.38855 51.49279 416
756.17175 -1034.51355 71.67038 351
756.12909 -1034.87671 92.07699 351
3238.41992 -4949.85449 228.36070 309
14446.12793 -27115.31445 1091.32214 1000
3144.32153 -5947.46240 231.54816 274
3067.27637 -5884.92041 230.26985 424
3012.99731 -5866.67383 230.21800 436
2961.38379 -5853.47266 229.10764 439
2912.35938 -5844.89404 228.44318 335
2862.92163 -5832.03418 228.59363 451
2816.62671 -5826.32568 228.07120 460
2770.06836 -5819.95654 227.39951 463
2788.55225 -5861.03174 335.02469 477
2725.96509 -5818.73145 228.55792 450
2744.99927 -5860.07520 334.38666 478
2683.34595 -5816.25928 227.50356 453
2699.55347 -5855.52539 333.69781 478
2704.78955 -5866.09033 439.49820 422
2639.57568 -5816.49658 227.28781 456
2656.43018 -5855.17041 331.78226 479
2597.40234 -5816.51660 227.74983 457
2616.15527 -5860.87305 332.16806 474
2554.77197 -5817.30566 227.54788 457
2573.28296 -5861.08936 332.02377 480
1401.38501 -3149.54785 127.54477 280
2513.77319 -5817.09619 226.68906 458
2531.60254 -5860.30664 330.97641 486
2586.69409 -5990.52588 442.01233 435
1342.72729 -3060.82739 127.84530 261
1440.96240 -3301.87598 185.69223 350
2493.34937 -5869.11670 331.22879 499
2532.01416 -5964.94385 439.70068 478
1320.24536 -3058.67334 128.03745 425
1417.17590 -3300.72095 185.71948 466
2504.90479 -6000.67871 334.62445 342
2494.76270 -5978.99512 440.99045 482
1307.19312 -3081.06128 128.02956 424
1394.61499 -3302.39209 185.20140 466
2504.56274 -6110.28857 338.46835 340
2438.66919 -5943.44482 437.87784 494
1294.23718 -3104.74854 127.62363 420
1371.38245 -3303.82739 185.57544 466
2408.41431 -5973.11328 438.06320 302
1279.94800 -3125.27368 128.06000 430
1348.64270 -3304.90356 184.95787 467
1268.79150 -3152.08130 127.89494 377
1326.58276 -3306.44971 185.16229 467
1256.08521 -3179.08984 127.31906 376
1303.76440 -3307.66870 185.01643 324
1244.47375 -3206.89404 127.41296 415
1281.59045 -3309.30518 185.03738 468
1233.11389 -3238.25293 127.83354 400
1259.10510 -3310.72900 185.03479 469
1223.14441 -3272.87183 127.76911 379
1237.78491 -3316.59375 185.41161 457
1214.90039 -3315.41724 127.77901 321
1221.01978 -3334.43311 185.20026 359
1210.00537 -3367.72314 128.19856 315
1218.25903 -3393.24170 186.04692 319
1215.31543 -3455.06421 127.89452 300
2052.43555 -6021.65186 228.47379 351
1220.81970 -3546.92480 127.96485 306
2037.78491 -6104.57324 334.99475 352
1227.89600 -3644.58130 127.50272 304
1231.54773 -3737.61108 126.91489 345
242.73039 -1527.52185 55.10942 490
242.32990 -1526.94788 80.70838 491
242.52890 -1526.33887 105.51463 491
242.43869 -1525.46753 130.71721 491
242.11426 -1524.54883 156.03456 491
242.36342 -1524.02686 181.04077 491
242.35980 -1523.19312 205.81728 491
242.23982 -1522.44238 231.13321 491
242.25151 -1521.60962 255.99562 491
-259.52841 -2034.05420 63.71290 453
-259.54675 -2033.11755 97.44301 453
-259.39938 -2033.06238 130.98997 399
-259.59106 -2032.88062 164.87851 399
-259.38095 -2033.13965 198.81487 329
-271.67422 -2030.62036 232.78937 323
-271.02036 -2027.88147 266.12827 393
-263.04608 -74.95667 36.08371 321
-261.09650 -72.20572 36.79931 321
-259.14099 -69.63879 37.39541 322
-279.28281 -73.70554 38.51286 318
-259.21606 -67.38525 37.49022 349
-277.27255 -70.94339 39.13782 321
-261.06821 -65.58256 37.12976 351
-275.66122 -68.28676 39.56742 345
-263.05499 -63.67554 36.69505 351
-277.44751 -66.29006 39.20956 345
-295.11395 -69.56173 41.51107 319
-264.98291 -61.77436 36.25332 350
-279.34671 -64.37942 38.85445 347
-295.51517 -67.20261 41.55790 340
-268.13586 -60.08616 35.46144 326
-282.38715 -62.52519 38.21535 324
-298.75284 -65.29285 40.80622 315
-274.04059 -58.84313 34.04082 320
-288.08328 -61.06065 36.91874 323
-15506.80566 -1279.78442 -2450.07202 1000
