# .PCD v.7 - Point Cloud Data file format
VERSION .7
FIELDS x y z rgb
SIZE 4 4 4 4
TYPE F F F U
COUNT 1 1 1 1
WIDTH 1051
HEIGHT 1
VIEWPOINT 5788.033691 -4051.744629 138.765015 -0.124363 -0.149155 -0.004548 0.980951
POINTS 1051
DATA ascii
-195.61842 1.30351 53.33928 324
-195.57831 3.12683 53.30108 324
-195.58604 4.95416 53.27083 324
-195.65079 6.72496 53.27029 324
-195.60661 8.50506 53.25994 324
-195.56564 10.35180 53.30975 324
-195.57884 12.06735 53.29923 324
-66907.17969 3222.50952 8911.42188 1000
-276.91577 61.35659 36.91153 322
-293.04691 63.94981 39.71650 312
-258.83081 60.67011 35.20096 350
-273.37567 63.15126 37.79167 346
-289.42264 65.72843 40.40678 341
-256.86981 62.61267 35.62237 350
-271.35083 65.05208 38.13565 347
-287.46133 67.90269 40.78221 341
-255.05939 64.46409 36.00458 351
-269.44781 67.12068 38.60604 345
-288.47119 70.47120 40.47964 319
-253.17061 66.37759 36.41856 351
-268.86783 69.32658 38.60046 322
-251.32834 68.26639 36.79408 349
-270.81375 72.02029 38.01865 319
-252.83353 70.79343 36.33203 322
-273.03934 74.73153 37.29454 319
-254.86670 73.42747 35.62495 322
-256.87466 76.08260 35.00971 321
-39876.81641 19199.76953 1544.02881 1000
-2273.37695 1481.07410 83.64634 455
-2262.96899 1494.63757 84.04446 445
-2268.21118 1497.77026 129.81766 445
-1064.85205 745.85126 17.87531 302
-1639.64795 1115.00073 62.55561 491
-1644.16309 1118.04028 96.44398 488
-1650.92627 1122.25232 130.26599 340
-1048.68896 745.73627 19.04703 436
-1052.98486 748.36414 41.19951 435
-1635.28687 1127.21338 62.58966 440
-1639.41040 1129.74817 96.11463 392
-1643.83313 1132.77417 129.96646 377
-1041.81201 750.96985 19.14379 498
-1044.16028 752.46301 41.30623 498
-1046.66858 754.18011 63.80358 478
-1050.06274 756.66364 86.12846 435
-1037.92896 758.62665 19.25123 493
-1039.83704 759.91559 41.40564 493
-1041.74963 761.15900 63.54792 493
-1043.70398 762.32892 85.98020 493
-1045.76160 763.63330 108.39792 493
-1038.29236 769.06152 18.46759 415
-1040.69934 770.41382 41.10210 350
-1044.17749 772.80377 63.43056 349
-16547.27344 12038.28906 3504.67261 1000
-29982.78906 54034.73828 -9082.28418 1000
-3990.07837 14867.88867 125.87768 464
-3913.50122 14943.51270 -128.02092 460
-3889.78809 14849.55078 125.92155 465
-3812.14990 14927.71680 -126.97344 464
-3785.29736 14834.64941 125.04105 479
-3709.50171 14911.77051 -125.22717 469
-3684.97729 14822.29395 124.80744 481
-3609.10400 14900.81055 -126.59491 469
-3585.06128 14812.64746 126.41689 481
-3507.23315 14890.87793 -124.07935 470
-3488.84497 14803.48340 123.72779 482
-3410.00464 14881.44043 -124.72188 470
-3389.54224 14792.34766 127.03165 482
-3308.64307 14867.35449 -126.27531 471
-3292.05518 14780.46387 126.91620 483
-3211.73438 14858.94336 -124.81578 471
-3193.01221 14772.27930 125.42919 483
-3113.22217 14847.52637 -122.79969 472
-3095.05469 14764.48633 123.89199 483
-3013.71729 14832.77148 -122.86809 472
-2999.55811 14751.45215 127.84577 484
-2917.66870 14821.60938 -121.94075 473
-2902.84912 14743.71582 125.75987 484
-2819.67090 14811.45605 -123.31939 473
-2804.18823 14731.48633 124.98609 485
-2725.29858 14799.39453 -121.39175 473
-2709.56372 14723.03320 125.57510 485
-2626.77783 14790.19141 -120.93497 474
-2612.64941 14713.08398 125.17282 486
-2530.80859 14778.90039 -120.27460 474
-2519.88062 14704.13281 127.01185 486
-2437.90747 14766.26660 -119.16847 475
-2422.31421 14692.29883 127.32468 487
-2340.86963 14759.56152 -118.59644 475
-2330.71338 14682.96289 128.38649 487
-2245.13672 14745.32715 -116.83329 476
-2233.81860 14673.42188 125.63889 487
-2153.66406 14736.66699 -117.19173 476
-2141.58594 14665.64746 127.27664 488
-2059.33862 14722.90039 -117.20466 476
-2049.83081 14653.73340 125.53112 488
-1964.59192 14715.62988 -115.06817 477
-1954.26367 14644.10938 128.64102 488
-1870.55627 14703.92676 -115.85094 477
-1862.48303 14632.93359 127.08748 489
-1775.60413 14692.28418 -115.85339 477
-1768.39136 14625.81738 124.92892 489
-1684.42676 14682.67090 -114.01250 478
-1677.40601 14616.74023 124.95769 490
-1592.84814 14672.82715 -112.90845 478
-1582.73816 14605.78320 125.32175 490
-1497.80737 14662.76758 -114.92421 478
-1494.55725 14598.34570 125.69273 490
-1408.26929 14652.81934 -112.71418 479
-1401.14062 14587.77246 128.41263 491
-1317.51233 14641.81250 -115.22112 479
-1307.50720 14579.78516 125.58971 491
-1225.33228 14630.07812 -112.42341 479
-1217.25586 14567.73633 125.58725 491
-1140.76355 14709.73242 -357.29733 458
-1132.19983 14621.13867 -114.66125 480
-1128.27039 14558.49414 127.24352 491
-1047.37561 14701.64160 -354.62299 458
-1041.62451 14607.80957 -113.79771 480
-1036.12085 14549.50000 128.54498 492
-954.51337 14687.37695 -353.70261 458
-950.73914 14600.41797 -113.74796 480
-944.27051 14542.00879 127.38914 493
-862.58087 14676.37793 -354.61853 459
-859.63214 14587.08496 -113.53640 480
-855.50543 14531.65625 125.46832 495
-773.67743 14663.24512 -351.52023 478
-767.18567 14578.33594 -111.90334 481
-765.04059 14522.48242 125.43800 496
-683.53870 14655.71582 -354.71585 478
-677.29474 14566.40527 -109.04704 481
-673.89880 14515.46582 127.46741 496
-591.57379 14644.22559 -350.85593 478
-585.55981 14556.63770 -110.66519 481
-585.58081 14506.42969 129.11021 496
-499.25842 14633.28516 -351.32645 478
-494.52475 14546.24414 -109.13998 481
-496.19980 14497.40234 128.13042 496
-527.00317 15256.88867 378.97733 487
-411.68549 14623.95020 -352.44345 479
-408.60287 14537.98340 -108.79440 482
-405.75653 14488.66211 126.28749 497
-432.40479 15229.67480 376.36194 488
-319.61365 14613.22363 -349.87247 479
-318.84796 14527.51855 -108.61246 482
-315.81552 14476.36035 129.12534 497
-337.24399 15200.90039 377.47403 488
-229.93623 14601.04199 -349.68353 479
-227.32886 14517.37109 -110.11136 482
-227.21712 14471.02051 128.11514 463
-239.93413 15175.18359 377.39987 489
-141.35828 14592.61914 -350.87881 479
-137.24162 14508.10547 -108.67915 482
-137.60931 14461.52734 126.98497 463
-148.73454 15149.89648 374.49930 489
-49.65873 14581.14648 -350.22488 479
-48.08077 14495.09570 -109.55759 482
-47.28011 14457.57129 128.00652 423
-53.72741 15123.74023 377.07224 489
42.15188 14571.21680 -349.12595 480
40.44842 14486.16895 -110.56888 482
42.00442 14451.88477 129.53465 423
38.27551 15098.80762 376.32990 490
128.38785 14559.80078 -349.74457 480
129.21150 14478.80762 -107.06477 483
130.75357 14444.28125 126.65922 423
130.67940 15070.45410 376.63306 490
217.39981 14549.84766 -349.18494 480
220.20187 14467.45801 -107.56957 491
216.35631 14440.41797 128.36726 423
224.21989 15047.77637 376.15222 491
308.84082 14541.96582 -349.45132 480
308.55719 14458.13672 -108.34754 491
307.44217 14440.09277 126.43394 301
317.62976 15025.63477 374.21671 498
396.06516 14532.37500 -347.04263 480
394.82071 14449.51367 -107.82376 491
395.75916 14443.08203 127.74656 301
406.93518 15015.45801 374.04614 498
485.05969 14521.51562 -348.74316 480
483.85510 14436.89453 -108.25790 491
483.04642 14448.90234 130.28276 296
500.84778 15007.64453 373.63507 498
576.63721 14512.19629 -347.51590 480
572.47095 14427.91016 -109.07748 491
589.13458 14932.83496 129.74263 499
593.12848 14994.63867 374.26724 499
664.10168 14502.75586 -346.22159 481
661.63965 14419.34082 -108.61263 491
681.56207 14923.25488 130.32611 499
684.75458 14984.55957 375.05753 499
753.77063 14489.20312 -345.32678 481
750.78833 14409.12207 -109.37306 491
771.12183 14909.13379 127.34086 499
774.77997 14977.15137 373.22333 499
842.98456 14478.81445 -345.47580 481
839.31085 14401.77344 -106.51601 491
863.44763 14874.21289 130.35223 472
869.51355 14965.23242 375.55151 499
933.44476 14468.96484 -346.70569 481
928.46942 14390.77246 -105.37706 492
952.18341 14822.37793 129.26982 473
957.67010 14954.52637 373.03729 499
1017.91492 14461.12500 -343.51239 481
1015.25867 14382.66309 -105.86646 492
1038.14172 14769.03418 128.31187 474
1045.15613 14849.10156 372.33395 438
1108.96228 14451.41016 -346.99911 481
1104.99377 14372.41895 -107.74239 492
1127.19983 14719.57812 129.05264 475
1136.95898 14830.49219 373.60562 497
1197.55859 14440.65723 -344.87863 481
1190.81128 14363.77637 -108.51888 492
1214.72595 14672.29297 130.51083 475
1224.37476 14822.69727 371.83942 497
1238.89111 14974.78320 618.82520 499
1284.74146 14430.20605 -344.25839 482
1279.85571 14354.71582 -107.96365 492
1303.35620 14649.14062 127.41512 499
1318.78479 14812.26562 373.33383 493
1331.17847 14963.99512 618.43994 499
3335.29077 39196.02344 7279.36963 1000
1373.11963 14422.09375 -344.20172 483
1368.29858 14345.51465 -107.16049 492
1391.14197 14638.98535 127.13252 499
1407.51489 14800.28516 370.17212 493
1423.50696 14954.13086 620.10681 499
1435.33167 15112.98047 873.27472 473
1464.76868 14409.26074 -345.58023 483
1453.91162 14337.52246 -105.14694 492
1480.98926 14628.05566 130.21271 499
1497.30957 14788.75977 371.32281 493
1511.37415 14947.35645 618.77472 499
1529.89648 15094.16309 874.87927 484
1552.41785 14400.02441 -342.90894 483
1545.06055 14329.44336 -104.89664 492
1574.40491 14617.37891 130.89110 499
1601.97083 14884.92285 373.75854 499
1601.28357 14910.76270 619.41803 456
1639.76624 14388.71484 -344.44769 483
1633.33691 14317.97363 -106.44521 492
1664.58350 14608.27539 129.12933 499
1684.71350 14829.74707 375.21228 457
1688.88037 14840.67676 616.71027 457
1695.84106 14899.48145 865.60394 364
1729.89612 14380.37012 -346.44574 483
1719.34424 14308.11133 -107.94046 492
1752.57800 14599.78125 130.60796 499
1768.63831 14759.46680 372.39261 458
1773.17786 14772.95996 616.20996 458
1780.40588 14826.09863 864.16278 365
1815.51636 14372.31543 -344.12201 483
1808.67163 14301.02246 -106.49849 492
1843.06396 14586.75684 128.58243 499
1855.28174 14688.39551 371.81183 459
1854.83325 14699.64355 612.65314 459
1860.66296 14754.90234 858.30859 365
1904.62817 14360.99707 -344.88162 483
1893.86682 14290.08301 -104.37019 492
1899.30359 14321.09863 127.92182 431
1941.15979 14632.61035 369.24506 499
1940.72571 14642.11914 611.32184 499
1943.23914 14680.54199 855.28131 366
1994.38110 14352.33691 -342.85486 483
1983.09583 14280.62891 -104.27789 492
1987.54736 14306.90918 129.28012 431
2028.63037 14623.31543 368.71799 499
2028.75000 14628.48340 612.42725 499
2034.57568 14673.74414 857.71588 390
2075.78589 14976.63672 1117.49304 479
2058.52881 14862.62500 1605.91833 424
2059.74390 14862.43750 1853.37500 423
2062.21533 14871.87793 2103.26367 478
2064.94531 14891.63867 2358.59399 431
2082.31665 14339.31641 -346.18423 483
2073.45874 14271.86523 -106.68300 492
2076.63940 14297.33594 129.78899 432
2113.08740 14584.13867 369.88928 499
2114.65381 14588.73633 610.91827 499
2126.55786 14666.67285 854.89514 390
2166.61401 14968.74707 1120.35986 479
2232.88843 15444.18945 1405.79077 456
2170.59375 14331.64258 -345.58194 482
2162.11182 14261.60352 -105.55750 492
2165.38306 14288.00098 128.93974 431
2205.40015 14571.86426 372.22833 499
2207.40112 14581.01172 609.70667 499
2217.37109 14660.41406 855.62634 390
2260.50854 14959.69727 1121.59924 470
2259.59790 14322.93555 -344.34985 482
2247.09375 14253.47266 -106.49054 492
2252.17407 14278.88477 127.70689 438
2297.08887 14565.05664 371.29477 499
2297.92529 14570.78711 612.85175 499
2309.76294 14655.24707 859.35254 390
2345.41455 14893.30762 1118.22424 454
7113.97363 46387.05859 5520.85791 1000
2346.79858 14310.82227 -343.51187 482
2335.87451 14244.87207 -106.36040 491
2340.20435 14273.90918 130.50227 387
2387.02808 14554.71777 370.46671 499
2384.49121 14560.38770 611.37714 499
2401.02295 14647.47266 858.84998 390
2439.44482 14893.38184 1119.20874 472
2434.50244 14300.12402 -345.06445 482
2422.87231 14235.11719 -107.77651 491
2431.99487 14268.09766 129.40118 387
2477.46680 14543.45215 371.71732 499
2477.74878 14549.62891 611.63312 499
2491.56055 14641.22656 859.68420 390
2540.74512 14931.50977 1122.59521 470
2524.41455 14293.24414 -344.38068 482
2515.17578 14223.14258 -107.87926 491
2562.19312 14507.88086 131.02347 499
2567.90991 14535.29199 371.03763 499
2566.72925 14539.68750 610.84564 499
2584.34229 14636.21094 858.29315 390
2634.40259 14922.92285 1120.68567 485
2614.63135 14281.15137 -345.12476 482
2601.00146 14216.20605 -105.67171 494
2650.20337 14497.48730 129.40709 499
2654.04199 14525.84668 372.79660 499
2656.14160 14530.84375 611.54675 498
2677.00610 14631.11523 860.73816 390
2725.92505 14914.20410 1124.47192 485
2703.80029 14272.60254 -345.98792 482
2689.10376 14206.31543 -104.68598 494
2742.72266 14488.37207 129.73128 499
2746.02637 14512.50391 370.40762 499
2747.30298 14519.80957 612.61316 498
2766.48706 14625.91211 858.37531 390
2791.09644 14261.03613 -344.73257 482
2777.68799 14197.81250 -106.59022 494
2832.94995 14480.70410 128.54800 499
2842.04614 14531.72852 371.95508 498
2843.38257 14538.98047 614.37079 498
2860.08594 14620.67676 862.16553 390
2881.92188 14250.95117 -347.07297 482
2868.10327 14189.18555 -107.59287 494
2923.65576 14470.00586 131.87961 499
2933.63086 14521.74023 370.21582 498
2935.66943 14532.76953 613.13904 498
2952.96240 14613.62402 863.21216 390
2969.71191 14243.40625 -347.59888 482
2958.12451 14179.53223 -104.99927 494
3014.14111 14460.20898 130.56337 498
3026.24316 14515.03516 372.62277 498
3024.09692 14519.90625 614.66266 498
3044.29736 14608.14160 863.30450 389
3060.50732 14231.87402 -346.78119 482
3044.13379 14171.26270 -105.49912 494
3102.18359 14448.08203 131.45721 498
3086.07544 14360.61523 371.34854 467
3078.81055 14321.70605 610.09583 389
3137.92285 14602.54102 861.34729 389
3148.84912 14223.33984 -347.93359 481
3134.70776 14162.43555 -106.46098 494
3195.73999 14436.66309 129.27974 498
3207.97192 14495.35352 371.64529 498
3209.75610 14502.33105 617.24408 498
3227.24658 14594.38086 863.71350 381
3238.53711 14210.42188 -345.21576 481
3225.78369 14152.24121 -106.64503 493
3286.16016 14429.84668 131.71835 498
3298.26001 14482.08008 373.68805 498
3299.18213 14491.41797 615.72595 498
3322.49292 14588.59766 862.79053 381
3326.18018 14200.78613 -344.86252 481
3312.39014 14141.46680 -105.67638 493
3374.39941 14419.46387 130.33557 498
3389.43750 14474.93555 371.96295 498
3389.34424 14481.15234 617.86475 497
3418.70825 14603.73145 868.06006 351
3418.33472 14192.13379 -346.16904 481
3403.96997 14133.81445 -106.43092 493
3467.84521 14409.19922 128.30537 498
3494.12134 14522.59766 376.28046 444
3496.19507 14526.27246 617.78522 443
3531.49561 14678.22754 871.61798 351
3505.01709 14181.77246 -345.17847 481
3491.71118 14125.23535 -107.40124 493
3588.36011 14522.40625 132.23219 468
3601.93384 14577.00195 376.17325 443
3600.21899 14580.47461 622.96094 442
3642.57935 14750.54785 873.71973 350
3595.05957 14171.86328 -347.24081 481
3582.83960 14115.26074 -105.70085 493
3688.09937 14545.16797 128.48677 467
3705.13818 14605.56348 375.38373 466
3708.16309 14630.13965 622.23895 441
3684.51953 14161.73535 -347.93994 480
3671.36792 14104.90527 -109.63039 492
3790.45923 14570.80859 131.17793 466
3806.03027 14631.64746 377.13626 465
3820.78467 14683.49805 625.07031 440
3777.28101 14151.64062 -349.92911 480
3760.40332 14095.34082 -107.85153 492
3890.89209 14596.39551 128.53975 465
3906.51294 14652.38574 378.54349 465
3865.97803 14141.21484 -346.80499 480
3854.08643 14087.06152 -109.36124 492
3995.42285 14619.04492 130.66148 465
3957.12891 14130.51172 -347.16541 480
3941.69678 14077.86426 -109.13637 494
4095.85913 14642.98926 131.03255 464
4046.88306 14119.56836 -350.42999 480
4033.40088 14070.48047 -106.68199 494
4194.48926 14650.28906 129.43324 442
4140.50488 14110.64062 -350.73334 479
4123.77393 14060.62207 -108.69900 494
4231.28125 14103.62402 -350.89633 479
4213.74414 14050.67871 -108.53005 493
4324.21387 14090.58105 -351.47638 487
4305.46875 14043.24219 -107.12665 493
4412.25781 14081.48535 -351.76724 486
4397.04541 14033.82129 -107.36058 493
4505.61035 14073.57617 -352.41208 486
4488.59717 14023.05371 -111.56927 492
4597.57275 14062.08008 -351.26547 486
4579.73438 14015.33398 -109.09533 492
4688.52832 14052.44531 -352.59790 485
4674.61572 14005.53906 -110.89433 492
4781.76416 14045.28613 -354.68652 485
4765.33740 13996.32520 -111.36731 492
4876.09570 14034.22949 -354.47879 485
4858.28125 13987.20996 -111.64525 491
4971.18701 14024.95312 -354.82050 484
4953.95996 13978.40430 -109.14402 491
5061.49219 14014.47168 -354.07068 484
5046.92725 13969.31934 -109.77457 490
5157.93506 14006.37500 -356.49390 484
5139.05420 13957.63184 -112.21973 490
5250.12451 13997.00293 -357.19882 483
5233.48340 13949.33203 -110.61686 490
5344.56104 13986.89844 -357.70596 483
5327.91016 13938.59668 -110.56610 489
5438.85840 13977.30762 -357.37436 483
5421.45117 13932.06445 -110.88820 489
5534.09863 13965.49805 -358.27179 482
5518.43896 13922.00098 -113.04043 489
5628.11572 13957.82129 -362.10681 482
5611.16162 13910.60156 -113.73557 488
5726.27979 13948.12598 -362.39633 481
5708.17480 13900.92090 -114.47719 488
5822.11719 13938.45117 -362.40765 481
5802.56250 13891.83887 -114.43848 487
5916.00781 13924.26660 -361.99609 481
5899.45752 13883.94434 -116.55747 487
6014.17285 13916.44434 -361.76898 480
5996.17383 13873.06445 -116.31261 486
6111.18213 13904.98340 -362.33322 480
6090.14844 13865.36523 -116.07607 486
6243.14990 13973.60742 -619.10248 469
6206.55322 13897.64453 -365.97031 479
6189.63672 13854.10059 -115.39001 485
6341.29541 13963.23242 -621.95038 468
6306.36719 13885.79785 -368.53250 479
6285.66016 13843.68652 -117.80449 485
6440.78857 13951.97070 -619.86786 468
6404.15771 13877.21484 -365.79416 478
6385.32080 13835.04395 -117.48961 484
6539.41895 13943.54883 -621.64484 468
6502.41748 13865.55859 -369.92432 478
6481.84131 13825.56738 -117.43290 484
6635.88965 13930.91504 -623.84583 467
6601.08887 13855.64648 -369.21704 477
6581.53711 13817.15039 -117.32969 483
6735.25830 13921.60547 -624.71826 467
6700.00488 13843.79492 -371.86923 477
6682.26611 13806.02539 -116.37383 483
6836.05225 13909.57422 -625.40363 466
6799.61963 13836.76660 -373.20969 476
6780.99902 13794.79102 -119.49525 482
6940.71729 13900.70801 -631.12073 452
6899.81836 13826.16699 -372.53973 476
6880.28467 13787.24219 -119.35105 482
7048.08105 13905.82715 -631.54993 451
7002.27441 13816.63867 -375.40961 475
6983.61719 13774.14941 -118.97240 481
7155.13379 13903.95703 -632.48730 450
7106.51270 13808.80566 -373.03745 452
7086.36084 13771.44824 -121.34457 368
7262.54736 13906.70801 -635.15680 451
7212.62500 13810.41602 -375.53922 452
7191.32520 13764.50586 -120.44755 367
7374.02832 13909.50391 -640.00427 451
7324.17334 13817.37305 -377.83704 451
7294.17090 13758.33496 -121.60503 367
7483.49316 13913.59473 -643.04083 450
7436.02051 13820.04883 -381.83014 450
7399.75195 13756.57129 -122.49905 367
7598.01611 13917.75977 -646.88306 449
7546.22754 13824.06348 -383.91077 449
7505.37646 13747.29883 -124.07858 366
7719.16162 13940.52344 -648.54974 404
7658.44580 13825.74316 -386.07986 450
7613.14404 13744.15430 -126.15990 448
7856.76025 13980.93555 -653.66711 382
7770.26855 13830.67480 -386.93182 449
7733.60938 13757.17285 -124.47791 447
7995.37891 14025.52246 -657.95404 381
7886.16895 13834.52930 -387.89426 449
7849.46826 13768.69727 -127.09995 446
8133.72266 14074.95215 -665.31030 380
8011.11670 13855.39941 -390.59229 404
7965.88672 13782.06543 -128.96857 445
8283.27344 14126.77344 -669.89276 352
8144.05078 13889.50586 -393.98871 403
8088.73438 13795.17090 -129.26071 444
8193.34277 13966.55957 -400.22107 402
8124.63672 13850.20996 -134.11462 446
8332.16016 14002.89258 -404.20737 380
8247.85059 13861.89551 -132.75920 445
8474.45215 14051.70898 -408.45059 379
8370.15723 13873.01562 -133.82205 445
8642.36035 14127.64648 -411.08948 351
8501.97266 13900.60645 -135.92975 382
8811.02930 14211.20508 -415.19763 350
8661.24219 13964.91895 -141.59326 306
27513.78711 33090.11719 10150.44043 1000
1774.21008 1372.86047 -81.85969 495
1780.52917 1377.74988 -46.72531 472
1785.63013 1364.41870 -82.36244 421
1794.85254 1372.46301 -47.02224 338
31884.47461 16009.99219 9059.33984 1000
3322.55103 416.96481 -80.61179 424
3309.16602 395.11810 -78.82580 462
3357.91211 379.94278 -136.42786 312
3300.33618 373.75516 -78.10136 462
3341.53345 358.08554 -134.46532 431
3292.55078 352.99707 -78.23969 472
3322.34570 335.76022 -132.83954 415
3286.52319 331.89218 -76.89050 486
3314.51270 314.72147 -132.53743 476
3282.46655 311.66138 -76.77850 486
3308.69482 294.12170 -131.83536 477
3278.53711 291.82974 -76.32278 463
3302.96265 274.20908 -130.88823 478
3276.23315 271.69101 -76.00777 466
3300.42651 253.46507 -130.72427 489
3275.04736 252.01003 -75.99107 466
3298.48438 234.36511 -130.34938 489
3273.56299 232.16174 -75.99276 465
3296.10010 213.88446 -129.74075 486
3272.24194 212.38501 -75.39384 465
3295.56128 194.25633 -129.97130 488
3272.54956 192.92645 -75.61855 467
3294.89990 173.98837 -129.90659 488
3271.89868 173.05975 -75.89146 466
3293.60718 154.74638 -129.90184 488
3272.37280 152.86543 -74.97749 467
3405.01807 159.59308 -29.34322 275
3292.89575 134.26476 -129.67136 486
3273.01270 133.52374 -75.46530 467
3342.98071 136.94307 -26.75790 498
3293.48291 114.92349 -129.43114 486
3273.43066 114.06857 -75.44893 392
3340.88672 116.31767 -25.98507 498
3294.73169 95.00695 -129.74255 486
3275.55200 94.23004 -75.13991 392
3276.56787 75.16835 -75.26797 392
3278.90112 55.75394 -75.82854 390
3281.33594 36.18813 -75.81929 390
3283.53784 16.51435 -76.00935 391
3285.60449 -3.52930 -76.14137 391
3362.73828 -3.36301 -27.33180 497
3423.23413 -3.71214 24.17965 497
3287.60474 -23.20708 -75.80923 391
3289.29419 -42.90446 -75.91568 390
3412.24854 -44.34234 78.88541 496
3291.63379 -62.45914 -76.42247 464
3294.15137 -82.22559 -76.51897 464
3483.93872 -87.59696 -33.72279 420
3296.82178 -102.29594 -76.41538 463
3392.36523 -105.60645 -29.07207 495
3299.11475 -121.79044 -77.30509 463
3346.55127 -124.21077 -26.62757 495
3302.28467 -142.18996 -76.84418 463
3304.92749 -161.62370 -77.30902 463
3306.86865 -181.95322 -77.88548 462
3309.28589 -202.32477 -77.56611 462
3376.33203 -205.98016 -28.49170 494
3392.44141 -207.13335 24.72964 307
3311.82642 -222.28511 -78.57214 462
3314.18896 -241.91739 -78.19698 462
3317.44629 -262.37048 -78.80636 461
3319.91284 -282.77420 -78.85415 461
3322.57422 -302.23175 -79.72285 461
3324.95337 -322.93845 -79.25105 461
3327.17700 -343.52060 -79.63174 489
3330.11133 -363.95480 -79.90321 489
3479.63110 -380.61343 -34.49127 426
3333.63794 -384.34286 -80.68191 488
3336.53149 -405.35229 -81.11755 488
3339.44678 -425.65540 -81.26060 487
3342.31494 -446.75247 -81.91084 457
3352.75903 -467.88474 -82.57957 456
3362.72729 -490.34354 -83.16499 455
3372.66504 -512.32080 -84.01948 455
2565.17480 -1328.98511 -50.94434 486
2570.96411 -1331.98938 -5.29207 483
2577.52344 -1335.60254 40.85744 407
2557.53687 -1344.42944 -51.29423 452
44080.07812 -28022.65430 8755.78223 1000
50687.31250 -46721.50391 142.81718 1000
3763.65381 -3471.96997 -1220.74329 1000
4265.48145 -4044.50342 38.16887 446
4224.42578 -4055.18066 38.53903 447
4184.38428 -4065.19751 39.22917 447
4144.65771 -4075.20776 39.26256 448
4104.45752 -4085.47876 38.46807 449
4078.71558 -4109.17041 38.34015 479
4078.78711 -4160.89551 38.22721 373
4096.08203 -4230.55518 37.53590 372
4269.99951 -4469.07959 31.93160 436
4136.27197 -4379.10303 35.65045 315
4150.68213 -4449.93604 33.52682 350
4171.42090 -4528.50684 33.16931 283
2808.28271 -3245.64795 -6.02566 498
2814.66162 -3253.21313 62.88604 472
2744.55762 -4392.74463 48.76141 498
156.79065 -126.05856 106.18954 1000
2873.58057 -5351.22461 133.64331 460
2830.24951 -5347.64453 134.64894 458
2788.94922 -5345.36475 134.80188 449
2746.78662 -5344.91797 133.86801 454
2706.48950 -5345.85449 133.67599 425
2668.00220 -5349.07666 133.12659 430
2629.99341 -5352.97803 133.10204 407
2591.42749 -5358.27686 133.17534 410
2608.63501 -5395.25488 230.76836 265
2553.42529 -5363.63623 134.67827 410
2563.87793 -5384.63037 231.38702 495
2515.81104 -5368.68604 133.26160 411
2528.43774 -5394.52539 231.05867 495
2479.32153 -5374.75439 133.73293 413
2491.37744 -5403.20801 230.64470 496
2443.57959 -5381.26465 133.38260 414
2454.07007 -5407.88135 231.01181 496
2406.57935 -5389.01270 133.51585 415
2419.34570 -5416.14209 229.93187 496
2370.76587 -5395.07275 132.84966 415
2385.76782 -5429.49951 230.16356 496
2334.25610 -5404.16309 134.04950 441
2349.46240 -5439.28809 230.12366 497
2298.70728 -5411.53271 133.72340 441
2313.49512 -5448.01465 229.15022 497
2342.98901 -5520.35059 329.12363 497
2263.03540 -5419.45020 133.03796 442
2278.53540 -5455.77588 230.41150 497
2307.89429 -5529.84619 329.31863 497
2228.92798 -5426.37500 134.30876 442
2273.51123 -5540.23633 328.31726 493
2193.16724 -5433.77832 133.66380 442
2237.16357 -5549.60156 328.16724 499
2160.92993 -5453.88379 134.01123 271
2209.64331 -5580.40820 329.41483 295
2226.16211 -5727.34424 134.11415 498
2188.92993 -5736.92578 132.63951 498
2051.85352 -5466.91699 133.11028 477
2016.89551 -5474.14551 133.54343 477
1982.44641 -5482.68213 133.08656 497
1946.91455 -5491.21875 133.73839 497
1915.69751 -5507.29883 133.31747 462
1910.52197 -5606.61572 132.67542 290
1872.47876 -5606.77295 133.99753 441
1876.13977 -5617.21826 229.45583 278
1896.13013 -5803.48926 233.05437 458
5781.97217 -20021.24805 -1914.93164 1000
1151.61108 -4453.08252 132.23027 377
786.13025 -3598.14185 132.76979 288
757.68695 -3565.26611 73.23969 285
738.66223 -3465.90967 132.45967 290
713.74127 -3450.56470 75.32416 292
694.71393 -3341.85181 132.42398 291
673.82703 -3346.03467 76.83144 287
656.52557 -3246.99707 132.50075 330
636.32812 -3250.35645 78.48016 322
629.47089 -3205.27563 132.46414 361
609.86530 -3208.20288 79.06945 335
603.23846 -3170.50952 132.81210 375
584.39038 -3174.58618 79.64767 342
578.95026 -3142.12305 132.26170 382
560.09741 -3145.62183 80.36856 350
555.96570 -3120.33252 132.32465 409
574.24561 -3242.15625 186.51660 470
536.32965 -3121.58008 81.14637 362
533.15570 -3100.43481 132.03552 401
554.88269 -3248.54590 186.34213 472
514.08258 -3101.37720 80.90832 372
511.53830 -3080.40991 132.19316 408
535.24481 -3255.65186 186.38091 472
492.41953 -3079.09521 81.88631 370
489.98669 -3063.18872 132.19771 409
516.07056 -3261.84106 186.41466 471
472.46252 -3076.32324 81.65140 297
469.08456 -3046.71558 132.29477 404
496.69983 -3268.14600 185.90247 471
455.40640 -3090.15356 80.97801 297
448.07651 -3030.22900 132.54883 387
476.32965 -3274.31714 186.61075 471
437.17444 -3103.52661 81.50696 296
431.18564 -3045.94214 132.21330 317
456.67050 -3280.50049 186.64412 471
424.63422 -3163.19165 80.27914 281
417.20114 -3099.56958 132.48363 313
437.26346 -3287.38086 186.27847 471
405.70425 -3172.74585 131.87357 308
419.68463 -3312.04126 186.89371 384
-15673.05469 -41519.62500 8205.62695 1000
-560.44843 -1190.30127 131.69417 317
-559.81586 -1189.02283 154.17636 317
-559.20953 -1187.87524 176.08833 317
-558.71021 -1186.88513 198.31773 317
-558.14392 -1185.56799 220.57187 317
-557.58331 -1184.47388 242.67714 317
-556.74390 -1183.49451 264.85043 317
-556.37347 -1182.29663 287.22079 317
-566.80414 -1184.67029 64.91388 489
-566.57550 -1183.59875 87.22276 489
-565.92383 -1182.86230 109.70941 489
-565.19476 -1181.88684 131.61546 489
-564.75702 -1180.95386 153.99811 490
-564.26129 -1179.71814 175.92445 490
-563.59851 -1178.97485 198.05650 490
-563.17603 -1177.87878 220.37158 490
-562.68005 -1177.18884 242.55675 490
-562.28619 -1176.26807 264.81061 489
-561.72266 -1175.17285 286.99475 489
-950.22662 -1790.66479 97.57012 489
-949.25287 -1789.48157 131.75539 489
-948.47333 -1788.00525 165.22141 489
-947.84412 -1786.49329 199.52513 489
-946.79242 -1784.80493 233.03294 489
-945.94037 -1783.90015 267.27362 489
-945.52075 -1782.55566 300.72015 455
-1324.01318 -2396.26147 131.15491 488
-1322.97900 -2394.75024 177.08836 488
-1321.71362 -2392.39185 222.32481 488
-1320.43579 -2389.94409 268.36914 454
-1319.28528 -2387.98730 313.25174 454
-1131.88965 -2043.37988 565.58588 1000
-26226.61328 -35838.01172 -7219.33789 1000
-41705.18750 -21543.46094 7889.42920 1000
90.12741 -2.98059 127.99310 360
90.12716 -2.98003 128.23759 361
89.74759 -3.10214 128.38780 306
90.23693 -2.87028 128.01253 361
90.23688 -2.87175 128.25761 362
89.78081 -3.01250 128.38751 306
88.68639 -3.35518 128.38696 302
90.34328 -2.76226 128.03445 363
90.34386 -2.76300 128.27478 363
89.81484 -2.92670 128.38751 306
88.72017 -3.25994 128.38690 302
90.45224 -2.65620 128.05415 364
90.45026 -2.65708 128.29375 365
89.84981 -2.83749 128.38701 306
88.75371 -3.16472 128.38559 302
90.55573 -2.55148 128.07283 365
90.55657 -2.55061 128.31352 366
89.88600 -2.74807 128.38676 306
88.78914 -3.06860 128.38568 302
90.65862 -2.44776 128.09259 367
90.66093 -2.44841 128.32915 367
89.92122 -2.65895 128.38701 306
88.82298 -2.97390 128.38799 302
90.76191 -2.34612 128.11163 368
90.76270 -2.34672 128.34547 368
89.95972 -2.56885 128.38600 306
88.85779 -2.87917 128.38596 302
87.57642 -3.23654 128.38704 298
90.86209 -2.24637 128.12898 369
90.86330 -2.24356 128.36261 370
89.99680 -2.48012 128.38570 306
88.89548 -2.78297 128.38806 302
87.61384 -3.13087 128.38750 298
90.96375 -2.14606 128.14513 370
90.96316 -2.14431 128.37776 371
90.03343 -2.39241 128.38622 306
88.93265 -2.68802 128.38629 302
87.64866 -3.02750 128.38661 298
91.06185 -2.04787 128.16063 372
91.03119 -2.05361 128.38617 310
90.07256 -2.30277 128.38701 306
88.96984 -2.58922 128.38493 302
87.68410 -2.92599 128.38622 298
91.15724 -1.94976 128.17691 373
91.07153 -1.97209 128.38693 310
90.11165 -2.21435 128.38570 306
89.00574 -2.49556 128.38812 302
87.72023 -2.82097 128.38762 298
91.25443 -1.85357 128.19263 374
91.11278 -1.88874 128.38535 310
90.15121 -2.12658 128.38646 306
89.04549 -2.40021 128.38651 302
87.75856 -2.71605 128.38753 298
91.34973 -1.75767 128.20915 376
91.15253 -1.80539 128.38577 310
90.19180 -2.03764 128.38628 306
89.08390 -2.30332 128.38770 302
87.79478 -2.61224 128.38737 298
91.36958 -1.68094 128.20197 462
91.19471 -1.72245 128.38562 310
90.23124 -1.94962 128.38553 306
89.12577 -2.20846 128.38541 302
87.83378 -2.51086 128.38803 298
91.39143 -1.60414 128.19620 463
91.23613 -1.64090 128.38634 310
90.27157 -1.85921 128.38646 306
89.16412 -2.11066 128.38551 302
87.87402 -2.40586 128.38490 298
86.35390 -2.75225 128.38489 294
91.41290 -1.52859 128.19032 464
91.27905 -1.55657 128.38644 310
90.31371 -1.77036 128.38599 306
88.10976 -2.25736 128.14432 362
87.91412 -2.30105 128.38628 298
86.39097 -2.63845 128.38625 294
91.43233 -1.45155 128.18387 464
91.32111 -1.47546 128.38760 310
90.35531 -1.68037 128.38721 306
87.91736 -2.20581 128.09300 361
87.91424 -2.20521 128.38013 361
86.42952 -2.52396 128.38496 294
91.45352 -1.37210 128.17780 465
91.36436 -1.39228 128.38708 310
90.39954 -1.59116 128.38521 306
87.71494 -2.15096 128.03770 360
87.71347 -2.14982 128.33096 360
86.47227 -2.41006 128.38719 294
91.47372 -1.29592 128.17177 466
91.40870 -1.30836 128.38675 310
90.44170 -1.50233 128.38652 306
87.50490 -2.09442 127.98488 358
87.50547 -2.09547 128.27736 359
86.51122 -2.29819 128.38614 294
91.49591 -1.21836 128.16559 466
91.45457 -1.22555 128.38718 310
90.48696 -1.41493 128.38788 306
87.29099 -2.03842 127.92918 357
87.29154 -2.04023 128.22774 357
86.55375 -2.18296 128.38680 294
91.51538 -1.13853 128.15942 467
91.49818 -1.14296 128.38663 310
90.53137 -1.32516 128.38728 306
87.11990 -1.96806 127.88089 451
87.11854 -1.96908 128.18295 452
86.59707 -2.06879 128.38774 294
91.53606 -1.06171 128.15369 468
91.53745 -1.06092 128.38503 469
90.57590 -1.23514 128.38556 306
87.03252 -1.88432 127.85128 451
87.03313 -1.88299 128.15573 451
86.63853 -1.95485 128.38483 294
91.55890 -0.98243 128.14708 468
91.55695 -0.98243 128.37959 469
90.62183 -1.14762 128.38521 306
86.94642 -1.79477 127.82422 450
86.94508 -1.79338 128.13246 450
86.68369 -1.84192 128.38673 294
91.57853 -0.90346 128.14107 469
91.57739 -0.90309 128.37299 470
90.66711 -1.05857 128.38678 306
86.85793 -1.70729 127.79569 449
86.85544 -1.70461 128.10291 449
86.72527 -1.72935 128.38646 294
91.59983 -0.82504 128.13333 470
91.60002 -0.82420 128.36412 471
90.71511 -0.97013 128.38612 306
86.86381 -1.59898 127.78745 302
86.76508 -1.61564 128.07869 449
86.76400 -1.61577 128.38539 449
91.62190 -0.74530 128.12569 470
91.62003 -0.74524 128.35922 471
90.76146 -0.88048 128.38718 306
86.90641 -1.48836 127.78642 302
86.67439 -1.52218 128.05058 448
86.67458 -1.52434 128.36092 448
91.64178 -0.66755 128.11928 471
91.64193 -0.66629 128.35080 472
90.80930 -0.79329 128.38628 306
86.95332 -1.37223 127.78716 302
86.58171 -1.42924 128.02327 447
86.58059 -1.43189 128.33594 447
91.66307 -0.58546 128.11264 471
91.66388 -0.58543 128.34419 472
90.85738 -0.70250 128.38567 306
86.99718 -1.26297 127.78685 302
86.48533 -1.33394 127.99471 446
86.48424 -1.33543 128.30693 447
91.68453 -0.50551 128.10381 472
91.68496 -0.50695 128.33701 473
90.90609 -0.61336 128.38725 306
87.04398 -1.14859 127.78770 302
86.39091 -1.23840 127.96412 445
86.38889 -1.23926 128.28371 446
91.70747 -0.42518 128.09772 473
91.70638 -0.42720 128.33191 474
90.95578 -0.52491 128.38739 306
87.08942 -1.03635 127.78817 302
86.30033 -1.14029 127.93682 493
86.30271 -1.14195 128.25484 493
85.17443 -1.28802 128.38443 290
91.72791 -0.34601 128.09021 473
91.72817 -0.34705 128.32277 474
91.00660 -0.43801 128.38548 306
87.13700 -0.92546 127.78639 302
86.27379 -1.03320 127.92046 492
86.27090 -1.03367 128.24257 493
85.22032 -1.16728 128.38594 290
91.74909 -0.26429 128.08226 474
91.74916 -0.26421 128.31609 475
91.05722 -0.34700 128.38535 306
87.18791 -0.81125 127.78652 302
86.24276 -0.92200 127.90650 492
86.24216 -0.92229 128.22723 493
85.27187 -1.04066 128.38464 290
-45790.78906 -5488.52832 10112.74805 1000
91.77197 -0.18478 128.07317 474
91.77094 -0.18396 128.30806 475
91.10826 -0.25970 128.38551 306
87.23720 -0.69835 127.78593 302
86.21497 -0.81465 127.88901 492
86.21331 -0.81553 128.21173 493
85.32201 -0.91624 128.38852 290
91.79301 -0.10184 128.06708 475
91.79329 -0.10304 128.30147 476
91.16001 -0.16949 128.38776 306
87.28751 -0.58715 127.78658 302
86.18661 -0.70502 127.87484 492
86.18378 -0.70242 128.20047 493
85.37283 -0.79208 128.38803 290
91.81450 -0.02190 128.05893 475
91.81618 -0.02200 128.29407 476
91.21206 -0.08186 128.38783 306
87.33582 -0.47302 127.78678 302
86.15306 -0.59474 127.85986 492
86.15444 -0.59385 128.18582 492
85.42622 -0.66556 128.38503 290
91.80604 0.05776 128.04251 488
91.80553 0.05827 128.27895 489
91.26418 0.00729 128.38541 306
87.38647 -0.36005 127.78565 302
86.12655 -0.48027 127.84102 491
86.12560 -0.48146 128.17073 492
85.47820 -0.54057 128.38817 290
91.78378 0.13636 128.02190 487
91.78382 0.13479 128.25928 488
91.31730 0.09326 128.38699 306
87.43800 -0.24903 127.78739 302
86.09362 -0.36906 127.82577 491
86.09451 -0.36821 128.15585 492
85.53056 -0.41784 128.38687 290
91.76469 0.21481 128.00316 487
91.76407 0.21618 128.24167 488
91.36967 0.18364 128.38644 306
87.48978 -0.13801 127.78753 302
86.06228 -0.25287 127.81075 491
86.06200 -0.25345 128.13695 492
85.58682 -0.29282 128.38867 290
91.74116 0.29373 127.98356 487
91.74057 0.29497 128.22292 488
91.42592 0.27249 128.38725 306
87.54413 -0.02535 127.78582 302
86.03190 -0.13879 127.79143 490
86.03159 -0.14040 128.12112 491
85.64057 -0.17003 128.38826 290
91.71976 0.37488 127.96171 487
91.72128 0.37540 128.20366 488
91.48051 0.35998 128.38658 306
87.59805 0.08700 127.78746 302
86.06194 -0.01772 127.78720 298
86.00426 -0.02504 128.10707 491
85.69803 -0.04601 128.38670 290
91.69788 0.45769 127.94138 486
91.69742 0.45835 128.18480 487
91.53582 0.44750 128.38531 306
87.65219 0.19964 127.78644 302
86.11567 0.10027 127.78568 298
86.02094 0.09395 128.10255 483
85.75512 0.08002 128.38643 290
91.67643 0.54129 127.92194 486
91.67605 0.54104 128.16525 487
91.59084 0.53392 128.38564 306
87.70727 0.31005 127.78879 302
86.17249 0.22457 127.78786 298
86.05565 0.21712 128.09608 483
85.81096 0.20107 128.38826 290
91.65389 0.62440 127.90136 486
91.65409 0.62346 128.14574 487
91.64861 0.62248 128.38757 306
90.53304 0.56461 128.38669 302
86.22870 0.34635 127.78789 298
86.08455 0.33728 128.09349 483
85.86928 0.32713 128.38615 290
91.63261 0.70763 127.87827 485
91.63173 0.70668 128.12471 486
91.63133 0.70671 128.37039 487
90.58942 0.66029 128.38687 302
86.28325 0.46712 127.78590 298
86.11781 0.45619 128.08702 484
85.92814 0.44886 128.38783 290
91.60935 0.79283 127.85905 485
91.60815 0.79365 128.10564 486
91.60839 0.79236 128.35007 487
90.64742 0.75485 128.38667 302
86.34371 0.58801 127.78824 298
86.15126 0.57739 128.08322 484
85.98867 0.57166 128.38461 290
91.58490 0.87902 127.83625 485
91.58611 0.87900 128.08513 486
91.58473 0.87973 128.33084 487
90.70647 0.85077 128.38664 302
86.40006 0.70801 127.78957 298
86.18398 0.70219 128.07773 485
86.05091 0.69608 128.38486 290
91.56253 0.96695 127.81348 484
91.56117 0.96584 128.06506 485
91.56359 0.96506 128.31221 486
90.76569 0.94532 128.38715 302
86.45776 0.82756 127.78770 298
86.21776 0.82458 128.07118 485
86.11102 0.82003 128.38623 290
91.53767 1.05417 127.79323 484
91.53850 1.05198 128.04546 485
91.53983 1.05336 128.29478 486
90.82360 1.03829 128.38686 302
86.51987 0.95037 127.78770 298
86.24749 0.94401 128.06703 486
86.17352 0.94104 128.38795 290
91.51622 1.14232 127.77061 484
91.51450 1.14333 128.02431 485
91.51434 1.14325 128.27333 486
90.88429 1.13185 128.38568 302
86.57899 1.06998 127.78917 298
86.28235 1.06830 128.06203 486
86.23564 1.06521 128.38785 290
91.49209 1.23260 127.74985 483
91.49157 1.23106 128.00246 484
91.49127 1.23287 128.25328 485
90.94628 1.22792 128.38643 302
86.64141 1.19066 127.78806 298
86.33848 1.18969 128.06224 422
86.29929 1.18808 128.38687 290
91.46705 1.32118 127.72738 483
91.46587 1.32145 127.98093 484
91.46619 1.32336 128.23538 485
91.00600 1.32176 128.38554 302
86.70373 1.31082 127.78802 298
86.46014 1.30895 128.07288 423
86.36082 1.30978 128.38475 290
