# .PCD v.7 - Point Cloud Data file format
VERSION .7
FIELDS x y z rgb
SIZE 4 4 4 4
TYPE F F F U
COUNT 1 1 1 1
WIDTH 1056
HEIGHT 1
VIEWPOINT 5943.888672 -3999.819824 132.760345 -0.177051 -0.137760 -0.007685 0.974482
POINTS 1056
DATA ascii
-195.28409 1.00262 53.25307 324
-195.34103 2.78230 53.29493 324
-195.28484 4.57497 53.28185 324
-195.38887 6.41209 53.24710 324
-195.29901 8.19596 53.32483 324
-195.32666 9.96733 53.32238 324
-195.34773 11.81916 53.24364 324
-269.56519 57.59082 32.36847 318
-283.99573 59.75988 35.22565 316
-263.22092 58.80598 34.03648 320
-277.77600 61.13535 36.74467 322
-293.94193 63.70317 39.43322 312
-259.08124 60.43080 35.08422 350
-273.63251 62.87730 37.65761 346
-289.64679 65.50897 40.37172 341
-257.07733 62.32936 35.52625 350
-271.58511 64.84313 38.09094 347
-287.76251 67.57078 40.79347 341
-255.26555 64.19216 35.90294 351
-269.71561 66.83479 38.51581 345
-288.12128 70.06993 40.55928 319
-253.33806 66.08904 36.31645 351
-268.62384 68.87994 38.64437 322
-251.53415 67.96549 36.79483 352
-270.49762 71.55872 38.15044 319
-252.60330 70.37309 36.40531 322
-272.69940 74.33095 37.46996 319
-254.55124 73.01307 35.76053 322
-256.57092 75.73641 35.03454 321
-20284.70508 5744.64307 -227.75372 1000
-21591.77344 6111.84375 3837.62524 1000
-52407.17188 17265.25000 12983.92871 1000
-55216.44922 18952.61133 -6629.36719 1000
-41432.34375 17148.47461 2314.32178 1000
-910.78864 416.96869 385.29764 1000
-1278.39636 618.88434 7.89954 469
-1283.47729 621.31110 31.90695 421
-1271.70325 626.34503 7.83722 497
-1274.71362 627.41754 32.66769 495
-1277.82410 629.08582 57.09181 476
-1282.30127 630.70117 81.68462 426
-1270.21619 635.84302 7.56101 474
-1272.65051 636.89978 32.34835 474
-1275.39758 637.91113 56.90578 430
-1277.80823 639.10114 81.70303 427
-53068.96875 30498.03516 5128.54834 1000
-26126.21094 23764.58203 -3950.71631 1000
-5675.07422 14478.67383 -380.07486 458
-5638.04736 14383.05078 -124.06895 459
-5568.77783 14472.13379 -377.33841 459
-5533.51855 14380.04004 -121.96905 464
-5535.49561 14384.77051 132.58221 458
-5467.24463 14469.75000 -378.68997 448
-5430.11475 14375.04102 -121.13879 469
-5429.31543 14376.13574 131.55539 444
-5362.66455 14468.89062 -374.46634 449
-5331.36963 14375.97266 -119.62575 469
-5260.13867 14466.11328 -373.14856 449
-5227.67480 14375.30664 -121.59619 470
-5161.80908 14462.90332 -370.90234 450
-5130.01172 14374.44434 -117.50706 470
-5058.12646 14464.72461 -371.23132 450
-5029.73047 14375.19434 -116.44485 471
-4960.66895 14461.91699 -368.65967 450
-4929.72217 14373.32715 -119.88646 471
-4860.00684 14460.04883 -368.02536 469
-4828.93750 14373.99805 -116.41647 472
-4761.15039 14463.50000 -367.63416 469
-4731.59424 14375.10840 -117.74832 472
-4662.41162 14460.45996 -367.33472 470
-4633.32422 14376.26270 -114.75611 473
-4564.55957 14459.75391 -367.10059 470
-4534.11719 14376.61230 -114.84596 473
-4465.30420 14459.61621 -365.54092 471
-4438.64697 14372.54102 -115.39505 474
-4367.69678 14459.21191 -365.05835 471
-1116.91980 3621.80347 -62.22759 474
-4267.87695 14458.32227 -361.09265 472
-4243.58740 14374.99414 -114.01209 474
-4171.76660 14459.21484 -362.02737 473
-4147.10400 14373.09180 -113.40971 475
-4074.70435 14459.80957 -360.23740 474
-4051.76538 14375.37695 -115.40656 475
-3981.24585 14457.27246 -360.94025 474
-3956.62207 14373.70898 -112.75649 476
-3882.82666 14459.71191 -358.24966 475
-3862.43091 14373.34766 -112.82487 476
-3789.46899 14456.11133 -356.69431 475
-3765.91162 14374.05859 -113.50224 476
-3691.80127 14458.27051 -356.56577 475
-3668.63574 14373.10547 -111.05618 477
-3676.99951 14403.78809 130.75304 427
-3598.49487 14459.98633 -356.08633 476
-3577.46509 14373.34766 -111.18707 477
-3582.91357 14403.10352 131.45282 428
-3502.77856 14459.93066 -357.64651 476
-3481.85376 14373.40039 -111.45396 478
-3488.91846 14401.61035 131.06517 428
-3407.01880 14456.32227 -356.38113 476
-3388.72437 14374.73340 -108.91196 478
-3396.47461 14402.58691 131.91478 428
-3316.24463 14455.34668 -354.21066 477
-3294.71729 14371.67480 -110.83189 486
-3303.95557 14401.16211 131.37909 429
-3222.38721 14457.05176 -351.92960 477
-3202.30542 14371.91504 -107.64880 486
-3209.45581 14400.70898 130.19225 429
-3127.06470 14455.97070 -352.70859 477
-3110.83374 14375.48340 -109.66131 487
-3115.97363 14399.44922 131.94417 429
-3033.96338 14455.95312 -354.03775 478
-1185.72754 5483.02832 -91.93945 487
-3022.72119 14400.85840 130.50485 429
-2940.11841 14454.71289 -353.02081 478
-2925.56909 14373.59180 -106.63000 487
-2929.68359 14400.79492 130.69714 430
-2846.52148 14455.78809 -352.66727 478
-2830.27026 14375.68555 -107.00455 487
-2836.45825 14399.51562 132.83684 430
-2755.06299 14457.49707 -352.27945 479
-2741.38525 14376.38770 -108.05040 488
-2742.32227 14398.05469 133.97278 430
-2662.88428 14454.04297 -349.95078 479
-2647.12695 14374.12793 -105.93349 488
-2654.15649 14399.58203 131.00375 430
-2571.88501 14455.22559 -349.83707 479
-2555.68262 14377.18164 -107.12066 488
-2562.36035 14398.35449 133.47905 385
-2478.20288 14456.04980 -348.36295 479
-2467.87891 14376.56055 -108.43399 489
-2471.88232 14400.04785 130.61659 385
-2387.96997 14456.07422 -346.95938 480
-2373.37012 14376.33398 -106.84282 489
-2381.36182 14403.04492 129.96431 385
-2298.14575 14455.65723 -345.85080 480
-2283.33545 14376.75781 -106.09316 489
-2287.96191 14404.05762 133.41135 385
-2206.44604 14456.60449 -348.89941 480
-2194.69263 14377.31641 -106.58174 489
-2199.45044 14405.37207 132.41238 385
-2310.36987 15112.43164 382.87759 486
-2115.41162 14453.85059 -346.33191 480
-2100.56348 14378.60742 -105.37679 490
-2108.24609 14407.08594 133.61670 385
-2213.59546 15097.74414 379.94348 487
-2024.30847 14455.24414 -346.92880 481
-2010.01367 14376.91406 -105.57112 490
-2015.29932 14410.84180 132.79720 385
-2116.80859 15080.07324 380.89459 487
-1932.61182 14453.60352 -346.23483 481
-1919.99280 14377.73633 -107.23449 490
-1928.79419 14414.25195 133.57471 385
-2016.86426 15065.13770 378.76175 488
-8563.35742 61789.31641 9386.83691 1000
-1842.19897 14454.28516 -346.49802 481
-1831.13965 14381.11621 -105.04440 490
-1835.49463 14414.21191 133.77113 385
-1920.40710 15047.67188 382.36102 488
-1753.56689 14454.80762 -345.74899 481
-1743.98413 14379.79785 -106.64233 490
-1746.26526 14418.82422 133.28900 386
-1824.35938 15029.51270 381.55548 488
-1661.20361 14452.87891 -345.38409 481
-1652.27124 14377.87012 -103.49893 490
-1729.00183 15002.93359 131.34016 489
-1731.32068 15014.90918 379.54868 489
-1569.34192 14454.68555 -344.90826 482
-1563.14661 14379.62695 -106.54100 491
-1630.87048 14988.56055 131.21933 489
-1635.02197 14997.18066 379.55594 489
-1479.80359 14456.68359 -344.61542 482
-1470.78870 14379.30664 -106.28773 491
-1538.72595 14974.80273 131.52072 490
-1536.83044 14981.14453 380.05994 490
-1391.51501 14455.80566 -343.27353 482
-1385.54785 14380.44531 -103.43687 491
-1444.07471 14960.24414 132.13023 498
-1443.10742 14968.85449 378.80615 498
-1302.18066 14451.86230 -344.34473 482
-1293.09436 14382.19434 -103.81156 491
-1348.78040 14958.27441 133.49368 498
-1351.05249 14970.11816 378.38788 498
-1211.46423 14454.52539 -344.13217 482
-1204.96252 14383.77344 -104.85456 491
-1259.38098 14960.30566 132.79068 498
-1257.97607 14966.53418 377.18521 498
-1123.77356 14453.65625 -340.81033 482
-1115.43689 14382.96680 -104.15726 491
-1162.68066 14958.40234 134.38779 498
-1164.33691 14966.45117 378.90820 498
-1034.28442 14453.53906 -343.90778 482
-1026.70215 14381.84668 -102.96326 491
-1074.22046 14959.00879 132.08858 498
-1073.37024 14965.05957 379.72873 498
-941.92035 14452.42676 -343.39993 482
-936.82745 14383.96582 -103.41882 492
-976.46362 14923.66504 132.82452 470
-980.74286 14967.94629 377.93896 498
-852.81665 14455.52051 -341.91638 483
-850.39691 14383.12402 -102.11502 492
-880.96729 14878.32910 130.54185 471
-885.97894 14968.31152 375.75592 499
-765.15472 14454.40137 -342.96167 483
-759.28088 14383.90723 -104.25523 492
-786.17371 14839.36719 130.41872 472
-794.76929 14964.61426 377.30084 499
-674.69312 14452.23047 -339.75604 483
-670.87457 14382.94043 -102.28196 492
-694.63483 14797.75879 134.16100 472
-703.65656 14962.24414 378.47626 499
-586.80182 14451.71094 -340.28601 483
-584.06219 14384.23926 -102.17355 495
-600.70593 14756.70410 131.15848 473
-607.48840 14963.45508 378.47308 499
-498.17059 14453.88574 -341.33963 483
-495.13809 14384.06543 -101.20850 495
-507.22559 14716.34766 134.15392 474
-516.30896 14965.34863 377.80930 499
-408.90317 14453.71484 -342.33389 483
-405.95465 14384.97559 -102.35848 495
-414.44537 14692.65332 133.60413 499
-426.04449 14961.29492 376.80923 499
-428.81467 15016.20801 625.56848 499
-319.59277 14455.55957 -341.89404 483
-317.27908 14387.16602 -104.35790 495
-328.30908 14694.12988 134.10883 499
-331.77322 14964.15820 377.30811 499
-334.20346 15016.52148 623.77765 499
-341.62570 15183.06250 877.58954 472
-228.56944 14452.65137 -340.27774 483
-229.63312 14387.42969 -101.82893 495
-236.57222 14690.50684 130.75006 499
-242.85309 14962.15625 379.30811 499
-240.23804 15013.66016 623.50409 499
-247.60992 15157.80273 878.83185 485
-141.04686 14451.74512 -339.03503 483
-140.67706 14387.79492 -103.10514 495
-146.91119 14693.27148 133.36313 499
-147.84303 14961.87402 379.17566 499
-149.34189 14996.23242 624.64459 455
-50.17921 14454.42188 -339.05176 483
-51.30279 14387.35938 -102.52197 495
-54.82039 14688.85352 130.98735 499
-54.56879 14923.09570 378.82019 456
-57.86834 14934.86035 620.21948 455
-56.10014 15070.69336 870.89001 362
36.50855 14454.95801 -339.14670 483
36.94654 14389.90527 -104.15751 495
33.88146 14691.14941 132.81868 499
36.08981 14862.41211 374.28317 456
34.68856 14872.52930 620.67828 456
35.82896 15003.17188 870.88843 363
124.62676 14453.94434 -341.22684 483
126.23693 14386.72070 -103.50751 495
126.30553 14691.45410 130.46664 499
127.42028 14802.02051 373.84912 457
125.70374 14812.43164 618.42468 457
127.17613 14933.46094 867.09772 363
214.51790 14454.80957 -338.86520 483
215.18822 14387.42578 -102.29318 495
216.44209 14687.59570 132.79729 499
216.34477 14744.39648 373.13840 499
216.44392 14755.18164 614.85980 499
217.15231 14863.30664 863.16180 364
305.51974 14454.40625 -341.56113 483
301.90494 14389.56348 -101.48244 495
306.67111 14688.32227 131.72420 499
308.61584 14747.52832 374.48825 499
306.57593 14752.61133 615.84912 499
307.81650 14846.44336 860.80017 389
393.48672 14456.47168 -341.01282 483
389.61469 14391.00098 -104.53810 495
398.57019 14688.55176 130.80522 499
399.12805 14717.25879 373.04483 499
398.69339 14723.53223 614.57379 499
401.99005 14851.55273 860.90179 389
405.42068 15117.32520 1122.62781 485
417.50116 15587.95117 1412.65662 455
416.39398 15609.77734 1668.75977 272
480.73016 14452.87305 -342.56253 483
480.56003 14392.09375 -104.58865 495
488.66104 14686.77539 133.00548 499
490.76620 14714.53125 374.42380 499
490.56705 14721.51758 614.79919 499
491.79980 14849.80176 861.69342 389
501.70312 15117.44922 1123.29504 485
570.97455 14455.00098 -342.41687 483
568.51691 14390.30469 -101.06232 495
579.45856 14687.00391 131.50868 499
579.60443 14714.53516 374.22504 499
579.99481 14721.58008 613.46198 499
585.66278 14850.17480 862.15936 389
591.80225 15071.65723 1122.29333 453
657.72729 14453.90918 -341.03757 483
658.53607 14391.05371 -103.38581 495
668.93341 14685.33594 130.88239 499
670.27612 14712.20020 375.07172 499
669.79504 14719.80859 615.15436 499
674.16406 14849.77246 864.50366 389
684.24487 15072.77344 1123.37305 473
749.24902 14455.76074 -341.22916 483
746.60254 14391.17969 -102.90964 495
757.89215 14685.60254 133.34978 499
759.20856 14711.89551 375.26633 499
759.62286 14719.95508 614.72888 499
766.53430 14854.85156 865.12811 389
777.71960 15118.68164 1124.71899 485
836.74762 14453.58691 -339.91232 483
833.39130 14390.55859 -103.58092 495
851.87537 14685.14062 133.29745 499
850.36304 14712.54590 372.19031 499
851.65564 14719.26074 617.14807 499
856.97174 14852.30566 862.98242 389
871.55603 15115.97266 1123.12231 485
928.23431 14456.66113 -340.11859 483
925.27991 14393.95020 -102.11723 495
940.20892 14686.58887 130.69508 499
942.16052 14712.59277 374.68280 499
943.60773 14720.51074 616.25299 499
950.07916 14855.91602 862.35846 389
966.84863 15116.87500 1127.15515 485
1018.18024 14454.55566 -342.05719 483
1011.97253 14392.78613 -104.23657 495
1032.04053 14687.13281 132.27382 499
1031.50415 14713.47168 373.22205 499
1032.47522 14722.45508 616.94128 499
1041.60498 14854.35254 862.63629 389
1107.75940 14453.76562 -342.67590 482
1100.90784 14391.61816 -105.28844 495
1122.00244 14686.49121 133.02435 499
1124.37634 14739.97363 374.56290 499
1125.89856 14749.61523 618.59906 498
1133.11047 14857.39258 864.68756 389
4819.71875 67355.67969 7902.09033 1000
1196.76868 14456.36133 -340.91354 482
1192.38086 14393.56250 -104.72216 494
1212.05908 14683.21387 132.45206 499
1215.86108 14740.61816 375.93799 499
1217.51416 14748.22559 618.08386 498
1224.34949 14858.88184 865.92236 389
1285.66187 14455.27539 -342.88831 482
1280.76160 14394.53418 -102.23870 494
1309.43640 14730.71875 131.15056 499
1308.06677 14741.48145 375.31271 498
1308.53809 14751.28809 615.46338 498
1319.42871 14860.58594 866.27655 389
1373.00598 14455.36328 -340.37625 482
1370.02393 14394.87402 -102.47084 494
1399.08386 14731.89160 131.09372 498
1385.10742 14606.23633 373.29510 421
1386.24744 14572.03516 611.83661 388
1409.00708 14861.49023 864.43140 389
1463.87341 14454.46289 -341.60446 482
1456.79773 14395.30566 -104.71097 494
1489.39001 14731.86719 133.96329 498
1490.92566 14738.33105 373.37823 498
1491.06567 14746.62207 619.39801 498
1503.23169 14864.46191 865.51886 389
1553.03308 14455.48242 -343.81012 482
1546.74353 14396.07324 -105.52450 494
1583.12646 14731.18066 130.79248 498
1581.95264 14740.70215 374.79141 498
1582.45862 14747.26562 617.08948 498
1594.39600 14861.33594 868.70667 380
1643.09009 14453.37598 -345.17633 482
1637.35632 14399.17480 -103.70312 494
1672.37634 14731.07910 132.67047 498
1673.19470 14737.81836 373.88309 498
1672.85193 14748.65039 617.64557 498
1689.80847 14881.39746 869.87311 352
1732.55835 14455.12305 -345.21024 482
1727.07495 14397.50195 -105.48078 494
1767.20398 14770.03516 131.76151 469
1771.41211 14791.63574 375.59033 445
1770.35120 14799.25195 621.37024 445
1790.90344 14963.10156 872.50940 351
1824.44495 14456.51367 -345.58310 481
1815.81689 14399.25684 -102.86629 493
1866.02087 14800.29688 131.80971 469
1870.48608 14853.20020 379.42953 444
1870.12366 14860.73047 623.05725 444
1893.35779 15044.25391 878.02795 351
1912.11548 14456.57129 -342.61572 481
1906.64294 14400.21289 -106.27427 493
1960.95605 14833.07031 134.83749 468
1971.21960 14896.42285 378.68475 467
1973.38647 14923.13184 627.20227 443
2006.16077 14454.65137 -344.55811 481
1998.92993 14398.73047 -104.76993 493
2060.40186 14871.29785 131.40222 467
2067.83179 14932.43555 379.86298 466
2072.29736 14986.91309 626.10840 442
2095.85205 14458.41602 -344.03928 481
2085.57153 14399.43359 -105.09534 493
2158.38525 14902.58105 133.18503 467
2164.24683 14964.53320 382.19028 466
2184.30347 14457.10742 -343.51602 481
2177.74756 14399.88477 -105.22901 493
2255.18652 14936.05664 131.12679 466
2276.76904 14458.23535 -345.26398 480
2269.63184 14402.72266 -105.21967 492
2353.36621 14970.39551 132.35226 465
2369.40820 14456.61523 -345.34000 480
2358.13037 14402.35254 -106.46649 492
2452.07935 14992.23535 131.81102 442
2457.47852 14456.19043 -348.52762 480
2451.51025 14402.82227 -106.44749 494
2551.08594 14456.36426 -346.17752 480
2539.91235 14401.85547 -105.73344 494
2642.76611 14455.37988 -347.80789 479
2632.24243 14403.04492 -104.70451 494
2734.76538 14457.07812 -346.98230 479
2723.91455 14403.92676 -106.18620 493
2827.25708 14456.93848 -347.10434 479
2817.51172 14404.33887 -106.86551 493
2918.55762 14456.93164 -347.61807 479
2908.72339 14405.21973 -107.58913 493
3009.15552 14459.27637 -348.31223 478
3002.16748 14406.37012 -105.78616 493
3102.11401 14460.26855 -351.90500 486
3092.76172 14408.30176 -108.57214 492
3197.60278 14459.60645 -351.11493 485
3185.73633 14408.75098 -110.00227 492
3291.92993 14458.66113 -351.22330 485
3277.63989 14406.32812 -110.49147 492
3384.91650 14463.17578 -351.57745 485
3371.29297 14408.32715 -108.97363 491
3477.10815 14462.46191 -352.81741 484
3464.87891 14410.09180 -107.28000 491
3570.30786 14463.31543 -353.69974 484
3559.30786 14409.86816 -111.01733 490
3664.56128 14460.80273 -355.01685 484
3652.53394 14410.71484 -110.29625 490
3759.73169 14462.09473 -354.13553 483
3750.01587 14412.09375 -110.80521 490
3854.78052 14461.62109 -356.11545 483
3841.49170 14412.60254 -111.05202 489
3949.44141 14464.86035 -358.70157 483
3939.04126 14414.44824 -110.37537 489
4047.41992 14465.33496 -357.74329 482
4034.88696 14415.48926 -113.67184 489
4143.30762 14466.57129 -357.24838 482
4128.67041 14414.75000 -111.44331 488
4237.90381 14464.21289 -360.82465 481
4223.83398 14413.56934 -113.88188 488
4338.18652 14466.83203 -361.42249 481
4319.65771 14417.86328 -113.95382 487
4434.15137 14466.91211 -362.40002 480
4418.06201 14418.99219 -112.31610 487
4529.91602 14469.81836 -361.17435 480
4513.50391 14417.36328 -113.97397 486
4629.16602 14467.00879 -364.45279 480
4611.05127 14419.29102 -114.60063 486
4724.06787 14470.27441 -364.00800 479
4708.88330 14418.77539 -114.35926 485
4826.34814 14469.38281 -367.67416 479
4807.15576 14420.57715 -113.93356 485
4923.40332 14469.36133 -365.77496 478
4907.97363 14421.59180 -113.90243 484
5022.28467 14469.15234 -366.22409 478
5007.61816 14421.61426 -114.76816 484
5123.55322 14473.46484 -366.96875 477
5108.18701 14424.12695 -117.04596 483
5222.34521 14470.51758 -370.29544 477
5208.78662 14423.51270 -115.99771 483
5323.98340 14475.79883 -370.84949 476
5305.49414 14425.43848 -119.42188 482
5426.58447 14482.48828 -374.47491 454
5407.91455 14426.84277 -118.20589 482
5535.12939 14499.91602 -373.69418 453
5510.89941 14431.52539 -120.92902 478
5643.13379 14514.94238 -377.51492 453
5612.73242 14433.88184 -121.86636 477
5752.98291 14528.85352 -377.22968 453
5719.11914 14443.45215 -121.34011 477
5860.99219 14546.87891 -378.64163 452
5823.71436 14455.52930 -120.73222 458
5971.58887 14561.43750 -380.35739 451
5937.69043 14469.84375 -121.62148 457
6082.56494 14578.47852 -384.78790 451
6046.78320 14484.81543 -124.55732 456
6198.19971 14595.36719 -387.09033 406
6156.41846 14503.48730 -126.82114 456
6324.21875 14643.21680 -390.46609 405
6269.83545 14522.43066 -126.64243 454
6450.13721 14689.44922 -392.26932 404
6386.92334 14547.21777 -124.90095 453
6580.07422 14746.32520 -393.09570 382
6501.91846 14567.81836 -129.19809 453
6716.65967 14811.12891 -397.39288 381
6620.07666 14591.91211 -130.48323 452
6864.09717 14891.79004 -402.82370 354
6753.09326 14639.81348 -130.94644 395
7027.22900 14999.40430 -409.58246 287
6884.43213 14691.81055 -133.78627 394
7015.89453 14739.53125 -133.80930 393
7161.23828 14813.73828 -134.41541 354
7323.94385 14913.76953 -138.75377 353
7485.62158 15015.27539 -141.81306 352
1453.64734 1538.55347 -69.10313 463
1458.87769 1544.50085 -35.74700 462
1464.02869 1550.15442 -2.18287 457
1461.84387 1529.24377 -69.05003 497
1467.70837 1535.33997 -36.11724 476
1474.50781 1542.95312 -2.64678 374
1478.86902 1528.21094 -69.99537 374
28071.12500 27392.69727 -6313.36426 1000
3103.45044 736.76959 -19.33435 376
3125.01929 741.55096 30.57812 258
3093.88184 714.50702 -18.90590 409
3085.32178 692.79083 -17.82814 409
3077.53857 672.08978 -17.53146 465
3074.60986 651.89795 -17.12988 483
3072.33545 631.94275 -16.76493 484
3069.05957 612.43774 -16.53211 484
3068.53613 593.32025 -15.95121 493
3068.87036 574.09656 -15.60743 493
3068.86499 555.08685 -15.62506 493
3069.81909 535.83136 -15.24949 493
3071.10205 517.67755 -15.65011 496
3072.93115 498.42493 -15.68404 496
3074.65479 480.26318 -15.32025 496
3161.74756 493.88144 31.15089 271
3076.25195 461.85687 -15.02863 496
3152.31836 473.77731 32.00511 498
3078.44653 443.40079 -15.60525 496
3157.33521 454.72293 31.21053 498
3081.19629 425.09476 -15.24390 496
3200.83862 441.64288 30.45876 428
3083.98828 406.58792 -15.04397 496
3088.03906 387.78165 -15.68389 496
3091.81836 369.91849 -15.88787 496
3289.96997 394.40176 27.82797 497
3095.56641 351.76749 -15.37129 495
3186.09717 362.13550 30.85056 497
3099.98389 333.13406 -15.60291 494
3185.40845 342.38232 31.56600 497
3247.93726 349.19171 81.51703 404
3226.29102 346.95120 133.52914 496
3104.76929 314.95682 -15.60993 494
3229.41455 328.13745 133.31660 477
3109.69312 296.42200 -16.12285 493
3279.60742 313.17218 132.89363 407
3280.39746 313.71454 185.74571 496
3114.19287 278.62396 -16.32173 493
3119.22852 260.08023 -16.17725 493
3359.77441 280.40363 25.52147 496
3124.04126 241.56517 -16.73651 493
3226.54883 249.28046 30.11220 420
3128.09546 223.25096 -16.33365 492
3181.23120 226.99135 31.61137 495
3133.52368 204.61862 -16.92820 492
3185.63013 207.63707 31.05450 495
3137.29468 186.28207 -17.22810 492
3142.53076 167.25803 -17.62259 492
3147.34644 148.70801 -17.09797 491
24987.94531 -9482.81836 2758.37451 1000
2531.76172 -1068.77197 45.18549 489
2536.84668 -1071.25598 88.38091 498
2533.97314 -1087.90515 44.53110 316
11546.96777 -6246.90332 987.89874 1000
39333.12109 -25672.12695 9461.01953 1000
1693.25562 -1238.56995 -304.93301 1000
4521.71436 -3562.77295 131.26036 291
4484.18018 -3577.57690 132.79416 497
4477.39746 -3618.58252 131.50989 368
4327.30176 -3537.30249 131.44872 399
4321.74805 -3576.77124 131.70158 440
4320.41260 -3622.01196 132.70477 423
4324.96191 -3669.87378 131.94254 420
4334.71973 -3723.73999 132.35178 377
4359.62939 -3793.28662 131.40909 365
4387.96191 -3865.21680 131.26114 363
4414.81787 -3938.63159 132.68971 362
4439.38818 -4009.49243 132.71867 329
4475.15088 -4094.07520 132.66530 354
2982.05908 -2940.39551 64.09573 463
2987.90771 -2947.07568 131.59590 475
7693.17773 -7740.59229 1922.83789 1000
2969.34912 -2964.23706 64.42427 376
33448.12891 -40418.05469 -2442.59937 1000
36214.54688 -44322.68750 -13199.88867 1000
3034.18237 -4095.61255 131.36143 497
3230.81616 -5058.10449 228.89436 410
3190.19580 -5063.02637 229.62408 387
3151.55200 -5069.25830 229.12025 392
3114.93774 -5078.58936 228.97868 343
3079.15381 -5090.85400 227.75552 260
3138.96191 -5266.62354 232.21878 499
3033.34692 -5095.38232 224.43774 476
2994.22876 -5099.48291 224.98401 477
2986.65771 -5086.01123 319.73828 496
2953.61914 -5103.07275 224.34610 477
2951.59717 -5099.73633 320.48401 496
2918.76685 -5114.28418 224.68665 496
2917.84888 -5112.81934 318.90909 496
2885.23584 -5126.62891 224.03439 497
2883.32446 -5124.68945 320.26212 497
2848.20972 -5134.48682 224.29285 497
2847.61328 -5131.23096 318.62747 497
2814.73413 -5145.94580 224.07347 497
2812.92310 -5145.29150 318.24387 497
2779.37280 -5157.85742 223.57715 497
2782.46094 -5161.46875 319.08838 497
2746.11816 -5169.60059 223.17020 498
2748.67822 -5173.79297 319.08685 498
2716.13647 -5188.31934 223.62784 498
2714.01343 -5185.87354 317.87070 498
2681.91968 -5199.92383 223.71742 498
2680.18481 -5198.62695 319.09668 498
2715.36011 -5268.38525 417.17227 425
2757.39282 -5438.25391 228.19066 498
2754.80444 -5430.64355 325.50287 468
2682.86719 -5283.16016 416.69308 421
2722.78979 -5450.83887 226.76343 498
2648.54858 -5297.17871 416.91809 497
2687.61108 -5462.55225 227.87383 498
2612.84521 -5305.97607 417.45529 441
2433.02100 -5259.05225 222.18362 393
2399.19458 -5269.78125 222.07968 393
2366.57495 -5280.70605 222.44856 394
2333.88672 -5296.86279 221.90512 298
2331.12280 -5379.50586 223.29997 482
2292.47998 -5382.25928 222.77049 495
2302.64038 -5502.57861 225.94875 291
2247.24194 -5364.32666 317.52020 337
19533.84570 -49222.35938 -1635.36853 1000
1442.25305 -4332.78760 203.64661 347
960.45007 -3447.78491 188.03271 289
953.49518 -3510.84985 188.92299 471
864.16315 -3234.05518 130.06577 292
866.74280 -3242.90015 184.79079 307
828.64349 -3168.44580 129.85547 328
830.59882 -3176.93604 183.35948 351
798.89685 -3130.61499 129.68768 347
803.97955 -3153.60645 183.07872 450
772.97723 -3102.11108 130.23993 357
782.60895 -3149.35010 183.04933 470
747.24017 -3077.22266 129.85950 364
764.66724 -3158.70703 183.38565 470
723.46967 -3056.32471 129.74435 378
746.30609 -3166.89233 182.95006 470
700.19635 -3038.81079 130.49632 385
728.05200 -3175.40942 183.10542 469
677.17633 -3021.34277 130.35831 386
709.61139 -3185.05151 183.61942 469
655.10266 -3004.66846 130.18140 393
691.11694 -3194.05200 183.49371 468
633.68683 -2989.68433 129.97821 407
672.23230 -3202.72852 183.70627 468
612.41412 -2975.87158 130.16826 421
653.26862 -3211.67554 183.54128 468
591.24298 -2964.52271 130.17676 462
634.18414 -3220.67603 183.19992 467
580.43689 -3012.99634 130.06284 304
615.16113 -3229.78149 183.22163 467
578.69409 -3124.40161 129.78656 275
2486.84326 -20249.14844 -3590.94214 1000
608.94623 -26830.30273 -4766.78320 1000
-4868.23193 -40361.13672 -5243.00293 1000
-8226.24219 -35043.72656 -7664.86328 1000
-1223.25366 -2539.68970 131.15579 499
-1222.43347 -2537.53491 177.40031 499
-1221.75232 -2535.95215 224.17487 490
-1221.04736 -2534.48315 270.86621 490
-1220.36890 -2533.14502 318.07443 457
-917.52716 -1894.00269 131.07674 316
-915.71844 -1891.28735 166.00041 387
-914.88922 -1888.96594 201.46460 388
-913.72632 -1886.86377 236.58171 388
-912.29578 -1884.39941 271.29877 388
-911.18945 -1882.76147 306.24524 445
-595.78821 -1256.08691 60.75371 491
-595.71130 -1255.47473 84.31717 461
-595.43127 -1255.21643 107.98499 461
-595.46692 -1255.02698 131.27922 410
-595.41663 -1255.41577 155.03476 410
-596.81238 -1257.17847 178.48463 266
-605.11542 -1254.58435 84.13699 309
-603.83185 -1252.15100 107.70253 381
-603.08447 -1250.54224 131.46663 440
-602.13373 -1249.33044 154.94017 440
-601.67572 -1248.34668 178.11688 481
-601.12567 -1247.01648 201.73253 481
-600.53540 -1246.35352 224.95950 499
-599.91486 -1245.56921 248.61432 499
-599.76849 -1244.75330 271.85236 492
-10156.29785 -16837.23633 -196.82550 1000
-15784.81934 -19062.03125 2569.80859 1000
-13112.90430 -11495.88086 -2177.07373 1000
90.14269 -2.96473 127.69324 359
90.14183 -2.96434 127.94079 359
90.14264 -2.96546 128.18544 360
89.95795 -3.02400 128.38733 302
90.25546 -2.85054 127.71429 360
90.25611 -2.85133 127.95975 361
90.25579 -2.85204 128.20415 361
89.99512 -2.93507 128.38751 302
88.82246 -3.31201 128.38736 298
90.36787 -2.73974 127.73434 361
90.36681 -2.73958 127.97944 362
90.36749 -2.74174 128.22112 362
90.03396 -2.84502 128.38663 302
88.85855 -3.21345 128.38733 298
90.47668 -2.63039 127.75578 363
90.47659 -2.62979 127.99815 363
90.47622 -2.63151 128.23869 364
90.07195 -2.75547 128.38664 302
88.89701 -3.11372 128.38524 298
90.58411 -2.52191 127.77618 364
90.58579 -2.52320 128.01717 364
90.58371 -2.52225 128.25752 365
90.10960 -2.66591 128.38757 302
88.93336 -3.01898 128.38530 298
-8906.89453 -2701.76465 2163.03760 1000
90.69318 -2.41634 127.79405 365
90.69218 -2.41706 128.03618 366
90.69303 -2.41685 128.27351 366
90.14888 -2.57549 128.38695 302
88.97150 -2.92159 128.38727 298
90.79652 -2.31185 127.81490 367
90.79609 -2.31145 128.05203 367
90.79636 -2.31039 128.28882 368
90.18935 -2.48559 128.38748 302
89.00951 -2.82195 128.38805 298
87.62077 -3.21968 128.38692 294
90.90031 -2.20592 127.83310 368
90.90018 -2.20655 128.06909 368
90.89984 -2.20792 128.30428 369
90.22696 -2.39489 128.38652 302
89.04839 -2.72665 128.38773 298
87.65891 -3.11483 128.38657 294
91.00150 -2.10485 127.84892 369
91.00385 -2.10469 128.08403 370
91.00145 -2.10491 128.31841 370
90.26970 -2.30400 128.38564 302
89.08814 -2.62841 128.38795 298
87.69810 -3.00878 128.38792 294
91.10306 -2.00363 127.86730 370
91.10330 -2.00486 128.10141 371
91.10345 -2.00328 128.33273 371
90.31006 -2.21468 128.38696 302
89.13036 -2.52993 128.38622 298
87.73605 -2.90334 128.38757 294
91.20412 -1.90429 127.88210 372
91.20455 -1.90429 128.11604 372
91.20435 -1.90334 128.34622 373
90.35147 -2.12482 128.38612 302
89.16963 -2.43293 128.38753 298
87.77811 -2.79675 128.38629 294
91.30312 -1.80496 127.89742 373
91.30185 -1.80637 128.13110 374
91.30088 -1.80486 128.35965 374
90.39520 -2.03688 128.38602 302
89.21275 -2.33582 128.38669 298
87.81679 -2.69096 128.38824 294
91.36112 -1.71846 127.90380 461
91.35976 -1.71796 128.13445 462
91.36195 -1.71780 128.36511 463
90.43744 -1.94698 128.38586 302
89.25525 -2.23748 128.38802 298
87.85813 -2.58150 128.38525 294
91.38260 -1.63877 127.89653 462
91.38133 -1.64010 128.12784 463
91.38159 -1.63837 128.35846 463
90.48145 -1.85512 128.38620 302
89.29657 -2.14060 128.38649 298
87.90235 -2.47709 128.38815 294
91.40276 -1.56081 127.89085 462
91.40195 -1.56102 128.12372 463
91.40266 -1.56192 128.35228 464
90.52590 -1.76482 128.38617 302
89.34225 -2.04378 128.38625 298
87.94289 -2.36895 128.38808 294
86.26942 -2.76120 128.38695 290
91.42470 -1.48238 127.88548 463
91.42462 -1.48199 128.11681 464
91.42365 -1.48126 128.34595 465
90.56992 -1.67520 128.38588 302
88.06760 -2.24475 128.11855 364
87.98798 -2.26519 128.38675 294
86.31128 -2.64422 128.38617 290
91.44366 -1.40241 127.87930 464
91.44420 -1.40206 128.11169 465
91.44532 -1.40302 128.34204 466
90.61632 -1.58575 128.38768 302
87.87217 -2.19254 128.07005 363
87.87094 -2.19302 128.35657 363
86.35516 -2.52803 128.38560 290
91.46620 -1.32361 127.87122 464
91.46600 -1.32358 128.10561 465
91.46664 -1.32461 128.33606 466
90.66182 -1.49643 128.38591 302
87.66986 -2.13697 128.01913 361
87.67052 -2.14026 128.31129 362
86.40086 -2.40966 128.38506 290
91.48641 -1.24527 127.86474 465
91.48666 -1.24449 128.09898 466
91.48755 -1.24371 128.32822 467
90.70667 -1.40704 128.38588 302
87.46048 -2.08237 127.96683 360
87.45883 -2.08380 128.26385 360
86.44629 -2.29523 128.38751 290
91.50808 -1.16549 127.85962 466
91.50906 -1.16584 128.09097 467
91.50801 -1.16634 128.32440 468
90.75571 -1.31677 128.38617 302
87.24629 -2.02433 127.91436 359
87.24491 -2.02583 128.21635 359
86.48962 -2.17634 128.38586 290
91.52913 -1.08489 127.85313 466
91.53066 -1.08441 128.08659 467
91.53014 -1.08513 128.31596 468
90.80194 -1.22768 128.38573 302
87.10174 -1.94883 127.87627 453
87.09993 -1.94976 128.17943 454
86.53697 -2.05989 128.38805 290
-12460.35254 -2453.87402 3338.18750 1000
91.55172 -1.00541 127.84438 467
91.55234 -1.00590 128.07866 468
91.55122 -1.00532 128.31017 469
90.84999 -1.13931 128.38783 302
87.01311 -1.86234 127.85153 452
87.01481 -1.86429 128.15376 453
86.58370 -1.94351 128.38712 290
91.57208 -0.92574 127.83953 468
91.57302 -0.92479 128.07248 469
91.57318 -0.92670 128.30318 470
90.89962 -1.04960 128.38712 302
86.92665 -1.77573 127.82403 451
86.92420 -1.77386 128.13115 452
86.63068 -1.82773 128.38487 290
91.59369 -0.84512 127.83216 468
91.59412 -0.84590 128.06506 469
91.59423 -0.84426 128.29845 470
90.94662 -0.95934 128.38596 302
86.83498 -1.68420 127.79603 450
86.83533 -1.68586 128.10713 451
86.68042 -1.71281 128.38805 290
91.61654 -0.76402 127.82527 469
91.61514 -0.76545 128.05873 470
91.61598 -0.76388 128.29195 471
90.99602 -0.86936 128.38626 302
86.84048 -1.57537 127.78813 298
86.74339 -1.59194 128.07875 450
86.72752 -1.59583 128.38589 290
91.63849 -0.68341 127.81569 470
91.63803 -0.68410 128.05257 471
91.63742 -0.68351 128.28383 471
91.04832 -0.77987 128.38545 302
86.88621 -1.46357 127.78592 298
86.65153 -1.50158 128.05367 449
86.64939 -1.50088 128.36502 450
91.65863 -0.60400 127.80968 470
91.65816 -0.60354 128.04382 471
91.66004 -0.60416 128.27678 472
91.09833 -0.69107 128.38542 302
86.93626 -1.34646 127.78902 298
86.55535 -1.40766 128.02661 448
86.55504 -1.40813 128.33981 449
91.68231 -0.52236 127.80200 471
91.68189 -0.52226 128.03859 472
91.68209 -0.52270 128.27170 473
91.14970 -0.60211 128.38562 302
86.98306 -1.23186 127.78773 298
86.46070 -1.30877 127.99987 447
86.46219 -1.30968 128.31856 448
91.70277 -0.44056 127.79502 471
91.70275 -0.44184 128.03056 472
91.70299 -0.43929 128.26498 473
91.20134 -0.51251 128.38565 302
87.03269 -1.11448 127.78724 298
86.36523 -1.21270 127.97453 447
86.36234 -1.21166 128.29211 447
-58389.09375 -8464.08008 1098.26392 1000
91.72486 -0.35898 127.78647 472
91.72406 -0.35849 128.02284 473
91.72430 -0.35776 128.25616 474
91.25518 -0.42500 128.38722 302
87.08437 -1.00185 127.78586 298
86.29404 -1.10914 127.95053 494
86.29404 -1.11013 128.27036 494
91.74577 -0.27620 127.78005 473
91.74633 -0.27762 128.01485 474
91.74632 -0.27802 128.24956 474
91.30865 -0.33542 128.38731 302
87.13448 -0.88667 127.78651 298
86.26513 -1.00079 127.93607 493
86.26397 -1.00300 128.25864 494
91.76816 -0.19591 127.76995 473
91.76894 -0.19582 128.00798 474
91.76936 -0.19370 128.24347 475
91.36201 -0.24679 128.38544 302
87.18248 -0.77218 127.78573 298
86.23525 -0.88959 127.92198 493
86.23392 -0.89406 128.24596 494
91.78975 -0.11275 127.76225 474
91.79124 -0.11315 127.99992 475
91.79027 -0.11391 128.23555 476
91.41541 -0.15720 128.38673 302
87.23595 -0.65578 127.78893 298
86.20692 -0.78045 127.90634 493
86.20573 -0.78071 128.22812 494
85.09782 -0.91441 128.38831 286
91.81374 -0.02868 127.75441 474
91.81167 -0.02935 127.99125 475
91.81335 -0.02959 128.22791 476
91.47038 -0.06969 128.38661 302
87.29020 -0.54208 127.78574 298
86.17484 -0.66925 127.89143 493
86.17549 -0.66776 128.21770 493
85.15295 -0.78383 128.38748 286
91.80618 0.05018 127.73956 488
91.80733 0.04991 127.97620 489
91.80661 0.05057 128.21443 490
91.52534 0.01876 128.38530 302
87.34490 -0.42899 127.78686 298
86.14640 -0.55471 127.87513 493
86.14388 -0.55562 128.20126 493
85.21193 -0.65578 128.38451 286
91.78569 0.12938 127.71885 488
91.78786 0.12825 127.95895 489
91.78643 0.12919 128.19682 490
91.58202 0.10791 128.38527 302
87.39662 -0.31603 127.78944 298
86.11710 -0.44440 127.86075 492
86.11310 -0.44439 128.18828 493
85.26833 -0.52887 128.38434 286
91.76572 0.21033 127.69781 488
91.76419 0.20805 127.93975 489
91.76537 0.20872 128.17883 490
91.63782 0.19615 128.38635 302
87.45087 -0.20150 127.78835 298
86.08282 -0.33077 127.84562 492
86.08339 -0.33157 128.17427 493
85.32590 -0.40191 128.38724 286
91.74275 0.28780 127.67886 487
91.74274 0.28819 127.91880 488
91.74335 0.28893 128.15958 489
91.69312 0.28380 128.38597 302
87.50574 -0.08666 127.78898 298
86.05326 -0.21671 127.82746 492
86.05262 -0.21289 128.15828 492
85.38345 -0.27360 128.38780 286
91.72207 0.37077 127.65747 487
91.72226 0.36992 127.90101 488
91.72070 0.37076 128.14009 489
91.72027 0.37125 128.37982 490
90.56584 0.27495 128.38602 298
86.02174 -0.10000 127.81429 492
86.02147 -0.09980 128.14339 492
85.44650 -0.14395 128.38562 286
91.70053 0.45341 127.63799 487
91.70071 0.45250 127.88178 488
91.70010 0.45259 128.12314 489
91.70050 0.45239 128.36270 490
90.62430 0.37067 128.38519 298
86.00301 0.01786 127.79854 482
85.99874 0.01981 128.13098 482
85.50511 -0.01861 128.38850 286
91.67739 0.53651 127.61520 487
91.67709 0.53609 127.85969 488
91.67631 0.53647 128.10411 488
91.67733 0.53577 128.34613 489
90.68146 0.46667 128.38802 298
86.03245 0.13816 127.79494 482
86.03190 0.14003 128.12654 483
85.56755 0.10651 128.38509 286
91.65431 0.61824 127.59591 486
91.65508 0.62078 127.84166 487
91.65633 0.61935 128.08641 488
91.65443 0.61934 128.32759 489
90.74131 0.56062 128.38768 298
86.06432 0.26298 127.78947 483
86.06564 0.26299 128.12314 483
85.63091 0.23367 128.38551 286
91.63226 0.70358 127.57262 486
91.63334 0.70310 127.82070 487
91.63299 0.70301 128.06650 488
91.63320 0.70335 128.31001 489
90.80088 0.65611 128.38672 298
86.11780 0.38528 127.78639 294
86.09678 0.38613 128.11600 484
85.69422 0.36215 128.38670 286
91.60970 0.78938 127.55051 486
91.60973 0.79082 127.80131 487
91.60891 0.78809 128.04860 488
91.60968 0.78823 128.29292 488
90.86323 0.75099 128.38640 298
86.18011 0.51217 127.78848 294
86.13432 0.50638 128.11172 484
85.75408 0.48955 128.38689 286
91.58475 0.87629 127.52872 485
91.58564 0.87438 127.77931 486
91.58616 0.87543 128.02827 487
91.58537 0.87498 128.27472 488
90.92406 0.84610 128.38766 298
86.24156 0.63461 127.78616 294
86.16585 0.62847 128.10541 485
85.82115 0.61506 128.38824 286
91.56155 0.96264 127.50932 485
91.56176 0.96361 127.75794 486
91.56154 0.96254 128.00714 487
91.56181 0.96359 128.25569 488
90.98484 0.94051 128.38661 298
86.30368 0.75851 127.78873 294
86.19733 0.75279 128.09990 485
85.88759 0.74202 128.38448 286
91.53864 1.05038 127.48719 485
91.53804 1.05134 127.73920 486
91.53933 1.04969 127.98837 487
91.53936 1.05241 128.23860 487
91.04793 1.03598 128.38786 298
86.36330 0.88185 127.78847 294
86.22838 0.87597 128.09715 486
85.95242 0.86716 128.38806 286
91.51591 1.13886 127.46490 484
91.51572 1.14066 127.71746 485
91.51676 1.14015 127.96930 486
91.51543 1.14053 128.21954 487
91.10999 1.12960 128.38628 298
86.42976 1.00335 127.78788 294
86.26353 0.99849 128.09126 486
86.02052 0.99234 128.38509 286
91.49077 1.22904 127.44016 484
91.49233 1.22886 127.69586 485
91.49056 1.22896 127.94865 486
91.49229 1.23135 128.19958 487
91.17455 1.22156 128.38556 298
86.49391 1.12845 127.78681 294
86.29449 1.12365 128.08720 486
86.08731 1.12052 128.38605 286
91.46881 1.32010 127.41938 484
91.46703 1.31994 127.67558 485
91.46838 1.31956 127.92931 486
91.46756 1.32040 128.18188 486
91.23826 1.31608 128.38614 298
86.55723 1.24757 127.78598 294
86.39552 1.24766 128.08969 421
86.15398 1.24394 128.38602 286
91.44257 1.41301 127.39622 483
91.44129 1.41306 127.65303 484
91.44284 1.41091 127.90987 485
91.44333 1.41395 128.16180 486
91.30416 1.41090 128.38733 298
86.62355 1.37280 127.78965 294
86.52187 1.37288 128.09859 422
86.22581 1.36834 128.38655 286
91.41780 1.50635 127.37219 483
91.41683 1.50520 127.63184 484
91.41782 1.50635 127.88902 485
91.41834 1.50533 128.14413 486
91.36935 1.50499 128.38658 298
89.98122 1.50124 128.38820 294
86.64706 1.49300 128.11034 424
86.29327 1.49495 128.38535 286
