# .PCD v.7 - Point Cloud Data file format
VERSION .7
FIELDS x y z rgb
SIZE 4 4 4 4
TYPE F F F U
COUNT 1 1 1 1
WIDTH 1018
HEIGHT 1
VIEWPOINT 5736.103027 -4065.747314 139.213165 -0.108445 -0.151259 -0.004627 0.982517
POINTS 1018
DATA ascii
-197.09109 0.98610 53.35894 324
-197.15433 2.79877 53.37630 324
-102.32582 1.16949 -27.40335 324
-197.16879 6.38599 53.40639 324
-197.14133 8.21279 53.33777 324
-197.16115 10.01502 53.40495 324
-197.15581 11.81849 53.35735 324
-279.10104 61.34723 37.02621 322
-295.50116 64.06583 39.65753 312
-275.03833 63.10550 37.94426 346
-291.22379 65.81522 40.67979 341
-273.01447 65.09671 38.35442 347
-289.30515 67.88995 40.99910 341
-256.60773 64.48587 36.19641 351
-271.10693 67.11350 38.70082 345
-290.22076 70.48226 40.68394 319
-254.61954 66.33244 36.60689 351
-270.47092 69.24614 38.79708 322
-252.82596 68.26450 37.01749 349
-272.48804 72.02899 38.24212 319
-254.36143 70.73052 36.49940 322
-274.65952 74.82702 37.58079 318
-256.40521 73.44756 35.81211 321
-9557.73438 4934.62842 847.00641 1000
-2166.73145 1554.16724 88.09237 457
-2159.35815 1569.47900 88.11947 443
-2165.02490 1572.86536 133.04445 310
-1553.95715 1163.08105 34.03730 491
-1554.83398 1163.67749 66.72854 463
-1560.20605 1167.36597 100.21349 406
-1547.41235 1173.77783 34.15264 474
-1547.78418 1173.96667 67.22271 479
-1551.56677 1176.56360 99.96772 475
-1554.08594 1178.81885 133.10468 471
-981.53674 779.49640 24.00865 312
-969.60120 781.02820 24.71920 482
-972.86908 783.26355 45.91485 442
-978.52026 787.45056 67.49849 374
-963.27020 786.21179 24.85079 499
-965.01062 787.74402 46.23487 499
-967.69934 789.48663 67.63597 497
-969.79352 791.19116 89.51318 454
-959.46637 793.73218 24.44913 460
-961.05981 794.78326 46.10282 460
-963.28400 796.63062 67.65837 459
-964.33356 797.43646 89.40585 460
-967.18634 799.13464 110.98579 396
-961.06378 804.85315 24.06049 341
-964.02423 807.35754 45.60569 341
-9865.98145 28553.52148 -2835.60229 1000
-15960.32422 48909.33203 10389.39551 1000
-9857.97070 33790.02734 4196.05908 1000
-3456.45630 15081.15918 -115.12287 459
-3431.19751 14982.34473 138.32912 465
-3349.95703 15056.04102 -114.99493 460
-3332.86255 14964.49805 136.61115 465
-3251.23535 15035.61328 -117.08016 469
-3229.19678 14944.01074 138.20790 470
-3151.54321 15021.61230 -115.53141 469
-3129.08252 14929.61523 134.64157 478
-3051.46631 15007.60938 -112.13367 470
-3030.62866 14917.44238 138.30269 482
-2952.75317 14991.09180 -114.70730 470
-2933.36035 14904.72168 135.10632 482
-2852.39185 14977.43262 -114.05707 471
-2837.22168 14888.37793 135.72130 483
-2753.56958 14963.51172 -110.47952 471
-2736.67041 14878.05957 137.37410 483
-2656.22729 14951.16602 -110.19630 472
-2641.79150 14864.02344 137.83620 484
-2558.85571 14937.03320 -109.71354 472
-2544.75464 14851.03027 135.96208 484
-2460.99780 14919.82422 -110.72120 472
-2447.95581 14838.07324 136.81354 484
-2366.58887 14907.48047 -111.31749 473
-2352.45654 14824.35449 136.00417 485
-2268.50000 14890.87598 -110.31843 473
-2256.28345 14812.70605 135.41318 485
-2172.67090 14877.34180 -109.40621 474
-2159.75391 14799.02832 136.25327 486
-2076.28833 14865.57812 -111.45487 474
-2064.47974 14786.32617 137.23889 486
-1984.13770 14850.46387 -106.91851 475
-1970.14722 14771.94629 135.02959 486
-1889.31030 14838.33398 -107.78925 475
-1876.82373 14759.16113 134.87946 487
-1792.94189 14823.41895 -107.88843 475
-1781.97412 14749.03809 136.29912 487
-2082.24438 17097.79883 1266.44727 1000
-1699.40759 14809.86426 -108.90832 476
-1687.81799 14733.37207 137.52969 488
-1607.18250 14797.16504 -106.46293 476
-1595.21545 14720.58008 136.43459 488
-1510.53784 14781.77930 -105.21253 477
-1503.22192 14711.20020 137.71188 488
-1416.93347 14768.74609 -104.90218 477
-1409.14673 14696.56250 137.12868 489
-1325.71289 14755.97656 -105.04861 477
-1317.68774 14685.56250 137.03336 489
-1231.40735 14742.76758 -107.43668 478
-1225.21252 14672.09375 134.56029 489
-1139.67603 14725.96680 -106.91411 478
-1133.71753 14660.91113 135.73872 490
-1046.70300 14714.72363 -106.11673 478
-1042.97632 14647.24414 137.35925 490
-956.96344 14702.33008 -106.39008 479
-949.15826 14633.19629 137.09152 490
-864.62860 14686.87500 -103.41266 479
-861.19855 14620.44141 137.77809 491
-771.30902 14672.41699 -104.11488 479
-768.65625 14608.69824 136.39178 491
-681.89459 14660.98145 -102.47082 479
-677.73120 14597.72559 136.29012 491
-589.95648 14645.86621 -102.62199 480
-585.44263 14584.60547 134.70172 492
-498.90918 14633.50488 -104.39138 480
-497.90332 14575.08887 135.34827 492
-409.32828 14619.43652 -103.63756 480
-406.53784 14559.95898 134.27426 492
-323.40396 14698.60449 -346.10574 459
-317.94958 14607.64160 -103.14674 480
-315.48627 14550.89453 136.58101 493
-231.99759 14682.87891 -345.87555 459
-228.75798 14594.11328 -101.49715 481
-229.36790 14537.11816 137.60884 493
-138.76184 14668.95605 -346.93088 478
-139.49255 14579.88770 -101.27290 481
-137.55005 14526.67578 135.91132 496
-48.90684 14653.90918 -346.07764 478
-50.46969 14568.65820 -103.89805 481
-49.69720 14512.65234 134.38164 496
-54.89127 15281.63770 387.74585 487
41.11599 14643.55273 -343.40253 478
38.91700 14555.08594 -104.44778 481
41.19759 14502.33691 134.35106 497
39.88351 15253.88770 384.07083 488
131.61147 14630.66211 -343.91800 479
130.58301 14542.96289 -103.71040 482
129.95667 14489.30566 133.43732 497
131.16913 15222.77832 384.39151 488
219.83636 14614.24707 -342.24359 479
219.45279 14528.12793 -104.42533 482
218.41052 14479.92871 134.74788 497
225.01744 15194.35254 384.63623 488
310.60257 14604.19238 -342.46878 479
309.71463 14514.76758 -102.53653 482
309.06097 14464.96777 137.16455 497
316.31854 15167.62305 384.64444 489
398.01398 14589.77637 -342.41888 479
395.83414 14503.74707 -100.45454 482
397.83212 14456.93945 135.48982 497
409.94415 15138.94922 384.05527 489
490.38684 14576.59473 -343.08450 479
484.75574 14491.82227 -100.80867 482
484.45786 14443.19922 135.44084 463
505.29279 15108.85547 383.55524 490
578.42743 14561.55566 -343.87848 480
574.25726 14476.21973 -102.62192 483
573.09125 14433.90039 136.51482 463
595.79572 15078.02637 380.96609 490
665.59747 14549.69629 -340.80417 480
661.66241 14465.48535 -102.10705 483
664.13538 14427.07910 134.47757 424
687.23114 15052.07617 382.90762 491
755.70770 14537.71973 -342.91656 480
753.75641 14453.43652 -102.22572 491
749.10687 14417.04199 135.86279 424
776.72498 15024.48340 381.46927 491
844.53613 14522.06348 -340.07666 480
842.25031 14438.76855 -103.27394 491
838.38251 14408.28613 135.70015 424
870.49615 15002.91602 382.31549 498
932.22302 14512.03418 -338.81052 480
927.53107 14425.60547 -102.19005 491
928.77515 14399.92188 133.58185 424
962.61981 14992.76465 380.31082 498
1024.69275 14496.65039 -339.98737 480
1017.45544 14414.98828 -100.35883 491
1015.19855 14398.58594 133.52153 301
1055.70142 14977.73047 382.62769 499
1112.57202 14483.60938 -339.60382 480
1107.54614 14402.81738 -99.99897 491
1106.35120 14401.66309 134.65703 301
1144.54041 14966.36523 382.43149 499
1199.87073 14471.07910 -339.15494 480
1192.94849 14389.01758 -100.22972 491
1195.87732 14403.74023 133.44345 296
1235.51050 14953.63379 381.80286 499
1289.71509 14458.35352 -341.00412 481
1280.98767 14379.71582 -99.25317 491
1323.14331 14874.21582 134.49213 472
1328.30298 14940.34082 380.06055 499
1375.77527 14444.32422 -339.16284 481
1369.46130 14367.20020 -99.96923 491
1409.14380 14820.51660 134.54893 473
1419.25635 14927.90234 379.28604 499
1465.96033 14431.94629 -338.96844 481
1457.58276 14354.29004 -102.47772 492
1497.75476 14769.49707 134.46326 474
1511.37781 14911.77441 378.26932 499
1553.75378 14421.79883 -339.61374 481
1545.51782 14340.41504 -100.33195 492
1584.75598 14715.39746 133.82191 474
1592.46082 14796.40527 376.17398 498
1641.36938 14408.48340 -340.33075 481
1634.35413 14331.27539 -100.45754 492
1667.83801 14663.23047 136.19055 475
1681.12952 14783.58105 376.76028 497
1731.58972 14395.09863 -340.00064 481
1721.56152 14318.73828 -100.26866 492
1755.18347 14610.41016 133.48427 476
1771.70312 14772.80957 379.04428 497
1790.77014 14924.57031 626.16174 499
1817.67871 14383.04785 -340.82614 481
1809.16113 14306.73535 -101.85898 492
1844.14270 14594.24609 133.02538 499
1863.21399 14759.65234 378.44073 493
1880.59082 14912.83789 624.74329 499
1905.62292 15102.32129 883.42688 458
1906.38550 14368.84082 -338.56592 481
1895.87427 14291.47070 -99.36176 492
1931.70520 14581.81055 136.00684 499
1954.79736 14744.02832 378.66971 493
1971.27698 14900.59375 628.13214 499
1989.67810 15042.91504 878.89966 474
1996.41516 14354.60254 -338.42010 482
1984.05908 14281.37305 -101.82237 492
2023.89722 14568.45605 135.33792 499
2045.82288 14729.38086 376.66107 493
2066.41968 14885.94434 624.38654 499
2089.22949 15078.45020 883.66156 369
2081.90723 14343.32422 -338.98849 482
2072.10327 14269.32129 -101.40539 492
2113.38330 14557.93848 133.98799 499
2147.50708 14816.42676 377.99271 457
2152.71631 14829.23438 625.43103 457
2158.60864 14883.95020 874.47803 364
2170.07446 14329.82422 -338.23798 483
2160.52954 14257.26465 -101.61568 492
2200.27612 14542.92480 133.79948 499
2229.58472 14743.20898 378.46307 458
2230.87354 14758.72070 622.17822 458
2240.96729 14807.90820 871.22742 365
2259.45703 14318.96191 -341.55194 482
2249.10620 14245.19629 -103.26907 492
2291.99170 14532.32715 132.84995 499
2312.45996 14672.37109 377.17661 459
2313.57397 14683.51074 619.38916 459
2321.65332 14733.67773 865.59644 365
2346.00879 14306.47168 -339.10165 482
2337.72461 14232.60059 -102.90904 492
2380.93799 14518.65723 135.60574 499
2392.30713 14598.50781 376.35712 460
2396.98169 14614.79297 617.01581 460
2404.36206 14655.13477 861.67053 366
2436.27075 14291.96484 -339.04501 482
2421.66772 14219.95605 -100.99014 492
2470.00586 14507.96680 132.54897 499
2478.17603 14558.95215 374.11075 499
2479.40723 14568.89551 616.92194 499
2487.87500 14599.72852 859.15283 390
2522.06958 14279.30176 -338.97144 482
2509.87744 14208.42090 -100.59806 492
2515.14087 14238.77734 132.52153 431
2570.80005 14549.35547 376.19104 499
2569.56836 14553.25195 617.21289 499
2575.56860 14591.03223 861.22913 390
2629.40991 14900.07129 1125.58044 479
2611.77197 14264.73926 -339.49753 482
2597.58496 14194.68457 -101.18283 492
2605.89868 14222.99707 134.04053 431
2652.20776 14505.70410 374.39035 499
2654.87280 14511.06348 615.47021 499
2667.06396 14584.16211 860.21869 390
2699.54590 14752.08984 1116.08459 483
2697.26953 14755.70801 1364.99561 482
2701.38794 14767.20605 1612.73022 491
2703.31421 14792.96582 1860.62219 327
2700.38843 14256.12793 -341.69397 482
2685.16528 14184.94629 -100.92332 492
2692.44751 14211.47949 133.16528 431
2741.99536 14492.37988 375.84262 499
2746.31177 14499.74707 616.27393 499
2759.76807 14576.61230 861.09033 390
2813.99316 14873.92969 1124.33313 470
2789.75952 14239.88477 -339.93283 482
2773.02954 14174.26562 -101.23283 491
2779.41577 14196.12109 135.31676 438
2834.08032 14479.81250 374.43466 499
2834.04126 14488.11426 618.10193 499
2849.01440 14565.50879 861.48962 390
2893.39209 14802.19434 1119.80969 454
2874.93237 14227.09082 -338.88992 482
2862.62622 14160.19922 -103.13757 491
2868.07886 14187.57129 132.41956 438
2923.59253 14469.63672 376.87848 499
2926.12378 14475.39160 615.75696 499
2940.53857 14557.84180 861.76001 390
2996.56470 14852.19531 1125.28625 470
2966.27832 14214.11328 -342.74371 482
2952.73999 14150.72559 -100.38628 491
2957.77124 14181.86914 133.26640 387
3014.90405 14456.65039 376.48053 499
3013.92847 14463.20703 617.87775 499
3030.59692 14548.34473 865.11127 390
3091.03516 14839.24609 1124.67957 470
3051.57031 14203.62402 -341.86035 482
3039.09985 14136.75098 -102.62395 491
3046.44165 14174.71582 134.84628 387
3101.90454 14441.22559 375.47977 499
3103.56445 14450.49512 618.17383 499
3122.77051 14541.56543 864.68396 390
3184.90088 14826.81348 1127.99390 470
3143.74023 14189.59766 -341.09375 482
3127.79443 14124.75293 -102.62995 494
3186.96021 14405.50586 133.02539 499
3192.49146 14430.11328 373.49026 499
3193.98364 14434.97461 618.77740 498
3214.66138 14530.68359 864.99713 390
3277.39331 14817.33203 1127.56543 485
3228.79932 14177.77637 -342.26657 482
3216.82617 14111.36133 -104.42258 494
3277.09326 14391.49023 134.73624 499
3284.82690 14419.28223 373.64001 498
3284.32422 14425.26660 616.29694 498
3306.32202 14523.41602 864.25043 390
3319.02295 14164.41602 -341.25638 482
3302.33545 14100.03809 -103.56917 494
3368.27515 14377.50781 135.70714 499
3379.05103 14432.51758 374.73572 498
3380.16797 14441.05078 620.68805 498
3399.56885 14518.03613 864.84534 390
3406.62500 14152.55762 -342.49246 482
3391.93188 14090.18066 -101.92146 494
3457.93799 14366.53418 134.80902 498
3470.84033 14420.49023 375.00174 498
3470.30884 14427.68750 619.57440 498
3491.09912 14509.96289 866.66040 390
3494.39307 14140.84570 -341.79181 481
3479.79395 14077.29102 -101.59262 494
3547.09082 14351.74707 134.81563 498
3528.95728 14272.23828 373.28879 422
3520.20923 14237.54199 612.39978 290
3585.07422 14499.06836 867.94098 389
3586.81641 14126.79395 -343.57498 481
3571.41699 14062.59375 -102.16187 494
3639.12988 14338.17285 132.61591 498
3652.61646 14395.58984 377.78204 498
3607.74048 14213.49609 614.79529 389
3673.72607 14490.56738 869.18671 381
3673.74683 14113.08594 -344.03735 481
3659.50024 14053.60254 -101.67799 493
3727.34961 14325.80078 131.86343 498
3743.96680 14383.15430 376.07614 498
3744.23828 14390.11816 620.89948 498
3765.89990 14480.34766 868.38983 381
3765.25586 14103.24414 -343.32733 481
3749.34155 14038.51758 -103.92899 493
3818.06494 14312.31836 135.12866 498
3834.56250 14369.32617 377.03708 498
3835.97852 14376.63086 620.96429 497
3862.49854 14469.39648 867.97839 381
3852.12622 14087.52246 -344.80176 481
3837.79395 14029.91602 -105.74245 493
3911.33960 14302.75879 132.95670 498
3928.16431 14375.05762 377.31561 444
3929.24316 14376.08301 619.68237 444
3964.23535 14507.42383 870.14410 351
3941.23560 14072.82031 -342.00854 481
3925.91724 14014.97363 -103.54249 493
4000.86084 14288.66895 133.15819 497
4036.85400 14424.63574 377.10968 443
4039.87720 14426.91797 622.70062 443
4079.59351 14575.93555 877.78320 350
4029.87549 14063.18945 -345.56256 481
4017.02466 14005.70605 -104.19802 493
4130.03564 14409.96875 131.82561 467
4144.91260 14466.87500 381.52145 466
4147.74658 14474.07617 625.99817 442
4195.78516 14647.68457 882.96857 351
4123.32715 14049.02246 -345.52267 480
4106.36572 13994.08008 -103.12400 492
4232.09570 14431.82422 131.92697 466
4249.04883 14487.30566 381.94916 465
4257.60059 14520.80273 628.14069 441
4212.88672 14037.00781 -344.57114 480
4196.38965 13980.73828 -103.16756 492
4333.97998 14451.26855 135.64337 466
4348.84375 14509.25098 381.64420 465
4367.02881 14569.72461 629.77533 464
4303.04199 14025.51953 -347.63644 480
4285.61670 13969.66797 -106.33553 492
4436.94922 14470.98145 131.52573 465
4455.24219 14530.37988 380.29105 464
4390.87500 14010.13965 -347.86096 480
4373.69043 13953.28711 -106.23108 492
4541.76123 14492.99707 131.83180 464
4482.16699 13996.09473 -345.45422 479
4466.84033 13942.22656 -106.09251 494
4644.52197 14518.01855 131.49338 442
3474.91284 10559.95898 -776.08270 1000
4572.42188 13986.59277 -346.55157 479
4556.76074 13929.93848 -105.03459 494
4663.02637 13972.28711 -349.78342 479
4646.28662 13920.02344 -107.59486 493
4753.39209 13957.95215 -349.33313 479
4738.82080 13909.27637 -107.85266 493
4846.59766 13946.23242 -350.15021 486
4830.40332 13895.60742 -105.04771 493
4936.39648 13931.82129 -348.53030 486
4922.12793 13883.14062 -107.27181 492
5029.20605 13920.76758 -350.61865 486
5013.18408 13870.17969 -105.63443 492
5123.08789 13910.08301 -351.13000 485
5103.15039 13858.95801 -108.94296 492
5214.57080 13895.59473 -353.44736 485
5194.93652 13849.15137 -109.67133 492
5308.47705 13883.34668 -351.54767 485
5290.18506 13835.58691 -109.22764 491
5397.62842 13869.05469 -354.60275 484
5381.71143 13823.23633 -109.64787 491
5492.30420 13858.30176 -355.67865 484
5473.51367 13809.13379 -110.35240 490
5587.06006 13846.61719 -356.73547 484
5569.25439 13797.83496 -111.71304 490
5680.67920 13832.66016 -356.97360 483
5659.82764 13785.07812 -112.23200 490
5772.53955 13820.34863 -357.62558 483
5755.83740 13773.18555 -112.36367 489
5866.49072 13805.16797 -356.65149 483
5847.93115 13763.68457 -112.04374 489
5963.60107 13793.85156 -357.30331 482
5944.85840 13748.27832 -110.77163 489
6054.83203 13782.61230 -359.95251 482
6036.08447 13736.49121 -111.21970 488
6150.94043 13769.77344 -358.21579 481
6134.29834 13726.76562 -110.69969 488
6247.60156 13756.23730 -362.35440 481
6230.52588 13710.40625 -113.62787 487
6341.60010 13743.60254 -361.93643 481
6325.85010 13701.20215 -113.14966 487
6437.97021 13728.64258 -362.84558 480
6421.28027 13686.17969 -116.15371 486
6536.29541 13718.37891 -364.71991 480
6517.24512 13676.16602 -112.56475 486
6635.16357 13704.01465 -365.99661 479
6611.79736 13661.77637 -115.04910 485
6769.19580 13765.04395 -620.16290 468
6731.16357 13689.95020 -364.15692 479
6709.75830 13650.02734 -115.33145 485
6866.53223 13751.16016 -622.16901 468
6830.74658 13676.38281 -368.66379 478
6810.42432 13635.83203 -114.51286 484
6964.78174 13740.12012 -622.83148 468
6926.56104 13664.53027 -366.53036 478
6906.52539 13621.12012 -116.09823 484
7061.66406 13721.88379 -624.10822 467
7026.64258 13651.66992 -367.51340 477
7004.03467 13609.10840 -115.80416 483
7162.18506 13708.80371 -626.67291 467
7125.97705 13638.24316 -369.21790 477
7105.28613 13597.75391 -118.13239 483
7263.83838 13696.05957 -625.05859 466
7222.46094 13621.73633 -372.52042 476
7203.89258 13582.37891 -116.26566 482
7364.49854 13683.04492 -628.64545 466
7323.38037 13609.01562 -373.38733 476
7304.99463 13570.46582 -118.70728 482
7467.39795 13676.43848 -630.30475 451
7423.47461 13597.41113 -373.49118 475
7406.07031 13558.29492 -120.99557 368
7576.58691 13672.65723 -633.81110 450
7524.99561 13584.91406 -375.85901 475
7508.25928 13550.61621 -119.69518 368
10384.81250 18805.55469 2598.88843 1000
7685.85107 13670.73242 -637.67279 450
7633.23291 13576.74219 -374.17502 452
7612.62451 13543.25098 -120.31239 368
7793.25146 13673.40723 -636.70154 451
7738.72461 13577.70312 -378.88373 451
7718.79346 13536.55957 -120.40397 367
7905.22021 13671.74219 -639.77783 450
7852.82373 13579.63379 -379.26230 450
7821.83838 13529.09863 -124.23293 367
8016.10400 13670.54102 -645.71637 449
7964.17383 13577.30664 -383.32465 450
7926.64160 13514.72754 -122.10168 431
8051.65332 13713.40820 -634.01794 449
7994.96338 13622.24805 -371.59644 450
7954.16016 13548.72852 -111.41511 399
8181.50781 13744.67090 -642.11707 404
8109.70068 13622.85938 -373.39651 449
8067.59961 13547.32422 -112.23921 447
8323.28516 13785.98438 -643.76141 381
8224.48145 13624.11523 -377.22513 449
8185.33838 13557.50293 -114.50579 446
8465.01465 13828.46484 -651.02460 380
8339.62109 13624.98535 -378.61880 448
8301.20410 13564.28516 -116.67963 445
8609.45215 13876.61328 -658.46582 379
8470.97852 13648.13477 -380.78662 403
8422.59277 13572.46777 -115.69640 444
8769.01367 13947.34473 -665.82721 285
8604.46875 13679.26074 -383.08713 402
8545.62500 13584.83203 -121.35460 446
8740.12793 13708.44922 -388.84235 401
8666.03320 13593.00000 -121.05796 446
8884.48828 13746.25000 -391.30185 379
8791.06543 13602.64746 -119.45990 445
9040.48340 13803.74609 -393.94189 351
8923.45312 13623.08594 -123.49536 286
9208.17090 13878.02539 -400.74411 350
9076.11914 13672.26074 -124.15910 306
9448.99316 14055.38379 -412.24490 259
31587.40039 25550.83008 -5868.04541 1000
1867.03284 1323.60962 -85.49778 432
1876.53369 1330.84534 -49.84991 287
1872.48145 1310.91394 -85.01681 494
1878.34180 1315.61084 -49.15364 471
33643.06250 21836.33789 -5125.54395 1000
31723.33984 12634.49902 1254.15002 1000
60080.48047 9976.25586 -15097.10742 1000
3404.07007 322.85687 -86.36793 275
3376.01416 300.51349 -84.19932 437
3413.06348 282.90591 -140.75406 431
3367.48315 278.86414 -82.99618 471
3400.73071 260.95789 -140.52649 431
3359.47266 257.96661 -82.58620 458
3388.04517 240.32021 -138.84830 415
3353.18481 237.54672 -81.78488 454
3374.23926 218.89362 -137.85768 476
3348.73169 216.54680 -81.45146 462
3368.23926 197.76044 -136.83250 477
3345.26807 196.56987 -81.82807 461
3362.12158 177.10374 -136.63275 478
3342.81323 175.97836 -81.48816 395
3357.77979 157.29776 -135.60854 489
3341.35767 156.53806 -80.97016 393
3340.44678 135.81210 -80.63159 393
3340.32422 115.96117 -80.73515 391
3339.28589 96.34682 -81.01646 392
3340.54126 75.70187 -81.00611 391
3342.76831 56.51773 -81.41511 298
3518.82373 58.77034 -36.69962 312
3346.49609 36.06570 -81.65121 298
3397.64307 16.30285 -84.20000 498
3400.18823 -4.45714 -85.08305 498
3568.34106 -26.08296 -95.86095 377
3330.18628 -43.62968 -133.46104 334
3571.88892 -47.45727 -96.49442 377
3331.50903 -64.07285 -133.86066 334
3411.61426 -64.98638 -85.70580 497
3331.95386 -83.77589 -133.88092 334
3357.64844 -84.31158 -81.67473 465
3335.61621 -104.08922 -133.82549 332
3410.35864 -106.51010 -85.68448 497
3471.11108 -108.62998 -34.42308 497
3475.32104 -108.73630 20.86496 405
3340.80933 -123.56644 -134.35121 332
3578.46460 -133.14371 -96.32897 379
3345.12061 -144.23654 -134.92032 332
3579.69214 -154.35019 -96.82485 379
3460.70483 -149.62679 77.39043 496
3349.64600 -164.49992 -135.10474 331
3351.03613 -164.82880 -82.15771 440
3354.34229 -184.48117 -136.06363 331
3356.05078 -184.61317 -81.94997 297
3359.25684 -205.59349 -136.61711 331
3355.37793 -204.72667 -82.66927 389
3487.20483 -213.93344 -35.39396 427
3363.49146 -225.84363 -137.02534 331
3356.31934 -225.11021 -82.82987 389
3394.51050 -228.54152 -30.38301 378
3357.56470 -246.09410 -82.66486 389
3359.30127 -265.69742 -83.13671 389
3360.35229 -286.36261 -82.72841 389
3361.92139 -306.85156 -83.36621 389
3424.27173 -312.50732 -32.24423 419
3362.62769 -327.00778 -83.70817 389
3363.80298 -347.84030 -83.41559 389
3365.32349 -367.74533 -83.52275 388
3366.39917 -388.31467 -84.63135 461
3368.11792 -409.94003 -84.14493 461
3370.17310 -429.86124 -84.72786 460
3371.62329 -450.78024 -85.44097 460
3373.57910 -472.32919 -85.77717 460
3515.01025 -492.53671 -37.48517 491
3375.93726 -493.10541 -85.26440 459
3378.06909 -513.86365 -85.67052 459
3379.68311 -534.37555 -85.99464 459
3383.99902 -556.37903 -86.57800 430
3393.86621 -579.25403 -87.64555 429
3405.50024 -601.58966 -89.07800 361
53845.46875 -20119.04492 -4579.35693 1000
2573.91772 -1413.63696 -55.02957 498
2581.05664 -1417.38574 -9.15637 487
4038.67017 -3969.56372 -50.80980 459
4029.48071 -4009.13916 -52.93886 430
4020.77197 -4049.15454 -53.50992 422
4010.95264 -4090.92163 -54.12862 422
4119.52832 -4202.15967 36.28476 446
4003.75952 -4133.15723 -54.10340 406
4077.81323 -4210.96094 36.66072 446
4001.37134 -4180.84570 -56.18452 400
4038.93359 -4220.86279 37.58068 447
4000.01587 -4232.13721 -56.78996 388
4006.06958 -4238.73486 37.52021 485
4006.95435 -4293.29297 -59.13080 354
4002.61523 -4286.62402 37.49595 374
4024.63867 -4364.97998 -60.08030 351
4039.82446 -4436.42725 -61.94367 367
2752.70923 -3342.79688 -7.99808 447
2665.35303 -4471.41504 46.88839 444
10432.10449 -21134.81641 -1416.97607 1000
2759.72412 -5455.51562 129.96309 355
2721.29102 -5462.80127 130.16827 330
2698.54077 -5500.94678 30.20978 381
2698.50586 -5500.87695 131.18494 417
2651.00781 -5489.18213 31.62829 414
2607.12793 -5482.19775 31.30166 402
2564.66138 -5478.50244 31.38795 420
2522.46533 -5475.57568 32.65552 261
2520.21216 -5469.60303 131.05298 472
2470.93188 -5446.97510 34.01098 302
2478.19482 -5466.79248 130.83595 473
2473.45679 -5455.05469 228.09993 495
2430.37549 -5445.53467 33.08856 373
2438.45215 -5464.85059 130.01451 474
2437.07983 -5462.93311 228.62544 495
2391.57422 -5447.59375 33.68140 376
2402.40308 -5472.03809 130.92026 495
2400.17944 -5470.31543 227.21858 495
2354.04785 -5453.56396 33.03218 377
2362.83667 -5474.67969 130.45322 495
2362.36963 -5473.07422 228.25970 495
2318.15723 -5460.31641 33.57513 380
2327.91431 -5482.47412 130.85744 496
2326.72461 -5480.59180 228.13971 495
2283.31567 -5470.38721 34.40778 307
2291.75244 -5490.60205 130.55666 496
2290.15381 -5488.91553 227.01530 496
2249.78223 -5482.80469 33.17555 307
2256.99219 -5503.94482 129.76759 496
2255.33838 -5500.75830 227.30994 496
2221.80981 -5512.09033 131.15611 496
2221.20532 -5509.29590 227.90080 496
2185.89648 -5519.73682 129.82236 497
2183.86206 -5517.48145 226.38214 498
2223.41992 -5619.93555 327.48434 290
2162.98706 -5561.67578 130.64197 286
2151.24463 -5531.06982 226.67239 490
2183.00073 -5617.61426 325.96326 354
2199.29126 -5766.99316 230.61546 372
2156.80737 -5650.17529 327.70724 466
2125.35791 -5672.85010 327.06915 485
1974.64978 -5692.51660 130.67770 365
1903.00598 -5590.29834 130.13025 498
1940.45605 -5827.42871 130.15837 498
1903.70056 -5835.43701 129.62195 498
1810.30066 -5657.33154 129.56218 478
1759.49268 -5615.26904 129.93912 449
1734.77917 -5658.63525 129.95737 496
719.78503 -3614.57349 131.06577 282
676.18573 -3489.22119 131.01945 273
627.04315 -3322.16748 130.93893 287
594.56641 -3247.70679 130.83191 340
569.81494 -3215.70410 131.18848 292
549.69043 -3217.87061 131.43889 304
530.41748 -3221.24390 131.18398 462
511.51724 -3236.00220 131.58015 461
542.79437 -3648.17090 131.10202 415
521.21417 -3661.31055 130.56425 495
432.67703 -3065.66797 80.36492 378
468.98776 -3392.43628 130.65613 451
411.74326 -3049.69312 81.14928 310
413.13467 -3065.72388 130.96864 322
393.82376 -3061.86963 81.21517 309
395.13260 -3072.22705 131.55310 283
379.04581 -3103.52979 80.37326 291
379.54904 -3110.43066 131.26512 328
368.10672 -3200.25269 78.36958 271
365.09402 -3168.86157 130.91034 319
355.14328 -3281.75806 131.58089 264
1880.89832 -36359.53516 -8999.22070 1000
-6123.16162 -27603.80273 4320.93652 1000
-12554.75586 -23249.43750 -307.43106 1000
-4089.97827 -7693.45068 848.19061 1000
-537.73541 -1165.67798 284.45129 308
-547.69482 -1166.74744 66.16002 480
-546.99371 -1165.59155 88.10281 498
-546.74274 -1164.68188 109.95799 498
-546.27008 -1163.90576 131.67842 499
-545.61371 -1162.72937 153.40965 499
-545.01923 -1161.67395 175.21736 499
-544.64282 -1161.08472 196.79405 492
-544.16046 -1160.14465 218.66129 492
-543.52289 -1159.19763 240.31909 492
-543.16229 -1158.55151 262.31021 492
-542.71985 -1157.51599 284.08292 492
-949.39221 -1763.82117 97.70950 386
-948.09479 -1761.52429 131.64453 444
-946.88947 -1759.60022 165.13687 444
-945.78192 -1757.81226 198.36282 444
-944.84589 -1756.14478 232.11128 483
-943.77399 -1754.42041 265.53372 483
-943.13995 -1752.85913 298.84457 483
-1339.94104 -2356.31201 131.32718 446
-1338.63989 -2353.80078 176.41005 484
-1336.47681 -2351.00415 221.30643 484
-1335.29053 -2348.87109 266.88995 499
-1333.60547 -2346.14160 311.43774 499
-4997.32227 -5531.34277 -238.91106 1000
-50130.53516 -30768.37109 -13609.51367 1000
-49886.66797 -30620.14844 125.96887 1000
-32695.84375 -12304.33691 1850.79248 1000
90.07875 -3.02805 128.04451 359
90.07969 -3.02860 128.28725 359
90.18882 -2.91774 128.06808 360
90.18835 -2.91980 128.30743 361
89.53314 -3.12890 128.38631 306
88.43561 -3.47899 128.38556 302
90.29652 -2.80959 128.08766 361
90.29765 -2.81086 128.32759 362
89.56435 -3.04021 128.38680 306
88.46571 -3.38587 128.38774 302
90.40396 -2.70524 128.10959 363
90.40401 -2.70352 128.34755 363
89.59758 -2.95116 128.38722 306
88.49693 -3.28823 128.38579 302
90.50851 -2.59897 128.12848 364
90.50788 -2.59996 128.36465 365
89.63002 -2.86322 128.38623 306
88.52946 -3.19155 128.38562 302
90.61169 -2.49652 128.14818 365
90.61278 -2.49581 128.38432 366
89.66647 -2.77258 128.38608 306
88.56335 -3.09579 128.38570 302
90.71539 -2.39310 128.16833 367
90.65897 -2.40798 128.38541 310
89.69933 -2.68404 128.38614 306
88.59650 -2.99941 128.38643 302
90.81548 -2.29293 128.18430 368
90.69701 -2.32584 128.38663 310
89.73471 -2.59458 128.38605 306
88.62906 -2.90516 128.38550 302
90.91595 -2.19172 128.20384 369
90.73394 -2.24326 128.38670 310
89.77188 -2.50367 128.38712 306
88.66420 -2.80672 128.38525 302
87.37524 -3.16026 128.38625 298
91.01262 -2.09414 128.21878 371
90.76981 -2.15934 128.38599 310
89.80657 -2.41494 128.38689 306
88.69774 -2.71029 128.38628 302
87.40897 -3.05444 128.38568 298
91.10970 -1.99740 128.23561 372
90.80880 -2.07578 128.38754 310
89.84553 -2.32749 128.38516 306
88.73538 -2.61640 128.38811 302
87.44494 -2.95033 128.38591 298
91.20610 -1.90222 128.25249 373
90.84786 -1.99293 128.38582 310
89.88196 -2.23792 128.38622 306
88.77280 -2.51767 128.38718 302
87.47835 -2.84675 128.38666 298
91.30113 -1.80556 128.26756 374
90.88564 -1.90950 128.38779 310
89.92059 -2.14750 128.38556 306
88.80787 -2.42158 128.38786 302
87.51549 -2.74228 128.38556 298
91.36025 -1.72091 128.27208 462
90.92565 -1.82596 128.38599 310
89.95879 -2.05851 128.38629 306
88.84598 -2.32714 128.38748 302
87.55093 -2.63814 128.38629 298
91.38067 -1.64439 128.26819 462
90.96487 -1.74225 128.38722 310
89.99757 -1.96761 128.38739 306
88.88478 -2.22862 128.38635 302
87.58924 -2.53356 128.38731 298
91.40096 -1.56820 128.26262 463
91.00639 -1.65774 128.38573 310
90.03632 -1.88076 128.38594 306
88.23171 -2.29050 128.23444 364
87.62583 -2.42868 128.38824 298
91.42179 -1.49235 128.25601 464
91.04727 -1.57439 128.38716 310
90.07791 -1.78988 128.38757 306
88.04403 -2.23774 128.18217 362
87.66477 -2.32369 128.38577 298
91.44038 -1.41555 128.25096 464
91.08718 -1.49282 128.38591 310
90.11720 -1.70006 128.38609 306
87.84885 -2.18549 128.13049 361
87.70412 -2.21814 128.38815 298
86.17205 -2.54755 128.38823 294
91.46344 -1.34027 128.24448 465
91.13148 -1.40896 128.38638 310
90.15974 -1.61005 128.38683 306
87.64673 -2.13227 128.07820 360
87.64823 -2.13204 128.36821 360
86.21144 -2.43183 128.38629 294
91.48262 -1.26297 128.23729 466
91.17179 -1.32532 128.38586 310
90.20203 -1.51954 128.38556 306
87.44016 -2.07615 128.02312 358
87.44080 -2.07817 128.31842 359
86.24999 -2.31941 128.38669 294
91.50272 -1.18531 128.23331 466
91.21551 -1.24050 128.38605 310
90.24423 -1.43119 128.38705 306
87.22567 -2.02087 127.96915 357
87.22676 -2.02076 128.26701 357
86.28731 -2.20285 128.38686 294
91.52495 -1.10807 128.22690 467
91.25964 -1.15913 128.38704 310
90.28864 -1.34235 128.38725 306
87.09317 -1.94395 127.92994 451
87.09375 -1.94653 128.22951 452
86.32917 -2.08814 128.38507 294
91.54495 -1.03052 128.21857 468
91.30271 -1.07497 128.38730 310
90.33190 -1.25073 128.38734 306
87.00900 -1.85904 127.90413 451
87.00858 -1.85969 128.20433 451
86.37258 -1.97646 128.38658 294
91.56650 -0.95262 128.21254 468
91.34844 -0.98993 128.38681 310
90.37556 -1.16302 128.38770 306
86.92049 -1.77051 127.87609 450
86.92055 -1.77064 128.17813 450
86.41380 -1.86016 128.38498 294
91.58681 -0.87359 128.20793 469
91.39394 -0.90671 128.38556 310
90.42050 -1.07235 128.38528 306
86.83427 -1.68318 127.84753 449
86.83287 -1.68157 128.15340 449
86.45752 -1.74631 128.38638 294
91.60645 -0.79681 128.20006 470
91.43845 -0.82538 128.38635 310
90.46526 -0.98226 128.38774 306
86.74352 -1.59250 127.81621 448
86.74181 -1.59050 128.12714 449
86.50095 -1.63160 128.38524 294
91.62827 -0.71885 128.19461 470
91.48543 -0.74026 128.38539 310
90.51165 -0.89389 128.38730 306
86.65208 -1.50041 127.78875 447
86.65195 -1.50165 128.09959 448
86.54294 -1.51735 128.38741 294
91.64837 -0.63930 128.18687 471
91.53152 -0.65825 128.38551 310
90.55782 -0.80405 128.38564 306
86.69170 -1.38805 127.78709 302
86.55747 -1.40805 128.06964 447
86.55766 -1.40635 128.38257 447
91.66991 -0.55961 128.18001 471
91.57993 -0.57408 128.38660 310
90.60429 -0.71432 128.38710 306
86.73670 -1.27341 127.78676 302
86.46505 -1.31230 128.04416 446
86.46577 -1.31407 128.35658 447
91.69256 -0.48088 128.17159 472
91.62609 -0.49110 128.38770 310
90.65109 -0.62587 128.38783 306
86.78036 -1.16232 127.78654 302
86.36662 -1.21849 128.01346 445
86.36770 -1.22010 128.32872 446
91.71273 -0.40246 128.16609 473
91.67464 -0.40723 128.38704 310
90.69832 -0.53707 128.38673 306
86.82578 -1.04816 127.78877 302
86.29599 -1.11837 127.98881 493
86.29333 -1.11816 128.30582 493
91.73479 -0.32239 128.15839 473
91.72327 -0.32302 128.38695 310
90.74873 -0.44505 128.38525 306
86.87219 -0.93516 127.78770 302
86.26527 -1.01171 127.97402 492
86.26669 -1.01013 128.29155 493
91.75578 -0.24310 128.15033 474
91.75502 -0.24144 128.38264 475
90.79795 -0.35680 128.38676 306
86.92128 -0.82012 127.78940 302
86.23823 -0.90079 127.95834 492
86.23869 -0.90233 128.27713 493
91.77784 -0.16288 128.14285 474
91.77743 -0.16335 128.37506 475
90.84784 -0.26871 128.38625 306
86.96574 -0.70761 127.78654 302
86.20705 -0.79403 127.94321 492
86.20982 -0.79270 128.26379 493
91.79868 -0.08310 128.13535 475
91.79815 -0.08238 128.36803 476
90.89719 -0.17977 128.38737 306
87.01771 -0.59520 127.78785 302
86.17759 -0.68493 127.93038 492
86.17828 -0.68413 128.25229 493
85.07751 -0.80121 128.38832 290
91.82097 -0.00085 128.12697 475
91.82054 -0.00060 128.35988 476
90.94859 -0.08996 128.38557 306
87.06506 -0.47977 127.78841 302
86.15054 -0.57375 127.91196 492
86.14959 -0.57453 128.23570 492
85.12765 -0.67448 128.38744 290
91.80003 0.07583 128.10928 488
91.80177 0.07514 128.34183 489
90.99864 0.00017 128.38643 306
87.11301 -0.36960 127.78680 302
86.11930 -0.46357 127.89623 491
86.12153 -0.46254 128.22137 492
85.17632 -0.55025 128.38689 290
91.77988 0.15301 128.09045 487
91.78097 0.15355 128.32484 488
91.05061 0.08801 128.38782 306
87.16279 -0.25622 127.78687 302
86.09058 -0.35173 127.88288 491
86.08833 -0.35042 128.20656 492
85.22768 -0.42695 128.38690 290
91.75822 0.23200 128.07042 487
91.75866 0.23225 128.30579 488
91.10223 0.17727 128.38710 306
87.21368 -0.14061 127.78834 302
86.06005 -0.23598 127.86702 491
86.05859 -0.23540 128.18961 492
85.28075 -0.30327 128.38693 290
91.73812 0.31153 128.05128 487
91.73778 0.31098 128.28796 488
91.15460 0.26574 128.38652 306
87.26704 -0.02848 127.78809 302
86.02825 -0.12128 127.84861 490
86.02891 -0.12526 128.17462 491
85.33666 -0.17479 128.38571 290
91.71488 0.39236 128.03142 487
91.71604 0.39089 128.26981 488
91.20761 0.35661 128.38655 306
87.31785 0.08283 127.78681 302
85.99773 -0.00842 127.83282 490
85.99856 -0.00809 128.16202 491
85.38832 -0.05020 128.38847 290
91.69537 0.47201 128.01089 486
91.69491 0.47366 128.24908 487
91.26221 0.44459 128.38527 306
87.37308 0.19725 127.78733 302
86.02559 0.10990 127.82639 482
86.02354 0.11268 128.15401 483
85.44670 0.07260 128.38583 290
91.67274 0.55439 127.99111 486
91.67359 0.55457 128.22955 487
91.31617 0.53428 128.38600 306
87.42757 0.30807 127.78655 302
86.05650 0.23195 127.82232 482
86.05687 0.23004 128.14978 483
85.50352 0.19764 128.38658 290
91.64975 0.63672 127.96961 486
91.65150 0.63627 128.21130 487
91.37178 0.62275 128.38684 306
87.48081 0.42385 127.78741 302
86.08907 0.35038 127.81998 483
86.09007 0.34886 128.14557 483
85.55992 0.32318 128.38701 290
91.62775 0.71938 127.94888 485
91.62747 0.72040 128.19283 486
91.42849 0.71163 128.38736 306
87.53429 0.53521 127.78883 302
86.12341 0.47247 127.81317 483
86.12373 0.46945 128.14207 484
85.61608 0.44823 128.38609 290
91.60561 0.80544 127.92889 485
91.60524 0.80557 128.17166 486
91.48458 0.80067 128.38557 306
87.59201 0.64603 127.78696 302
86.15244 0.59176 127.80792 484
86.15269 0.59305 128.13739 484
85.67423 0.57296 128.38837 290
91.58173 0.89037 127.90804 485
91.58233 0.89020 128.15189 486
91.54026 0.88821 128.38545 306
90.42080 0.85187 128.38773 302
86.18570 0.71219 127.80501 484
86.18644 0.71061 128.13516 485
85.73146 0.69624 128.38802 290
91.55917 0.97455 127.88535 484
91.55920 0.97547 128.13335 485
91.55814 0.97561 128.37660 486
90.47726 0.94731 128.38699 302
86.21809 0.83273 127.79749 485
86.21814 0.83461 128.12721 485
85.79229 0.82144 128.38435 290
91.53654 1.06362 127.86504 484
91.53606 1.06323 128.11263 485
91.53517 1.06302 128.35916 486
90.53680 1.04080 128.38704 302
86.25152 0.95330 127.79295 485
86.25275 0.95515 128.12502 486
85.85090 0.94337 128.38580 290
91.51108 1.15137 127.84280 484
91.51115 1.15123 128.09253 485
91.51231 1.15141 128.33955 486
90.59547 1.13674 128.38776 302
86.28545 1.07373 127.78945 485
86.28591 1.07333 128.11725 486
85.91322 1.06748 128.38832 290
91.48940 1.23870 127.82037 483
91.48798 1.23997 128.07185 484
91.48940 1.23906 128.32082 485
90.65458 1.23295 128.38760 302
86.34776 1.19547 127.78695 421
86.34701 1.19734 128.12016 422
85.97737 1.19245 128.38687 290
91.46554 1.32987 127.79945 483
91.46417 1.32941 128.05237 484
91.46617 1.32857 128.30061 485
90.71317 1.32756 128.38686 302
86.46811 1.31584 127.80128 423
86.46793 1.31939 128.12845 423
86.04019 1.31590 128.38518 290
