# .PCD v.7 - Point Cloud Data file format
VERSION .7
FIELDS x y z rgb
SIZE 4 4 4 4
TYPE F F F U
COUNT 1 1 1 1
WIDTH 1153
HEIGHT 1
VIEWPOINT 6561.897461 -3501.740479 133.103882 -0.465124 -0.139220 -0.049176 0.872845
POINTS 1153
DATA ascii
85.95363 2.24323 128.38707 314
85.91870 2.30662 128.38612 314
85.88346 2.37001 128.38611 314
-195.64995 6.91033 53.31536 324
-195.65327 8.68410 53.30931 324
-195.65833 10.48747 53.32932 324
-195.60857 12.28335 53.32031 324
-4312.44238 567.01770 1019.92444 1000
-293.33737 64.05853 39.76354 312
-273.71820 63.21043 37.79687 346
-289.79175 65.85778 40.48843 340
-271.61359 65.24712 38.28405 346
-287.79553 67.95999 40.90080 341
-269.70654 67.18942 38.63755 345
-289.01559 70.63998 40.56469 319
-269.30777 69.38073 38.68011 322
-251.48155 68.29784 36.85706 349
-271.25757 72.11539 38.01633 319
-273.54337 74.86190 37.29572 318
-13685.39062 8134.49219 395.66745 455
-30925.11719 18323.88867 6692.92285 1000
-13681.03613 8247.01074 135.15810 454
-13587.74414 8193.17578 394.42874 460
-13583.92285 8306.27734 135.79051 464
-13495.56543 8250.76074 394.93430 465
-13499.30762 8367.32715 134.85060 464
-13407.29883 8314.49121 394.08105 466
-13409.11426 8427.70605 132.58727 465
-13321.66406 8371.50586 391.56805 466
-13322.42383 8487.69043 132.53972 466
-13236.52930 8433.93359 391.23758 467
-13236.29785 8548.72266 132.95723 466
-13146.91504 8495.33203 392.03946 468
-13151.62695 8609.42676 131.98053 467
-13064.04199 8555.67871 391.42661 468
-13065.95801 8669.18945 135.20561 467
-12977.73438 8615.04199 388.66501 469
-12979.72656 8730.32422 132.56598 468
-12892.27148 8672.64062 388.56665 477
-55069.07031 36840.97656 7767.75684 1000
-12891.14648 8787.78418 133.62634 468
-12813.07422 8732.49512 386.40128 477
-12807.72070 8848.71777 133.70517 469
-12726.23926 8789.49121 385.71814 478
-12726.35547 8905.15332 130.30862 469
-12643.55273 8848.93652 385.34921 481
-12639.76367 8962.52344 131.31226 470
-12562.93750 8911.43555 387.15503 482
-12554.24512 9022.92969 133.23479 470
-12480.02148 8969.75293 386.09546 482
-12471.26660 9078.07422 130.91312 471
-12396.95605 9026.57520 385.90253 483
-12390.84668 9135.49316 132.50151 471
-12317.81348 9084.00195 384.74493 483
-12307.98438 9194.25586 131.36205 472
-12235.53906 9139.39551 383.57391 484
-12225.10645 9252.28809 131.65903 472
-12155.53613 9200.84570 382.21362 484
-12144.10547 9306.64258 131.69580 473
-12073.44434 9256.36230 380.43076 485
-12062.89160 9364.68066 133.20673 473
-11993.30176 9313.05566 381.70175 485
-11981.47559 9423.57129 130.25656 474
-11914.02832 9368.79590 381.52069 486
-11900.59766 9476.64844 129.12762 474
-11834.15527 9427.44336 379.61984 486
82.37074 11.29459 130.15492 1000
-11816.80762 9532.93457 132.62259 474
-11757.01367 9483.23047 378.14706 486
-11739.64062 9588.10840 131.74828 475
-11676.10840 9540.13086 378.00983 487
-11658.21973 9645.97168 130.24118 475
-11595.74609 9595.84180 378.51871 487
-11577.66895 9700.64160 130.22223 476
-11520.76855 9649.66699 379.94171 488
-11498.96094 9757.19629 128.79973 476
-11439.43945 9707.74023 377.29501 488
-11419.87793 9807.55469 132.04904 476
-11362.58496 9761.90039 377.11011 488
-11340.41504 9865.75391 129.60956 477
-11287.44629 9818.50781 378.30292 489
-11262.51270 9921.93262 130.60478 477
-11208.87402 9872.90625 374.19113 489
-11183.75879 9972.47949 128.23978 477
-11129.71387 9928.25586 375.74942 489
-11105.55957 10028.98242 128.59265 478
-11052.91895 9980.61914 374.96948 490
-11026.72656 10082.63184 127.90727 478
-10978.17871 10039.61719 372.25015 490
-10950.73535 10139.21094 128.80437 478
-10900.55762 10089.33496 374.53046 490
-10872.24609 10188.07812 130.94095 479
-10825.06055 10145.07617 373.74344 491
-11385.20020 10667.47656 640.83356 482
-10796.93945 10242.50195 128.21712 479
-10749.51758 10201.95312 371.97876 491
-11296.27051 10712.89551 639.84882 483
-10718.40039 10299.39746 130.45891 479
-10671.60059 10255.52051 370.82510 491
-11202.60156 10756.97168 640.91174 483
-10642.47559 10349.80078 130.91287 480
-10598.02051 10307.53809 374.18707 494
-11109.48828 10801.52441 640.40955 484
-10564.22363 10405.13574 131.20798 480
-10519.75293 10362.89551 371.66946 494
-11017.92969 10846.22363 639.03265 484
-10554.50488 10524.40527 -115.56526 477
-10486.54590 10457.43262 127.53854 480
-10447.07129 10415.95312 373.69644 495
-10927.65820 10893.36133 636.23486 485
-10478.15430 10576.38965 -115.54846 477
-10412.67090 10511.54980 128.26437 480
-10372.13672 10471.51172 372.43658 496
-10836.86816 10935.09961 634.13586 485
-10398.93262 10629.90723 -114.35159 478
-10335.52539 10561.06445 130.11163 481
-10297.28809 10525.52637 371.16248 496
-10743.56152 10978.72656 635.01477 486
-10323.01074 10680.58008 -116.01631 478
-10259.60840 10615.48633 129.57661 481
-10223.49023 10577.46289 371.19547 496
-10655.72754 11021.02051 633.87006 486
-10248.99902 10733.87207 -114.27805 478
-10185.15039 10668.97559 129.22591 481
-10149.20312 10630.53223 369.03793 496
-10567.80762 11069.23340 629.55310 496
-10172.22852 10787.31348 -114.75140 478
-10108.57715 10720.42676 130.80363 481
-10073.17676 10688.21973 371.67792 462
-10490.42676 11123.58496 631.02490 497
-10092.63574 10839.62305 -112.85676 479
-10031.17969 10772.91797 130.32011 482
-10000.85449 10742.93945 371.18488 423
-10412.93164 11181.75000 629.66876 497
-10020.33594 10892.07520 -113.31978 479
-9954.28223 10826.42578 129.75476 490
-9928.74609 10794.52148 368.51981 423
-10336.66602 11233.88867 630.01709 497
-9941.89551 10944.36230 -115.32236 479
-9881.14551 10879.15332 127.61198 490
-9857.72949 10851.88965 367.73846 423
-10257.76855 11287.92676 628.22797 497
-9865.69141 10998.34082 -113.22981 479
-9808.21094 10933.59473 127.86720 490
-9784.84082 10910.24414 369.56747 301
-10180.32129 11346.01074 630.28149 497
-9789.71289 11051.24707 -116.47829 479
-9732.55273 10983.53320 127.18970 490
-9725.58691 10974.75293 367.22876 301
-10102.38965 11398.43652 628.35156 498
-9715.26270 11102.42383 -112.64446 480
-9659.24414 11037.11133 127.14300 490
-9664.35840 11043.97266 370.19354 296
-10021.84668 11453.55664 628.25336 498
-9639.20801 11153.81152 -116.24603 480
-9584.52637 11089.67480 128.28885 491
-9826.55469 11371.28418 376.75064 467
-9880.55176 11428.51172 625.14148 432
-9565.33887 11205.23145 -115.95020 480
-9509.39746 11144.65430 127.56962 491
-9723.23438 11389.37109 376.10114 468
-9799.69629 11483.09180 621.86816 496
-9491.33887 11258.20312 -116.11919 480
-9435.96680 11195.23926 127.52495 491
-9618.88867 11412.15234 372.18570 498
-9726.51660 11537.33887 623.05322 492
-9825.91895 11651.87598 879.91833 498
-9414.18457 11310.42773 -115.81413 480
-9363.04199 11246.67188 128.01407 491
-9545.65039 11465.01562 373.19150 498
-9648.18555 11589.33594 624.30927 492
-9745.62500 11706.97852 878.29016 498
-9337.92285 11362.46777 -113.11245 480
-9287.84570 11298.22363 128.57436 491
-9468.42480 11520.20020 374.43594 499
-9570.35059 11643.34668 621.45135 492
-9669.49121 11762.72852 878.08984 498
-9768.76367 11878.13184 1137.33936 467
-9266.10840 11414.26074 -113.09705 480
-9212.94336 11353.44141 128.06104 491
-9391.51953 11572.58496 370.72882 499
-9496.67188 11695.23047 624.51562 492
-9590.97168 11816.97461 878.90717 498
-9687.62793 11933.73730 1138.15771 383
-7110.05615 8791.77930 2778.30957 1000
-9189.68066 11465.29883 -115.82461 481
-9141.75781 11403.16992 125.77030 491
-9319.38770 11628.40137 370.09534 499
-9484.99023 11831.70410 624.03967 448
-9491.93945 11839.24414 875.24780 448
-9114.92676 11516.27344 -115.56337 481
-9066.33203 11454.63281 128.48343 491
-9242.64551 11677.62793 373.89145 499
-9366.98047 11834.58789 622.95233 449
-9375.34570 11843.67285 870.09930 449
-9417.20898 11898.57422 1126.94116 359
-9040.83203 11570.52246 -114.87524 482
-8990.11230 11507.53223 128.95132 492
-9166.70898 11730.89258 371.30478 499
-9251.23828 11836.03711 621.52637 450
-9258.95410 11846.70801 867.97327 449
-9298.76855 11901.75684 1119.58850 360
-8964.53516 11623.00977 -113.66145 482
-8918.35645 11558.59375 126.41869 492
-9092.60547 11782.94336 372.06702 499
-9136.35547 11842.36230 618.39911 451
-9141.34766 11848.66895 865.74652 450
-9181.20703 11900.66895 1114.50244 360
-8891.49219 11674.75488 -113.60012 482
-8843.50195 11613.61719 128.60706 492
-9017.33398 11837.15430 370.77289 499
-9046.42871 11878.64355 618.88715 499
-9052.40723 11881.74219 861.85876 499
-9076.96777 11920.18750 1111.97461 390
-8817.68359 11726.18262 -115.53513 482
-8768.11523 11664.13281 126.01427 492
-8784.99512 11685.63867 365.63324 431
-8955.86621 11906.70996 614.91431 499
-8975.38379 11937.85449 863.93195 499
-9008.63477 11977.24414 1113.19678 390
-9185.44238 12211.67090 1382.81201 479
-9475.06641 12597.29297 1683.23291 317
-9470.20801 12588.47754 1943.20178 486
-9471.50488 12594.13574 2210.21167 476
-9106.28418 12113.55469 2382.47852 433
-8739.78809 11777.40723 -112.51440 483
-8696.61328 11718.36914 126.45123 492
-8708.16113 11732.69629 367.36902 431
-8878.97461 11960.22168 614.43225 499
-8879.99414 11963.22754 860.43365 499
-8932.58398 12034.48535 1113.51074 390
-9022.10156 12154.84668 1371.89661 488
-9021.11133 12154.68164 1622.32520 488
-8665.70312 11828.42773 -113.27910 483
-8622.52148 11767.80859 126.34529 492
-8637.08789 11784.06445 366.21820 438
-8804.93750 12012.58398 617.19104 499
-8804.65527 12015.52539 861.30231 499
-8862.09766 12093.24023 1113.18323 390
-9032.77539 12324.38867 1382.41943 485
-8592.48047 11880.52051 -113.14600 483
-8549.14453 11818.79004 127.59436 492
-8564.72363 11841.93066 366.91495 387
-8730.34277 12067.29395 615.78937 499
-8731.29980 12070.57520 862.70782 499
-8787.79004 12149.82129 1111.26489 390
-8924.45020 12333.83105 1377.53040 453
-8519.27734 11929.77832 -112.91005 483
-8473.71875 11870.84961 126.63171 492
-8493.43262 11897.04199 365.12906 387
-8654.42285 12120.05469 616.43433 499
-8655.32129 12123.37891 861.32434 499
-8717.89258 12206.02734 1115.11951 390
-8877.51562 12432.25586 1383.80115 485
-8446.03613 11983.17871 -115.23963 483
-8401.19434 11922.12207 126.81238 492
-8564.78125 12153.81934 369.72705 499
-8580.35352 12172.67090 614.55341 499
-8580.42871 12175.63867 859.54102 499
-8643.64941 12263.13477 1112.09363 390
-8800.66211 12489.70508 1385.33655 485
-8372.50195 12034.06836 -112.71616 483
-8326.45898 11975.41504 127.05048 495
-8491.55078 12207.58984 369.16858 499
-8504.37500 12228.11621 615.27881 499
-8506.65820 12228.85449 861.67676 499
-8570.01660 12322.19531 1111.88525 390
-8725.45508 12544.30273 1383.80261 485
-8295.95605 12086.18066 -112.66016 483
-8257.07129 12027.09668 127.67688 495
-8415.77539 12259.14062 371.77966 499
-8428.82422 12278.46484 618.01678 499
-8432.21777 12283.24805 861.45184 499
-8498.21094 12379.86426 1114.46191 390
-8648.88281 12599.10254 1384.45752 485
-8219.57812 12138.12988 -112.92188 483
-8181.32178 12078.15332 128.50308 495
-8342.43750 12311.91504 370.18060 499
-8368.95117 12356.48145 616.99493 499
-8356.08691 12334.41211 863.02637 499
-8427.10449 12439.84375 1115.34216 390
-8146.46875 12187.33887 -112.80827 483
-8109.19971 12131.36914 126.97658 495
-8266.13477 12367.20020 369.48444 499
-8292.84766 12410.11133 614.95868 499
-8295.53906 12412.50391 864.32629 499
-8352.86523 12498.78418 1113.84631 390
-8071.73047 12240.92188 -113.06268 483
-8035.59424 12183.02051 127.36127 495
-8191.26270 12418.07422 372.00461 499
-8221.23340 12462.59082 617.45056 499
-8222.93750 12465.86133 861.14301 499
-8279.59863 12553.05859 1115.69653 390
-7998.74951 12292.92090 -114.94163 483
-7961.16309 12237.21973 124.88535 495
-8113.62988 12470.91992 369.02908 499
-8072.76758 12404.84277 612.77148 420
-8049.97021 12374.69727 853.31470 390
-8204.86328 12613.65820 1114.41345 390
-7923.98584 12342.03906 -114.97149 483
-7888.07812 12289.42871 127.85501 495
-8068.40869 12565.79395 371.93982 499
-8069.87500 12569.27148 615.16400 499
-8071.43115 12573.70410 863.19775 499
-8136.93408 12670.94824 1116.81213 390
-7847.96826 12397.34668 -113.76572 483
-7813.56348 12342.83496 126.87102 495
-7991.86670 12619.06836 372.70135 499
-7991.92676 12623.01172 617.37024 499
-7997.41748 12624.74902 863.74298 499
-8061.52734 12730.15332 1115.92053 390
-7774.34521 12449.76074 -113.21336 482
-7741.20703 12395.23730 124.36794 495
-7918.33643 12672.64258 371.57474 499
-7918.84473 12676.25684 616.84949 499
-7921.61768 12678.23828 862.79596 499
-7987.18408 12788.01270 1117.19128 381
-7700.98340 12499.90039 -114.21043 482
-7666.76953 12445.08887 124.39313 495
-7860.03711 12756.37695 372.71271 475
-7862.13086 12759.55176 618.08722 453
-7862.86719 12758.50781 866.37231 453
-7949.20947 12902.89160 1123.20325 357
-7626.94727 12551.51465 -113.73637 482
-7592.30225 12499.13184 126.99406 495
-7801.70752 12839.38086 373.30203 474
-7819.58936 12866.70801 618.38342 453
-7817.39941 12864.37012 866.17810 452
-7931.37207 13054.03613 1129.95044 446
-7552.79395 12601.74805 -113.52559 482
-7519.68652 12550.15234 126.38571 494
-7743.06445 12920.93555 371.73721 474
-7770.18555 12967.02051 622.76208 473
-7772.95215 12969.30957 870.74487 452
-7477.95654 12655.08691 -114.47108 482
-7444.30615 12602.76172 127.44685 497
-7683.56201 13004.10645 372.82697 473
-7712.09912 13048.41895 625.51654 472
-7728.37695 13077.20703 875.98621 451
-7402.59326 12705.74023 -114.27322 482
-7372.31250 12656.62695 125.40215 497
-7628.60986 13087.23828 375.49774 472
-7655.37598 13134.40430 627.03503 471
-7326.05371 12757.79492 -114.94227 482
-7297.39697 12709.90820 127.03516 497
-7567.48975 13171.15430 376.49060 472
-7594.85059 13220.86133 626.65485 471
-7253.92480 12809.36621 -115.34597 482
-7222.51221 12763.47363 123.98460 496
-7509.26270 13256.06641 374.95084 471
-7178.18164 12862.49023 -117.31203 490
-7149.91357 12815.77930 127.60213 496
-7451.75342 13351.03125 378.38040 444
-7102.14795 12914.03711 -114.07742 489
-7077.34570 12869.47461 125.24191 496
-7028.18896 12970.06738 -114.31022 489
-7000.72314 12922.89160 127.03697 496
-6951.49951 13021.36523 -115.15917 489
-6928.62939 12974.62207 125.18044 496
-6878.65723 13076.41309 -114.91587 489
-6854.97754 13028.80957 127.08430 496
-6802.12598 13128.23047 -116.20321 489
-6778.03613 13082.64258 124.92960 495
-6728.20996 13179.54492 -116.73981 489
-6702.68799 13135.48535 125.00241 495
-6653.64795 13232.61719 -115.40672 488
-6627.23975 13188.00977 123.75349 495
-6576.01660 13287.76953 -119.30611 488
-6554.59668 13244.36230 124.40453 495
-6502.48535 13342.17676 -116.85764 488
-6478.07373 13294.38281 127.42172 494
-6462.18945 13469.92676 -366.97205 477
-6424.82178 13395.74805 -117.40376 488
-6401.46094 13350.72949 123.52718 494
-6387.33740 13524.66797 -365.39929 477
-6349.64551 13448.46387 -120.68909 487
-6329.62695 13406.18945 126.45992 494
-17573.07617 37445.97266 -9541.00879 1000
-6311.47705 13578.93262 -367.79510 477
-6274.85400 13500.87500 -120.11021 487
-6251.31396 13457.37109 123.62937 494
-6234.30176 13630.95898 -364.89343 476
-6197.73291 13557.03223 -121.08407 487
-6178.63184 13512.93457 124.29479 493
-6157.70557 13684.63379 -365.25900 476
-6121.81006 13608.58594 -120.49860 487
-6101.95850 13567.41211 125.89745 493
-6078.84912 13739.74219 -369.04364 476
-6045.52344 13663.22656 -118.56252 486
-6026.66016 13622.01855 126.05991 493
-6000.62598 13793.28418 -366.47281 475
-5966.81641 13717.09961 -120.90247 486
-5949.23633 13675.09082 126.53396 493
-5926.23877 13846.38672 -369.57352 475
-5890.01855 13772.57227 -119.03439 486
-5873.51660 13731.73340 126.02390 374
-5845.45654 13900.47949 -369.06494 475
-5812.86035 13827.50781 -123.06995 485
-5801.93164 13795.37012 126.13061 374
-5766.80566 13956.06445 -368.54831 475
-5735.17090 13879.79883 -119.43810 485
-5725.77832 13858.37109 125.64581 373
-5687.15869 14009.83008 -372.35394 474
-5656.50000 13935.96191 -119.78896 485
-5651.31543 13914.29102 126.16681 441
-5611.18848 14063.45117 -372.02979 474
-5581.47217 13989.94141 -122.37152 484
-5571.69238 13967.25684 126.76265 441
-5529.64893 14119.76855 -373.92154 474
-5500.82080 14045.72461 -121.94140 484
-5491.53076 14021.58789 124.96466 441
-5452.03857 14175.76270 -375.09949 473
-5424.82812 14100.61719 -123.37825 484
-5413.99316 14073.45020 127.02173 440
-5374.14355 14229.38867 -372.84531 473
-5348.45996 14157.66016 -122.98727 483
-5336.27686 14126.78223 126.92130 440
-5293.88574 14285.78516 -376.55637 473
-5268.94189 14211.48926 -125.44836 483
-5253.56348 14181.69238 126.29330 418
-5214.63721 14337.47461 -375.49097 472
-5188.65381 14267.62891 -123.54722 483
-5184.47266 14256.70020 124.13548 294
-5135.31006 14393.60938 -376.35876 472
-5109.39648 14323.18652 -125.16561 482
-5114.38281 14338.33887 122.86138 294
-5053.97266 14451.06152 -376.25638 472
-5028.92334 14381.00684 -125.18977 482
-5556.30176 15863.31934 121.91135 430
-4975.94092 14506.08594 -378.76608 471
-4950.56201 14437.21680 -125.29719 481
-5465.23535 15911.55957 121.97046 429
-4893.23828 14562.86426 -378.49149 471
-4868.53809 14493.25781 -124.05045 481
-5373.74854 15970.51270 124.69015 491
-4815.61914 14624.80078 -378.51566 458
-4790.76807 14551.74121 -126.93420 481
-5286.09521 16025.54492 124.71918 491
-4736.24561 14694.72949 -380.90143 459
-4708.20557 14608.76660 -126.77743 480
-4662.38867 14769.41016 -383.20209 459
-4627.68164 14665.16699 -129.30276 480
-4584.37793 14841.69336 -386.59421 458
-4552.19189 14736.13281 -129.12624 458
-4506.15674 14913.37891 -387.61893 458
-4474.40332 14810.78125 -130.79636 458
-4427.77881 14984.09277 -388.99451 457
-4398.92773 14880.98633 -128.73701 457
-4348.68750 15057.35547 -390.14233 456
-4320.34473 14954.22949 -130.86383 457
-4309.93457 14928.09473 122.41962 476
-427.73486 1803.56519 -53.76948 445
-430.14163 1812.50281 -23.75488 387
-4269.11377 15134.57129 -393.31982 456
-4239.95898 15029.59961 -129.51195 456
-4231.34277 15000.95996 123.37074 476
-415.75272 1803.49792 -53.51313 498
-417.29007 1809.48804 -23.03083 498
-418.91003 1815.09338 7.46977 498
-421.02606 1821.96082 37.94079 444
-4196.96533 15233.61328 -392.54129 412
-4161.33691 15101.97559 -132.10539 455
-405.66339 1810.79675 -53.64761 456
-407.44629 1816.98145 -23.14567 402
-409.53738 1823.52698 7.13785 390
-4125.89893 15336.78418 -397.89804 412
-4081.72241 15176.74414 -134.34937 455
-4054.96777 15455.40723 -399.28442 389
-3998.97876 15251.79297 -134.45781 455
-3985.85229 15573.21387 -401.44910 388
-3922.20288 15347.11230 -134.87050 412
-3913.60889 15693.23633 -407.09418 388
-3851.28687 15451.08105 -137.87573 411
-3848.53125 15841.28516 -411.24167 361
-3777.40771 15559.34570 -138.88550 410
-3700.61841 15663.91895 -140.39980 410
-3625.25415 15771.36621 -142.77515 388
-5780.69043 25624.95312 -2035.98926 1000
-3554.08081 15910.79199 -144.89545 361
-15155.19629 66561.09375 6824.92822 1000
-3484.74536 16067.90332 -144.18477 360
-3415.88062 16227.77832 -148.33952 360
-8510.76953 48383.10938 4948.88574 1000
-3108.95068 31211.76562 -909.13678 1000
-1466.24158 38317.22266 743.21436 1000
4239.82324 43684.67578 -11642.49219 1000
11861.58203 29660.12891 3798.62183 1000
1358.71204 2114.21045 -73.89721 349
1363.34070 2092.67749 -72.19414 437
1379.45715 2118.88501 -34.48442 315
1396.97595 2118.40649 -116.75189 283
1369.58167 2073.89648 -71.49840 438
1411.02942 2141.20020 -36.40297 274
1401.71973 2096.86597 -115.56541 408
1375.68567 2055.84155 -70.57318 439
1406.97559 2076.37866 -113.63863 408
1382.32983 2038.51196 -69.62246 451
1408.48535 2050.74561 -112.18584 458
1390.64758 2023.76624 -68.84401 470
1416.50195 2035.04053 -110.79108 458
1399.29651 2009.51770 -68.27026 471
1423.95044 2019.67371 -109.99915 459
1407.41528 1995.11902 -67.57346 471
1431.40698 2003.94202 -109.24631 459
1416.84314 1981.78064 -66.78311 457
1439.63293 1989.53992 -108.34348 320
1425.90747 1969.68945 -66.40538 458
1446.03772 1972.16040 -107.31658 321
1435.79089 1958.14783 -66.36472 458
1451.90137 1955.07275 -106.31642 324
1445.27429 1946.10193 -65.84643 457
1458.07727 1939.14575 -105.58347 324
1454.82471 1934.25354 -65.91218 458
1465.49695 1923.30518 -104.26786 327
1464.77710 1922.66760 -65.34727 462
1473.87927 1910.25330 -103.79765 430
1475.05762 1912.18115 -64.85724 462
1482.82703 1897.97534 -103.69075 430
1484.84058 1900.88000 -64.79333 391
1491.72021 1885.07056 -102.78217 430
1496.23889 1891.15930 -64.58122 391
1500.87708 1873.23950 -102.20518 431
1506.48877 1880.81714 -64.36667 390
1509.26208 1860.74731 -101.84838 431
1517.49731 1871.20898 -64.19756 390
1557.89758 1923.64771 -29.80391 499
1519.08838 1850.20105 -102.01035 434
1527.93457 1861.53845 -64.20580 391
1569.37646 1914.27991 -30.04171 499
1528.90967 1838.83118 -101.64631 434
1538.79175 1851.76819 -64.26805 391
1577.79321 1900.68542 -29.34911 353
1538.72705 1828.38330 -101.45975 434
1549.53955 1841.82959 -63.83550 391
1548.60461 1817.08081 -100.85951 436
1560.33386 1832.19543 -64.00421 391
1558.89563 1807.37146 -101.06909 497
1571.74255 1823.31116 -64.29049 391
1569.29712 1797.47388 -100.88122 497
1583.87451 1815.07214 -64.08222 296
1580.34888 1787.90613 -100.95850 497
1596.78113 1807.53894 -64.52958 296
1590.95288 1778.06873 -100.69003 497
1607.95300 1798.64380 -64.59361 296
1602.49512 1769.04614 -100.83876 497
1618.60339 1788.15515 -63.92826 410
1659.62476 1835.97107 -29.99198 499
1612.73230 1759.68323 -100.89756 497
1626.43799 1774.68567 -63.73344 434
1670.72656 1826.39124 -29.59032 499
1710.49536 1871.70227 7.31051 499
1714.57556 1876.53943 47.35023 377
1624.26221 1750.45007 -100.95446 497
1640.66174 1768.89636 -64.07363 296
1635.45581 1741.11731 -100.38975 497
1647.74365 1755.37122 -63.86562 443
1645.99219 1732.08704 -100.46860 497
1660.31543 1747.20166 -64.20476 446
1656.84167 1722.45923 -100.63791 497
1672.54333 1739.84387 -64.03033 296
1668.07983 1713.09265 -101.08913 497
1683.18054 1729.89807 -63.82048 296
1679.03088 1703.84583 -101.08199 497
1693.52173 1719.53137 -63.77742 296
1781.32581 1813.16064 -33.75523 410
1690.02673 1694.91040 -100.66503 497
1704.22461 1709.89355 -64.03376 296
1728.23584 1734.46155 -27.88521 499
1701.09363 1685.30420 -101.15619 497
1715.21057 1700.27075 -64.04263 390
1739.35254 1724.89856 -27.59774 499
1712.59131 1676.11072 -101.35619 497
1726.29517 1690.68701 -64.04737 390
42127.95312 42681.78906 -7839.70557 1000
1723.03455 1666.77026 -100.99453 497
1736.74670 1680.58997 -63.93822 425
1734.58423 1657.64233 -101.24506 436
1747.95117 1671.37805 -64.55920 390
1745.17957 1648.06030 -101.30099 436
1759.15552 1661.89771 -64.31335 390
1756.87146 1639.06995 -101.25715 436
1770.22546 1651.97717 -64.66552 390
1809.83508 1690.64429 -29.20895 387
1819.11438 1700.15820 10.04780 378
1768.37537 1629.78979 -101.84614 436
1781.22095 1642.14172 -64.75935 390
1779.23059 1620.71606 -101.53805 436
1791.97192 1632.83667 -64.54061 390
1790.81689 1611.20264 -101.93408 435
1802.89014 1623.25366 -64.75228 390
1801.95129 1601.83875 -102.51834 435
1814.11865 1613.26941 -64.94490 390
1812.99524 1592.55017 -102.19789 435
1824.87830 1603.07642 -65.01859 390
1824.42639 1583.40808 -102.41077 435
1836.06873 1593.83142 -65.23785 390
1835.84412 1574.05591 -102.48504 435
1846.82019 1584.31335 -65.32924 390
1847.21631 1564.30444 -103.21736 435
1857.95764 1574.18481 -65.41203 390
1858.99341 1555.47925 -103.08871 434
1868.92664 1563.86646 -65.66975 389
1870.50269 1546.06128 -103.63297 434
1880.19299 1554.44055 -65.42237 389
1881.54871 1536.74915 -103.70322 434
1890.81055 1544.87769 -65.34874 389
1893.07251 1527.13953 -103.90868 434
1901.72461 1534.98755 -65.73994 389
2002.80505 1619.84973 -35.68912 496
1904.73108 1518.05969 -104.12546 434
1913.20386 1524.62549 -65.73475 389
1915.87476 1508.54272 -104.42895 433
1924.27661 1514.76807 -66.48704 389
1927.39771 1498.90295 -104.64752 433
1933.12561 1502.83997 -65.78310 499
1939.31177 1489.32751 -105.20189 433
1946.41553 1495.09424 -66.22189 389
1954.81982 1482.65039 -105.50071 410
1962.69482 1489.33789 -67.61124 369
1978.68591 1482.59729 -107.93014 314
27565.73242 19139.47070 2286.55322 1000
27492.99805 19089.20508 3381.15381 1000
1934.71948 308.91571 -53.64896 493
1940.45361 309.39850 -23.20714 465
1946.11816 310.63852 7.62079 462
1936.31531 297.60959 -53.58350 477
1942.60962 298.50949 -23.23497 477
1949.55933 299.57230 7.31461 382
1951.53088 287.82391 -55.05128 301
4754.57861 -551.38055 -100.74931 460
4770.23242 -583.00732 -101.79594 422
5007.64697 -612.49200 -31.53830 452
4789.40918 -614.44110 -102.65859 414
4988.15430 -640.19562 -31.86836 452
4808.68750 -646.38611 -103.57607 411
4967.41602 -668.27594 -31.15088 453
4829.49951 -679.16547 -104.27161 404
4948.52344 -696.76825 -30.99398 454
4853.21045 -711.64520 -106.09396 385
4928.52197 -723.60028 -29.45617 454
4882.16553 -747.52338 -107.30723 383
4909.80566 -750.54266 -29.45853 455
4914.80420 -782.45886 -110.05542 371
4911.01953 -781.15375 -28.90329 479
4966.00879 -821.65106 -112.88291 341
4950.74805 -818.62897 -30.39384 355
5026.11279 -863.00238 -116.01218 340
5009.48047 -859.84161 -33.54840 354
5258.67236 -936.21399 -41.74745 386
5240.78564 -965.62915 -40.98489 475
5237.05859 -998.27179 -40.84745 347
3382.70288 -960.09717 -37.09613 497
3390.00098 -962.30426 18.79521 497
4098.47998 -1874.65027 -13.31862 485
4880.85400 -2535.82275 43.02976 347
4826.94678 -2544.23242 43.65780 473
4797.24512 -2564.95410 44.01514 475
4767.78027 -2587.28247 43.54575 476
4740.30273 -2608.30737 43.81595 482
4712.82373 -2631.39404 44.78096 483
4686.74707 -2653.05835 44.58838 468
4662.66260 -2677.70020 45.05432 469
4637.88184 -2700.94458 45.79844 470
4614.91455 -2724.72949 44.67945 472
4691.04297 -2771.11475 131.60258 303
4592.69482 -2749.69751 46.03586 473
4622.59277 -2766.83813 131.49257 499
4636.99512 -2777.05713 218.21776 426
4570.94043 -2774.49170 46.13111 474
4603.03369 -2793.48633 131.47235 499
4616.38184 -2802.79395 218.69209 426
4548.61084 -2798.84058 45.50018 475
4583.04785 -2819.91919 131.47969 499
4596.08350 -2828.48145 218.73744 427
4528.45117 -2822.90088 44.94677 476
4559.26562 -2843.96216 131.24892 499
4576.15625 -2854.46387 218.13538 427
4508.86328 -2849.29370 46.13206 476
4541.17578 -2869.80615 130.96046 499
4555.88037 -2880.42358 218.71634 427
4488.21289 -2875.25708 46.23552 477
4522.02783 -2896.92041 131.73268 499
4536.14307 -2906.24902 218.24495 427
4470.18994 -2900.97607 46.17682 475
4507.22412 -2925.21899 131.51773 499
4516.65186 -2931.61304 217.94775 427
4450.49756 -2927.27271 46.12697 498
4487.71826 -2952.97583 131.44624 499
4494.92871 -2957.35742 218.25542 427
4430.95215 -2953.28101 46.38949 498
4468.85742 -2978.61475 132.12021 499
4473.72705 -2982.57007 218.89766 427
4411.72852 -2978.93066 45.48144 498
4519.35596 -3053.44873 131.43388 280
4454.29102 -3007.89771 218.26901 427
4393.38135 -3004.99707 45.71995 498
4374.23975 -3031.75342 46.51066 498
4520.88672 -3135.14404 309.03281 474
4355.45557 -3057.50146 45.64015 498
4339.41797 -3085.32520 45.50255 499
4317.62842 -3110.31567 45.96490 499
4301.02197 -3138.29639 45.65665 499
4283.35107 -3163.82446 45.87170 499
4262.04492 -3189.65576 46.00296 499
20282.89258 -15649.12598 -3231.54004 1000
4244.67920 -3217.31787 45.58266 499
4224.70752 -3241.49756 46.24141 499
4209.66162 -3270.85645 46.33612 465
4286.66309 -3331.33179 132.38599 489
4270.17969 -3361.60010 44.40637 458
4258.07861 -3352.40234 131.76752 489
4251.06934 -3388.81470 44.19850 427
4235.91064 -3375.68066 132.30901 492
2952.88354 -2983.65820 64.69109 288
2928.64941 -2994.08325 64.77037 425
2137.89331 -2601.98511 77.82979 342
2091.65942 -2575.41577 78.78395 341
2107.04321 -2594.84888 131.62221 349
2048.26221 -2551.52124 79.53925 341
2068.56616 -2578.35449 131.68636 427
2005.63843 -2528.01831 80.00751 342
2060.54321 -2600.00195 131.52567 475
1963.68518 -2504.64502 80.71488 343
2049.51880 -2619.60303 132.24991 474
1924.73157 -2482.70801 81.53151 343
2034.93347 -2632.98535 131.71292 433
1887.29041 -2464.37134 82.49972 344
1882.20850 -2457.57739 131.95575 361
1849.46179 -2442.95459 82.96794 336
1846.11353 -2438.38159 131.99100 361
1812.29016 -2422.13989 83.75497 340
1810.32788 -2420.43506 131.70639 363
1778.27661 -2406.23193 83.71024 355
1776.00940 -2403.53735 132.30446 395
1748.65576 -2395.13794 84.75509 368
1748.45605 -2394.15796 131.90167 403
1722.17175 -2387.45435 84.46718 376
1722.63562 -2388.93042 132.15637 362
1697.57092 -2382.42041 85.33982 383
1704.96960 -2393.40356 131.89006 298
1673.41492 -2378.17847 85.56084 391
1691.85400 -2406.67749 131.66360 300
2738.00317 -4038.40552 -105.13054 1000
1650.81165 -2375.07495 85.19545 398
1682.43835 -2424.34302 132.07014 410
1628.31055 -2372.76270 85.40815 398
1679.36133 -2451.82520 131.56279 408
1606.86462 -2372.29590 85.60328 410
1759.50574 -2611.64893 132.08774 319
1586.71423 -2372.23828 85.83088 415
1590.72119 -2378.12891 131.77728 261
1673.01550 -2509.44751 180.27425 449
1566.43640 -2372.09277 86.41367 416
1567.84131 -2374.23975 131.83055 377
1662.84534 -2527.54785 180.98502 448
1546.79309 -2372.02661 86.04185 413
1547.57703 -2374.54297 132.24312 360
1652.14844 -2545.30688 181.12976 448
1526.52576 -2372.11963 86.22114 417
1527.92322 -2374.76392 132.10075 427
1641.63708 -2563.12939 180.92061 447
1507.13635 -2372.53076 86.63429 426
1508.82410 -2375.77319 131.98378 409
1636.39929 -2590.80518 180.93939 322
1487.13867 -2372.25659 86.97910 433
1490.28052 -2377.57910 131.94229 384
1475.69690 -2386.39868 87.14494 296
1471.88245 -2379.70557 131.63013 359
15539.67383 -30074.49219 6850.50000 1000
10521.15332 -52182.66016 -13195.33496 1000
6357.71143 -47969.00781 6505.78516 1000
398.69818 -5484.00000 -1053.68665 1000
-2436.85645 -41553.22656 10569.60938 1000
-264.03009 -3058.99976 183.34621 499
-263.38510 -3056.25049 233.31110 489
-262.89392 -3053.29370 283.42892 489
-262.62936 -3050.56787 334.15167 456
-8144.29541 -51244.56641 3547.48877 1000
-984.45038 -6220.22705 860.06653 1000
-373.85858 -2353.69824 329.30472 338
-390.37878 -2361.52173 132.39040 385
-390.31830 -2360.45435 172.22247 314
-497.95731 -1655.03369 103.58305 477
-497.43002 -1653.38623 132.23647 477
-496.63885 -1651.68884 161.29193 477
-496.10489 -1650.35522 189.93709 498
-495.52496 -1648.70251 218.59282 498
-494.92886 -1647.37512 247.29298 494
-494.51541 -1646.22852 275.88968 494
-494.01132 -1645.06299 304.89450 494
-46491.05859 -41553.70703 12569.45117 1000
-41873.78125 -27535.24805 -4799.67432 1000
90.07207 -3.03488 128.02480 349
90.07142 -3.03706 128.26161 350
90.18719 -2.91946 128.04843 351
90.18700 -2.91978 128.28316 351
89.65842 -3.11582 128.38574 306
90.30008 -2.80772 128.07301 352
90.30097 -2.80668 128.30806 352
89.68629 -3.02823 128.38666 306
88.63491 -3.41136 128.38528 302
90.41165 -2.69711 128.09778 353
90.41095 -2.69590 128.32852 354
89.71485 -2.94370 128.38573 306
88.65970 -3.31690 128.38647 302
90.52158 -2.58586 128.11832 355
90.52028 -2.58732 128.34973 355
89.74382 -2.85809 128.38687 306
88.68919 -3.22188 128.38669 302
90.62904 -2.47945 128.13995 356
90.62959 -2.47975 128.36890 357
89.77277 -2.77024 128.38753 306
88.71822 -3.12981 128.38608 302
90.73575 -2.37285 128.16203 357
90.72237 -2.37816 128.38596 310
89.80224 -2.68415 128.38617 306
88.74397 -3.03702 128.38617 302
90.83935 -2.27015 128.18260 359
90.75515 -2.29558 128.38705 310
89.83265 -2.59763 128.38585 306
88.77493 -2.94432 128.38661 302
90.94056 -2.16619 128.20227 360
90.78850 -2.21549 128.38707 310
89.86567 -2.51022 128.38689 306
88.80521 -2.84954 128.38742 302
87.57036 -3.24575 128.38780 298
91.04318 -2.06536 128.22101 361
90.81902 -2.13469 128.38751 310
89.89829 -2.42341 128.38525 306
88.83311 -2.75765 128.38538 302
87.59798 -3.14553 128.38782 298
91.14245 -1.96420 128.24031 363
90.85265 -2.05322 128.38554 310
89.92857 -2.33788 128.38539 306
88.86406 -2.66371 128.38591 302
87.62647 -3.04433 128.38548 298
91.24059 -1.86626 128.25795 364
90.88721 -1.97165 128.38705 310
89.96076 -2.25094 128.38707 306
88.89520 -2.56876 128.38618 302
87.65652 -2.94083 128.38779 298
91.33865 -1.76939 128.27478 365
90.92229 -1.89216 128.38693 310
89.99530 -2.16493 128.38791 306
88.92938 -2.47617 128.38626 302
87.68641 -2.84240 128.38826 298
91.36620 -1.69292 128.27457 457
90.95859 -1.81006 128.38680 310
90.02802 -2.07559 128.38574 306
88.96020 -2.38344 128.38686 302
87.71661 -2.73918 128.38699 298
91.38762 -1.61967 128.26857 457
90.99213 -1.72821 128.38640 310
90.06244 -1.99023 128.38573 306
88.99349 -2.29026 128.38725 302
87.74870 -2.63686 128.38814 298
91.40765 -1.54430 128.26520 458
91.02876 -1.64815 128.38704 310
90.09778 -1.90246 128.38588 306
89.02714 -2.19471 128.38702 302
87.77959 -2.53579 128.38817 298
91.42561 -1.47028 128.26114 459
91.06400 -1.56685 128.38710 310
90.13514 -1.81462 128.38669 306
88.29254 -2.30510 128.21446 371
87.81497 -2.43485 128.38527 298
86.34330 -2.82771 128.38582 294
91.44606 -1.39576 128.25504 460
91.10212 -1.48624 128.38702 310
90.16949 -1.72831 128.38759 306
88.12230 -2.26156 128.16829 370
87.84908 -2.33166 128.38737 298
86.37238 -2.71579 128.38829 294
91.46748 -1.32160 128.25008 460
91.13947 -1.40390 128.38702 310
90.20638 -1.64026 128.38669 306
87.94849 -2.21417 128.12143 369
87.88105 -2.22983 128.38690 298
86.40874 -2.60334 128.38712 294
91.48829 -1.24591 128.24683 461
91.17677 -1.32323 128.38728 310
90.24152 -1.55393 128.38727 306
87.76528 -2.16427 128.07535 368
87.76504 -2.16538 128.35703 368
86.43896 -2.49404 128.38708 294
91.50645 -1.17041 128.24152 462
91.21524 -1.24214 128.38654 310
90.28091 -1.46725 128.38733 306
87.58095 -2.11474 128.02534 366
87.58137 -2.11674 128.31241 367
86.47404 -2.37993 128.38802 294
-2154.31812 -541.13226 93.66184 499
-2157.42310 -542.00775 131.96103 499
-2161.55859 -543.05188 169.72084 486
91.52707 -1.09574 128.23625 462
91.25565 -1.15989 128.38618 310
90.31770 -1.37816 128.38779 306
87.39043 -2.06378 127.97659 365
87.38913 -2.06247 128.26379 365
86.51067 -2.27049 128.38776 294
-2166.17090 -529.38098 93.75876 394
91.54769 -1.01979 128.23093 463
91.29456 -1.07870 128.38647 310
90.35709 -1.29277 128.38580 306
87.19380 -2.01155 127.92393 364
87.19385 -2.01058 128.21611 364
86.54275 -2.15852 128.38605 294
-2840.85669 -668.48932 131.65504 498
-2844.33838 -669.03735 181.51091 498
91.56692 -0.94459 128.22458 464
91.33391 -0.99574 128.38737 310
90.39735 -1.20432 128.38545 306
87.08617 -1.93587 127.89323 456
87.08817 -1.93603 128.18854 456
86.58050 -2.04556 128.38664 294
-3564.90234 -809.24170 193.63008 406
91.58708 -0.86943 128.21962 464
91.37491 -0.91636 128.38766 310
90.43666 -1.11649 128.38641 306
87.00229 -1.85433 127.86794 455
87.00439 -1.85563 128.16403 455
86.61578 -1.93493 128.38474 294
91.60883 -0.79402 128.21332 465
91.41447 -0.83359 128.38747 310
90.47554 -1.02927 128.38715 306
86.92138 -1.77093 127.83952 454
86.91887 -1.76863 128.14020 455
86.65359 -1.82568 128.38664 294
91.62823 -0.71763 128.20801 466
91.45777 -0.75282 128.38628 310
90.51648 -0.94129 128.38762 306
86.83689 -1.68554 127.81337 453
86.83504 -1.68398 128.11256 454
86.69387 -1.71346 128.38799 294
91.65018 -0.64074 128.20279 466
91.49848 -0.67057 128.38582 310
90.55978 -0.85371 128.38684 306
86.75367 -1.59789 127.78748 302
86.75050 -1.59753 128.08932 453
86.73190 -1.60436 128.38489 294
91.66936 -0.56368 128.19572 467
91.54160 -0.58878 128.38625 310
90.60204 -0.76668 128.38741 306
86.78983 -1.48776 127.78760 302
86.66015 -1.51151 128.06378 452
86.66133 -1.51078 128.36557 453
91.68903 -0.48823 128.19061 468
91.58473 -0.50680 128.38713 310
90.64209 -0.68036 128.38635 306
86.82976 -1.37447 127.78716 302
86.57299 -1.42281 128.03877 451
86.57310 -1.42131 128.34134 452
91.71064 -0.41061 128.18562 468
91.62820 -0.42634 128.38763 310
90.68510 -0.59297 128.38637 306
86.86874 -1.26497 127.78675 302
86.48333 -1.33101 128.01244 450
86.48373 -1.33162 128.31918 451
91.72994 -0.33454 128.17889 469
91.67133 -0.34544 128.38687 310
90.72781 -0.50449 128.38586 306
86.90970 -1.15511 127.78669 302
86.39147 -1.24162 127.98685 449
86.39241 -1.24223 128.29306 450
91.75163 -0.25711 128.17261 470
91.71450 -0.26354 128.38545 310
90.77141 -0.41753 128.38753 306
86.94910 -1.04177 127.78885 302
86.30288 -1.14742 127.95781 493
86.30137 -1.14813 128.27092 494
85.15450 -1.33631 128.38553 290
91.77296 -0.18023 128.16626 470
91.75990 -0.18104 128.38730 310
90.81684 -0.32945 128.38695 306
86.99266 -0.93168 127.78586 302
86.27567 -1.04507 127.94482 493
86.27528 -1.04570 128.25859 494
85.19498 -1.21361 128.38858 290
91.79285 -0.10097 128.15807 471
91.79353 -0.10196 128.38365 472
90.86162 -0.24144 128.38660 306
87.03399 -0.82106 127.78783 302
86.24709 -0.93647 127.93264 493
86.24908 -0.93893 128.24492 494
85.23734 -1.09077 128.38522 290
91.81404 -0.02325 128.15143 471
91.81445 -0.02456 128.37811 472
90.90816 -0.15367 128.38663 306
87.07655 -0.70804 127.78654 302
86.21790 -0.83228 127.91483 493
86.21820 -0.83391 128.22977 494
85.28170 -0.96914 128.38676 290
91.80733 0.05034 128.13724 489
91.80640 0.05098 128.36426 490
90.95362 -0.06837 128.38666 306
87.12010 -0.59883 127.78779 302
86.19131 -0.72762 127.90248 493
86.19128 -0.72851 128.21707 494
85.32603 -0.84534 128.38826 290
91.78833 0.12348 128.11984 489
91.78752 0.12538 128.34595 490
91.00096 0.02128 128.38770 306
91.78157 0.14718 128.35312 492
86.16040 -0.62106 127.88898 493
86.16267 -0.61982 128.20576 493
85.36880 -0.72340 128.38661 290
91.76708 0.19695 128.10187 489
91.76775 0.19780 128.33047 490
91.04908 0.10781 128.38678 306
87.20675 -0.37635 127.78801 302
86.13374 -0.51091 127.87449 492
86.13366 -0.51154 128.19014 493
85.41772 -0.60268 128.38770 290
91.74797 0.27264 128.08485 489
91.74787 0.27128 128.31361 490
91.09418 0.19447 128.38750 306
87.25326 -0.26467 127.78619 302
86.10410 -0.40534 127.85677 492
86.10326 -0.40113 128.17554 493
85.46166 -0.47702 128.38493 290
91.72676 0.34721 128.06474 488
91.72763 0.34670 128.29456 489
91.14513 0.28191 128.38780 306
87.30063 -0.15371 127.78645 302
86.07439 -0.29122 127.84293 492
86.07552 -0.29506 128.16182 493
85.51087 -0.35556 128.38567 290
91.70823 0.42420 128.04610 488
91.70625 0.42350 128.27750 489
91.19252 0.36783 128.38649 306
87.34605 -0.04213 127.78830 302
86.04433 -0.18275 127.82954 492
86.04680 -0.18208 128.14943 493
85.55660 -0.23666 128.38464 290
91.68620 0.50140 128.02838 488
91.68703 0.50121 128.26070 489
91.24177 0.45749 128.38643 306
87.39306 0.06619 127.78676 302
86.01418 -0.06998 127.81146 492
86.01379 -0.07322 128.13333 492
85.60870 -0.11347 128.38602 290
91.66478 0.57949 128.01067 488
91.66695 0.57899 128.24280 489
91.29161 0.54398 128.38745 306
87.44363 0.17808 127.78627 302
86.00856 0.04377 127.80233 479
86.00881 0.04362 128.12520 480
85.65537 0.01064 128.38857 290
91.64520 0.65778 127.99204 487
91.64442 0.65784 128.22578 488
91.34102 0.63092 128.38731 306
87.49036 0.28834 127.78613 302
86.03796 0.16209 127.79864 480
86.03909 0.15881 128.11917 481
85.70650 0.13073 128.38527 290
91.62326 0.73729 127.97296 487
91.62380 0.73709 128.20589 488
91.39186 0.71839 128.38654 306
87.53876 0.40022 127.78757 302
86.07137 0.28108 127.79362 480
86.06895 0.27944 128.11818 481
85.75745 0.25364 128.38734 290
91.60167 0.81638 127.95284 487
91.60182 0.81662 128.19006 488
91.44406 0.80358 128.38531 306
87.59125 0.51275 127.78858 302
86.10372 0.39907 127.78872 481
86.10303 0.39598 128.11484 482
85.81165 0.37557 128.38707 290
91.58022 0.89636 127.93336 487
91.58027 0.89630 128.17006 488
91.49670 0.89110 128.38664 306
90.40823 0.81687 128.38557 302
86.13727 0.51495 127.78611 298
86.13441 0.51760 128.11153 482
85.86173 0.49607 128.38597 290
91.55874 0.97914 127.91401 486
91.55888 0.97917 128.15215 487
91.54849 0.97865 128.38597 306
90.45983 0.90900 128.38757 302
86.18947 0.63790 127.78803 298
86.16750 0.63621 128.10818 483
85.91777 0.61858 128.38503 290
91.53693 1.06008 127.89363 486
91.53690 1.06123 128.13420 487
91.53632 1.06195 128.37088 488
90.51532 1.00236 128.38753 302
86.24267 0.75779 127.78918 298
86.19922 0.75415 128.10042 483
85.97089 0.73950 128.38673 290
91.51574 1.14500 127.87402 486
91.51363 1.14397 128.11484 487
91.51371 1.14615 128.35300 488
90.56888 1.09583 128.38565 302
86.29311 0.87626 127.78934 298
86.22917 0.87400 128.09991 483
86.02738 0.86304 128.38844 290
91.49250 1.22970 127.85252 485
91.49216 1.22817 128.09422 486
91.49109 1.22876 128.33473 487
90.62153 1.18916 128.38628 302
86.34805 0.99728 127.78864 298
86.26283 0.99106 128.09319 484
86.07943 0.98517 128.38481 290
91.47009 1.31445 127.83230 485
91.47040 1.31459 128.07733 486
91.46865 1.31398 128.31807 487
90.67613 1.28229 128.38728 302
86.40377 1.11710 127.78811 298
86.29353 1.11265 128.08813 484
86.13743 1.10436 128.38814 290
91.44580 1.40083 127.81125 485
91.44550 1.40012 128.05739 486
91.44666 1.40091 128.30074 487
90.73325 1.37532 128.38539 302
86.45969 1.23689 127.78786 298
86.38195 1.23341 128.09721 418
86.19289 1.22669 128.38805 290
91.42202 1.48695 127.79019 484
91.42227 1.48566 128.03798 485
91.42221 1.48700 128.28072 486
90.78890 1.46970 128.38606 302
86.51340 1.35361 127.78899 298
86.50370 1.35333 128.10735 419
86.25182 1.34724 128.38510 290
91.39779 1.57378 127.77158 484
91.40010 1.57438 128.01671 485
91.39882 1.57422 128.26399 486
90.84466 1.56355 128.38657 302
86.62461 1.47666 127.79881 419
86.62739 1.47425 128.11903 420
86.30788 1.46965 128.38857 290
91.37595 1.66182 127.74944 484
91.37416 1.66188 127.99890 485
91.37492 1.66181 128.24318 486
90.90337 1.65558 128.38605 302
86.74564 1.59676 127.81012 420
86.74673 1.59410 128.12956 421
86.36784 1.59158 128.38712 290
91.35193 1.75098 127.72644 483
91.35085 1.75319 127.97601 484
91.35326 1.75227 128.22626 485
90.95848 1.74916 128.38730 302
86.86539 1.71169 127.82195 421
86.86311 1.71516 128.14360 422
86.42864 1.71265 128.38443 290
91.26532 1.84130 127.68921 421
91.26445 1.84139 127.94118 421
91.26717 1.84217 128.19165 422
91.01745 1.84056 128.38705 302
89.75661 1.83884 128.38530 298
86.98304 1.83485 128.15155 423
86.48701 1.83078 128.38753 290
