# .PCD v.7 - Point Cloud Data file format
VERSION .7
FIELDS x y z rgb
SIZE 4 4 4 4
TYPE F F F U
COUNT 1 1 1 1
WIDTH 1178
HEIGHT 1
VIEWPOINT 6467.408203 -3624.760010 136.268066 -0.415444 -0.137803 -0.041731 0.898151
POINTS 1178
DATA ascii
-194.88647 1.20008 53.26542 325
-194.89345 2.99415 53.28835 325
-194.95676 4.78819 53.30253 325
-194.89471 6.62724 53.22523 325
-32806.71484 534.47998 2249.55688 1000
-194.92383 8.37939 53.28283 325
-194.88095 10.20679 53.25056 325
-194.83278 11.96819 53.27844 325
-283.19034 59.80325 35.21671 316
-262.51019 58.81371 34.08533 320
-276.99722 61.12983 36.76701 322
-293.05640 63.68301 39.48744 312
-258.54529 60.49512 35.06459 350
-273.05032 62.86678 37.60666 346
-289.02777 65.56610 40.31038 341
-256.66040 62.34266 35.53135 350
-271.11777 64.86506 38.00650 347
-287.12997 67.54514 40.74700 341
-254.82233 64.26994 35.86604 351
-269.17953 66.79916 38.41501 345
-287.62033 70.10583 40.48382 319
-252.83957 66.16113 36.33478 351
-268.06812 68.96194 38.57131 322
-251.04893 68.03394 36.69101 352
-270.05417 71.63784 38.07158 319
-252.14357 70.45997 36.33223 322
-272.20999 74.34071 37.40239 319
-254.12576 73.10830 35.70733 322
-256.14206 75.77437 34.96217 321
-18622.13867 6932.93701 1746.92126 1000
-12515.23828 9588.82031 376.16245 470
-12494.72070 9697.93555 118.04622 455
-12421.32910 9636.60156 374.64044 474
-12396.53418 9740.48633 117.68459 465
-12326.54492 9686.77539 378.37860 475
-12302.91895 9793.51855 119.24685 465
-12233.59863 9739.47266 375.14581 477
-12208.74902 9844.03906 118.43592 466
-12140.55664 9787.40039 372.97437 477
-12117.51270 9892.71875 117.30321 466
-12049.88574 9839.89941 376.06763 478
-12025.76953 9940.24316 117.03252 467
-11959.74609 9886.94434 372.24826 478
-18173.89844 14985.54395 2439.01807 1000
-11931.76562 9992.53516 120.99284 467
-11868.13672 9939.83887 372.28137 479
-11843.27637 10043.90527 119.81897 468
-11778.21777 9988.17578 373.84579 480
-11752.74902 10090.96680 118.09121 468
-11692.81641 10038.06543 373.41333 481
-23627.89453 20459.55664 -7199.13037 1000
-11662.27930 10141.22559 120.41216 469
-11603.04883 10088.15625 373.45044 481
-11571.15918 10186.40430 117.68865 470
-11513.04492 10136.33594 373.15451 482
-11482.71875 10233.53320 119.72709 470
-11425.17578 10184.91699 369.60980 482
-11392.03906 10284.00000 117.71903 471
-11338.84766 10237.03418 371.42996 483
-11305.96094 10331.23535 118.53484 471
-11250.69922 10281.06055 372.11362 483
-11218.35156 10380.12207 119.90136 471
-11164.33887 10332.05273 370.72342 484
-11128.50000 10427.56152 119.81739 472
-11078.53223 10381.24609 369.66223 484
-11044.16895 10473.17480 120.06527 472
-10992.61426 10425.09863 369.79758 487
-10957.48535 10520.90039 122.06104 473
-10909.27441 10474.28613 367.42880 488
-27639.92578 26735.84180 -8881.33789 1000
-10868.72852 10569.59180 121.91688 473
-10822.31934 10524.48828 367.49460 417
-10854.22949 10683.41211 -130.04384 452
-10784.96387 10613.67676 119.28927 474
-10742.53711 10574.78516 368.59937 418
-10768.03125 10732.05859 -128.56517 453
-10698.11133 10660.08301 118.48157 474
-10660.91602 10624.38184 367.93433 418
-10678.66992 10777.04492 -130.47452 453
-10753.46289 10846.83398 135.66325 471
-10576.27441 10675.03125 366.53983 418
-10594.01660 10821.72656 -128.06033 454
-10525.61719 10754.81445 121.21167 475
-10496.33301 10722.66797 367.13266 419
-10508.92090 10867.87305 -127.96709 473
-10439.99121 10796.69141 119.87786 475
-10425.19238 10783.80664 365.27734 300
-10423.22363 10912.84277 -127.42812 473
-10354.47461 10843.26758 119.94833 476
-10352.96582 10841.50195 365.65332 301
-10336.60059 10959.22949 -124.69684 473
-10269.88574 10890.61914 120.20535 476
-11509.12598 12191.38672 393.16418 420
-10249.64062 11003.12500 -128.14236 474
-10187.37305 10934.66504 122.88108 477
-11412.83691 12239.24121 392.30377 420
-10166.55078 11049.70703 -125.80923 474
-10101.71191 10981.65820 120.22559 477
-11314.53809 12288.57520 395.45877 411
-10083.41992 11095.46387 -124.37573 474
-10018.01953 11026.24512 122.44495 477
-11225.82715 12339.53613 392.41089 429
-10000.02539 11140.51758 -126.54102 475
-9937.51953 11071.58594 121.31426 478
-11134.51855 12394.72754 393.41846 429
-9916.02539 11186.67676 -123.63584 475
-9850.27930 11116.86523 122.57938 478
-9829.45312 11231.34375 -123.65456 475
-9768.24707 11160.30762 119.95170 486
-9745.27246 11275.49414 -122.43917 476
-9688.46191 11205.49805 121.15952 486
-9664.21777 11322.31348 -123.40894 476
-9606.24512 11253.30762 120.51875 487
-9581.52734 11361.58887 -123.50068 476
-9521.71387 11296.99902 122.08339 487
-10004.58887 11861.29688 375.31744 483
-9498.24512 11407.84863 -120.43007 478
-9441.17480 11343.00098 119.78507 487
-9906.86914 11895.98340 374.33899 483
-9908.79785 11899.32617 629.71234 483
-9416.66309 11451.57227 -119.90238 478
-9358.86914 11386.72461 121.56654 488
-9813.23730 11929.08594 373.45615 484
-9816.91797 11932.59180 629.57196 484
-9335.01660 11496.81543 -121.30038 479
-9278.75879 11431.66699 120.71161 488
-9296.60547 11451.16211 365.87439 428
-9719.88574 11965.49609 628.47101 484
-9252.25293 11541.94336 -122.64664 479
-9198.18945 11474.84961 121.56087 488
-9212.49121 11491.84375 363.93134 428
-9622.48926 12000.57031 625.74707 485
-9170.95410 11584.50977 -119.65526 479
-9116.34766 11520.23828 122.16467 488
-9130.46582 11535.80078 365.87958 428
-9531.12012 12034.62598 625.16748 485
-9088.26855 11628.63477 -121.15179 479
-9037.77441 11563.59863 124.20635 489
-9050.88477 11580.14746 363.36963 436
-9432.60645 12067.75977 623.67407 486
-9010.01367 11673.89551 -121.17933 480
-8955.48340 11609.03027 120.90049 489
-8973.24121 11626.77051 364.02249 386
-9339.71289 12101.55762 626.00183 486
-8926.54004 11714.93262 -119.07922 480
-8875.36328 11652.98535 122.27793 489
-8896.62109 11676.43555 363.24326 386
-9247.73926 12133.02637 622.72229 487
-8846.09668 11760.90820 -119.94642 480
-8795.18359 11698.06641 121.70850 489
-9149.60645 12162.00977 371.59283 487
-9154.05078 12169.05273 623.74323 487
-8764.68457 11803.59180 -117.93800 480
-8716.76660 11739.47070 122.55565 490
-9064.38770 12205.85645 371.50540 497
-9065.87305 12208.85059 622.34479 497
-8684.26367 11848.78027 -120.30561 481
-8636.99023 11784.39648 122.72157 490
-8981.58789 12247.93164 371.01303 497
-8983.80566 12254.88281 622.66693 497
-8603.47168 11890.07812 -118.29857 481
-8556.02734 11828.34082 123.33648 490
-8897.91309 12295.85742 371.05606 497
-8901.74805 12297.40430 619.89838 497
-8524.54102 11935.41113 -119.93455 481
-8478.97363 11872.53711 124.25183 490
-8813.53418 12340.37598 373.56421 497
-8818.20898 12343.45996 622.28198 497
-8443.32422 11977.57520 -119.49051 481
-8399.18555 11915.56445 123.26581 494
-8719.63379 12367.50000 369.44394 465
-8735.92090 12388.05566 622.61603 497
-8363.36328 12021.61719 -117.09489 481
-8317.87891 11959.16699 125.19733 494
-8614.99121 12377.49023 370.36935 466
-8653.79199 12434.74902 622.18304 498
-8282.52637 12063.80957 -116.52904 481
-8239.10938 12004.37891 123.92965 494
-8567.66016 12477.60840 371.22913 498
-8571.14258 12480.02832 620.85834 417
-8202.05273 12109.86133 -118.22659 482
-8161.09180 12046.52441 121.76794 494
-8488.45117 12521.00195 370.85962 498
-8490.48438 12531.76465 622.00006 417
-8121.66797 12150.00293 -118.19946 482
-8083.15723 12093.51465 123.12692 494
-8370.29199 12520.81934 370.36108 393
-8411.30762 12577.03125 619.22803 417
-8042.50781 12196.42969 -114.97926 482
-8003.20166 12135.48828 124.31696 494
-8284.87207 12559.79980 368.15289 390
-8330.92676 12623.19238 621.99261 417
-7960.99463 12236.65234 -116.24043 482
-7924.55469 12179.08691 124.04935 495
-8202.06738 12599.76855 368.57324 390
-8248.62012 12673.65137 618.30212 417
-7885.81689 12279.83398 -114.56963 482
-7845.49561 12222.31445 122.46854 495
-8119.48340 12643.22363 371.07095 390
-8171.41553 12721.95020 619.46082 417
-8185.81689 12743.33398 872.08899 498
-8291.87402 12904.96094 1132.51038 467
-7805.74365 12323.03613 -116.30325 482
-7767.71094 12266.81934 122.16497 495
-8036.26562 12683.40234 369.64023 390
-8092.68994 12770.15820 620.31152 417
-8104.60107 12791.62207 869.03882 498
-8183.15918 12914.79492 1127.49316 468
-7725.08057 12366.77148 -115.03365 482
-7689.23145 12309.25098 125.86998 495
-7995.35547 12791.08789 372.93631 499
-8008.45459 12818.91797 621.83167 417
-8021.47656 12833.20605 870.61011 498
-8136.87012 13019.89551 1133.52832 381
-7643.42725 12409.41992 -116.17580 483
-7611.51514 12353.50684 122.83694 495
-7895.81006 12809.66504 369.59146 450
-7903.50635 12820.24512 617.38995 449
-7909.75537 12830.84473 866.17413 449
-7565.74316 12449.75293 -113.05745 483
-7531.97119 12397.13379 123.65349 495
-7780.66260 12802.73535 369.56290 451
-7786.54053 12808.68262 615.75787 450
-7792.02686 12818.93555 864.81049 450
-7485.52002 12493.14844 -114.96023 483
-7454.64648 12438.39551 125.19751 495
-7664.55664 12791.61230 366.91711 451
-7672.35303 12803.27539 616.05151 451
-7678.06494 12810.82129 858.30939 451
-7408.33008 12538.57617 -115.98248 483
-7377.46826 12482.66113 122.79639 495
-7554.36963 12787.08789 368.68069 499
-7562.31445 12791.08887 611.98383 452
-7567.13135 12801.26270 857.42938 452
-7327.61963 12577.67188 -115.10696 483
-7296.60596 12528.70117 125.27351 495
-7476.33105 12831.49316 368.86752 499
-7480.80420 12833.79004 610.36365 499
-7480.81299 12839.58301 854.93243 499
-7582.00732 13011.21387 1114.75769 445
-7589.77490 13018.66504 1364.03589 445
-1639.85339 2980.08545 -323.47754 1000
-7250.73047 12622.10059 -113.18964 483
-7218.82568 12567.67773 124.96065 495
-7396.42139 12872.26953 368.23187 499
-7383.92383 12853.72559 612.98138 499
-7399.16211 12882.33301 854.84656 499
-7538.11084 13121.99609 1120.50439 453
-7169.53955 12665.80371 -114.20270 483
-7138.67529 12613.09473 124.34615 495
-7313.60303 12918.38770 368.55862 499
-7303.65479 12896.84570 608.83392 499
-7319.87842 12928.07031 854.50787 499
-7459.89355 13167.95312 1119.53601 453
-7506.81836 13248.91406 1375.36353 485
-7729.80078 13638.44238 1672.20776 394
-7730.81689 13642.06934 1933.00537 489
-7091.26855 12710.23535 -113.57409 483
-7061.78516 12654.44824 126.20242 498
-7233.08203 12963.08594 368.59238 499
-7223.12061 12939.12695 611.96448 499
-7238.77686 12968.95801 858.41541 499
-7377.56055 13217.27832 1121.13953 453
-7421.67334 13295.61719 1374.34631 485
-7013.93701 12750.71875 -112.65741 483
-6986.17725 12700.76270 122.82961 498
-7155.41699 13004.35938 366.16238 499
-7141.59326 12985.68555 610.01410 499
-7157.16797 13013.92480 854.61322 499
-7296.93311 13262.69629 1117.48572 471
-7342.10938 13342.34375 1374.21558 485
-6931.17627 12792.36133 -113.08857 483
-6906.18262 12744.03320 125.96365 498
-7074.18066 13048.45996 369.92093 499
-7063.77588 13029.57715 610.04980 499
-7079.37061 13060.20801 858.25421 499
-7215.25195 13309.03027 1118.59851 471
-7259.57129 13387.43652 1376.85120 485
-6854.60400 12837.21289 -113.48550 483
-6827.49023 12786.00977 125.71616 498
-6992.65332 13095.45898 367.94208 499
-6983.76465 13071.61230 613.17218 499
-6997.76416 13104.00684 854.97498 499
-7134.11182 13355.43359 1120.12988 471
-7176.35352 13433.10938 1377.88855 485
-6773.77930 12877.31738 -112.94196 483
-6751.94287 12832.12988 125.72245 498
-6914.42188 13140.42090 369.82184 499
-6903.15430 13117.57031 610.96082 499
-6916.73535 13146.54785 856.87457 499
-7052.18262 13397.54883 1119.38867 471
-6696.62842 12921.69434 -113.87697 483
-6671.38916 12874.95996 126.55514 498
-6833.78125 13182.81250 366.39645 499
-6822.31250 13159.87891 609.96454 499
-6838.69092 13192.18066 857.71033 499
-6971.56982 13443.60840 1117.83484 471
-6618.49902 12964.13867 -115.55709 491
-6591.63623 12919.67969 125.74330 498
-6752.65381 13224.94238 369.03189 499
-6757.08008 13229.82520 612.99963 499
-6649.40771 13023.97656 845.62231 358
-6888.82080 13488.64844 1120.92175 472
-6539.83301 13006.32910 -112.90301 491
-6515.82812 12963.87305 124.89878 498
-6671.90283 13269.29883 369.58859 499
-6674.54688 13272.51562 614.85284 499
-6524.17969 12980.82422 840.79358 499
-6807.05029 13535.13965 1121.98242 472
-6458.33447 13049.78613 -115.52125 491
-6437.45898 13004.86426 124.31842 498
-6589.68164 13314.92480 370.01056 499
-6551.16895 13229.44238 608.05975 290
-6444.13037 13022.12793 841.38281 499
-6726.65283 13583.55273 1120.91028 472
-6379.19385 13093.22949 -115.16328 491
-6357.16650 13050.22266 127.06274 497
-6512.45752 13357.40332 367.05194 499
-6415.01465 13167.82129 607.05804 371
-6366.77539 13065.49414 840.83221 499
-6643.76270 13628.93262 1122.89368 472
-6339.36768 13214.80664 -357.45016 480
-6302.73633 13138.46484 -112.49078 491
-6279.89062 13092.92090 126.31255 497
-6430.15332 13401.54199 369.23007 499
-6432.75439 13407.14453 613.52557 499
-6288.46582 13107.27734 841.50018 499
-6566.96240 13675.34082 1122.26379 471
-6262.04053 13259.47656 -355.07864 480
-6224.25439 13181.02539 -114.68775 491
-6202.43408 13136.48340 126.18938 497
-6349.87354 13446.62207 370.29074 499
-6350.84082 13451.44922 613.15796 499
-6208.70947 13153.92188 840.58051 499
-6480.40283 13723.08789 1121.97522 467
-6180.67529 13304.48340 -357.33011 480
-6146.29883 13224.72656 -111.97170 491
-6122.22021 13182.19336 123.70452 497
-6271.70459 13490.04492 368.25113 499
-6270.78564 13493.79492 612.59753 499
-6200.49219 13341.75977 851.01257 337
-6401.52490 13768.00391 1123.30371 467
-6102.04395 13345.28418 -354.28116 480
-6063.27393 13268.19238 -115.03686 490
-6045.05469 13223.54785 126.99646 497
-6211.81201 13586.27734 372.57251 452
-6211.41943 13584.01953 614.03644 452
-6229.46533 13621.85547 864.06274 448
-6330.19141 13842.09570 1123.59253 454
-6021.69580 13389.02539 -357.40134 479
-5984.40039 13311.99023 -112.88702 490
-5966.33105 13268.36133 124.16305 497
-6146.35596 13664.50684 369.86508 473
-6157.05371 13682.83594 619.86816 451
-6175.54150 13723.58691 867.95386 447
-6266.13965 13924.18750 1130.19543 453
-5941.05273 13431.00684 -357.67728 479
-5907.97168 13355.56641 -114.06921 490
-5887.43604 13311.20605 123.86332 497
-6079.11377 13740.04199 372.50192 472
-6101.01367 13787.63281 621.16583 450
-6119.14160 13829.15918 871.60974 445
-5862.05127 13474.68848 -357.79639 479
-5828.18994 13400.91504 -114.26095 490
-5807.17383 13357.64941 123.82629 497
-6012.10156 13815.87793 374.65085 472
-6035.67480 13866.75586 621.06573 471
-5782.98682 13516.91309 -355.77902 479
-5747.54834 13441.99707 -115.03453 490
-5732.89551 13400.58105 125.64647 497
-5946.31982 13893.38672 371.83112 471
-5967.07617 13947.18945 623.57367 470
-5702.23682 13562.58301 -356.33142 479
-5669.29004 13488.28613 -115.90444 490
-5653.50439 13446.23145 125.66964 497
-5878.95020 13970.50977 372.32547 470
-5620.91553 13604.67578 -357.91147 479
-5588.98193 13531.21094 -114.95794 490
-5574.72168 13497.19238 125.18251 377
-5836.72754 14123.63477 376.58350 443
-5539.97559 13648.41602 -356.36774 479
-5511.28369 13572.46094 -112.60859 490
-5498.59326 13548.00586 126.51951 376
-5462.43115 13691.37695 -355.59360 479
-5431.51904 13616.35547 -112.95994 489
-5418.09521 13586.08789 126.95287 445
-5378.10986 13735.04199 -358.72354 478
-5349.77734 13661.00391 -115.74137 489
-5337.52588 13632.35254 125.46677 445
-5300.51367 13779.78809 -357.10043 478
-5271.19824 13706.62695 -113.46396 489
-5258.96191 13675.44922 127.34760 444
-5220.43506 13821.69824 -359.62585 478
-5192.92285 13749.59570 -113.28925 489
-5177.90479 13716.08691 127.69702 444
-5134.71045 13866.47656 -357.20450 478
-5109.63965 13795.46973 -116.24586 489
-5099.33594 13761.31152 126.63988 423
-5057.71387 13911.76367 -357.27267 478
-5029.52930 13840.49316 -116.25109 488
-5019.82324 13808.82324 124.70207 302
-4976.93848 13953.80664 -360.01794 477
-4949.09521 13884.70020 -115.08220 488
-4947.32520 13873.10254 126.26074 296
-4892.66699 13997.16211 -357.74707 477
-4870.00928 13929.20605 -115.15230 488
-4871.51514 13938.44629 127.68507 296
-4812.12598 14042.02637 -360.80231 477
-4786.07812 13971.67383 -116.42101 488
-4730.28174 14086.71484 -362.38950 477
-4706.73193 14018.14258 -115.35866 487
-5224.58154 15526.49023 124.35772 422
-4651.05615 14130.77344 -362.05795 477
-4627.32324 14059.38086 -114.29121 487
-5132.17969 15571.96777 127.39099 422
-4566.30811 14173.93066 -360.03995 476
-4546.39404 14107.04883 -115.39256 487
-5043.87695 15615.20312 126.34225 418
-4485.41016 14222.62793 -360.17822 476
-4462.79834 14149.88965 -116.97482 487
-4950.03271 15667.42578 126.65888 418
-4401.74365 14264.28711 -361.08032 476
-4380.97705 14195.57422 -117.26368 486
-4860.00195 15720.69238 124.88882 413
-4322.20459 14307.68750 -364.61829 476
-4301.99414 14240.85449 -117.83768 486
-4235.84766 14353.28906 -363.27444 475
-4218.12109 14286.27441 -115.37772 486
-4156.86230 14398.15234 -365.99564 475
-4133.66992 14331.83203 -117.67444 485
-4072.01147 14445.46484 -365.10199 475
-4051.57397 14377.36816 -119.42786 485
-3988.21606 14490.62695 -366.67880 474
-3970.82861 14423.61719 -119.72870 485
-3906.41626 14534.80957 -365.32297 474
-3887.20996 14466.18555 -120.03776 484
-3895.53491 14498.30078 127.41470 426
-3823.43262 14580.17676 -368.55112 474
-3802.44189 14515.26855 -119.69748 484
-3811.70923 14540.13672 125.77426 425
-3738.48999 14626.47168 -365.40903 473
-3719.70654 14559.84375 -118.27143 484
-3725.39014 14584.98535 127.12009 425
-3654.73853 14671.20703 -368.25232 473
-3638.23511 14607.71582 -118.89017 483
-3643.98389 14632.25781 127.60849 394
-3568.89673 14715.78320 -369.33997 474
-3552.85962 14653.39844 -118.39455 486
-3562.25928 14691.58789 127.61987 394
-3482.98828 14765.56836 -369.89389 474
-3469.45483 14698.92188 -118.28648 486
-3400.43945 14809.67188 -371.38330 473
-3385.24609 14746.20605 -119.62421 488
-3313.00806 14854.42871 -369.95441 473
-3300.39478 14794.73633 -120.38363 487
-3225.52979 14903.30078 -373.51910 480
-3213.68652 14841.06641 -119.98296 487
-3142.90430 14953.16016 -372.35962 480
-3129.15527 14890.03613 -122.31586 486
-3054.29443 14999.58105 -375.85486 479
-3042.14648 14937.01660 -122.32625 486
-2971.34131 15047.96191 -374.35287 458
-2957.00879 14989.05957 -121.85355 486
-2885.36621 15111.78516 -376.16391 459
-2872.66943 15034.08887 -120.64356 485
-2801.89697 15172.54883 -377.28430 458
-2783.91992 15087.10547 -121.72547 482
-2714.18481 15237.22168 -378.28104 457
-2697.37427 15136.87695 -123.48820 481
-2632.74390 15301.52930 -380.21213 457
-2612.09521 15200.24805 -124.42245 463
-2543.80005 15364.37891 -380.47656 456
-2529.27637 15262.00879 -126.36168 462
-2459.26709 15428.94629 -382.94449 455
-2440.06006 15325.64062 -124.68697 462
-2368.95874 15494.54688 -383.80405 455
-2351.92603 15390.26953 -125.26076 461
-2283.98315 15564.44922 -386.62378 411
-2265.74805 15456.91309 -126.72183 460
-2201.59277 15661.64648 -387.82870 410
-2177.17041 15521.98926 -128.73218 460
-2116.95728 15757.35254 -389.99335 410
-2093.32788 15594.79785 -128.69505 459
-8746.69434 63072.13672 14967.32520 1000
-2028.22498 15865.01855 -397.01358 387
-2007.20203 15668.64062 -130.65540 458
-1945.94055 15975.51172 -397.87979 386
-1913.19983 15743.83203 -130.04886 457
-1858.73376 16098.68848 -401.39844 359
-1829.05127 15837.51660 -134.03883 400
-1775.87732 16247.25879 -405.64133 358
-1741.35364 15937.92188 -131.65892 399
-1655.24756 16040.62402 -134.83228 398
-1565.75598 16148.55371 -134.75552 396
-1479.10657 16290.22559 -138.17039 359
-1390.20154 16440.49414 -143.35007 358
-64.11656 1846.08838 -50.76691 457
-64.68934 1853.07971 -20.58606 404
-1303.32556 16635.17578 -145.78619 307
-52.37611 1844.55933 -50.56469 499
-52.77695 1850.24951 -20.41674 498
-53.18236 1855.31580 10.01148 498
-41.32740 1852.31824 -50.85606 387
3102.34497 25106.62109 -6203.60547 1000
27993.95117 34146.94922 5233.88232 1000
1746.25122 1937.19983 -75.42896 393
1758.58655 1951.60022 -34.64329 366
1749.13965 1916.69250 -73.75084 447
1764.78564 1934.47864 -33.98064 326
1786.59485 1936.13354 -119.88648 414
1753.03027 1897.71936 -72.74400 448
1816.69128 1969.72876 -37.43453 321
1789.89868 1914.95740 -118.26769 415
1756.95959 1878.57556 -71.86852 449
1787.15857 1888.98083 -116.59666 391
1762.42834 1861.73120 -71.37038 471
1791.95068 1870.57996 -115.59763 464
1769.23035 1845.74634 -70.99916 475
1797.84473 1854.28821 -114.24267 465
1775.83960 1830.56763 -70.12335 476
1803.50647 1837.61963 -113.98971 465
1782.53357 1815.01868 -69.60358 477
1810.11157 1821.41248 -113.09550 482
1790.37207 1801.40686 -69.32982 487
1817.70068 1806.81482 -112.63577 482
1798.42053 1787.23779 -68.57993 487
1825.26770 1793.34021 -111.86306 482
1806.49133 1773.47205 -68.27628 487
1833.35681 1778.64172 -111.77740 483
1814.34949 1759.90247 -68.30701 488
1841.00952 1765.39514 -111.31422 481
1823.11353 1746.57019 -67.65054 464
1849.37512 1751.95264 -110.59598 484
1831.56909 1734.31653 -67.48959 464
1857.89221 1737.98315 -110.39700 484
1840.93298 1721.87720 -67.78088 464
1864.38147 1723.92029 -109.81095 329
1849.99731 1709.45459 -66.97903 464
1871.24744 1708.40222 -109.29213 330
1858.88184 1697.42224 -66.90684 464
1911.68701 1747.56458 -31.35762 499
1877.62195 1693.55103 -108.91234 330
1867.69556 1684.74597 -67.12460 464
1922.00330 1735.99670 -31.44923 499
1884.93115 1680.35828 -108.44201 332
1877.05627 1672.59924 -66.67365 466
1932.95300 1725.02161 -31.63369 499
1893.28894 1666.90405 -107.91731 333
1886.80933 1660.60852 -67.04886 466
1939.99805 1709.59534 -31.40858 499
1901.94055 1654.10486 -107.97742 333
1896.21875 1648.93066 -66.69616 466
1909.94543 1641.43445 -107.75425 333
1905.98352 1637.78748 -66.88291 466
1919.37195 1629.24438 -107.44425 334
1915.86829 1625.84924 -66.90302 466
1928.04285 1616.74927 -106.99640 334
1925.71228 1615.03723 -66.36144 466
1937.10229 1604.59338 -106.97218 333
1935.70691 1603.68530 -66.58724 466
2001.66699 1660.37830 -31.64469 357
1948.30408 1594.37683 -107.07564 333
1946.29333 1592.36340 -66.61890 466
2008.98804 1646.47266 -31.55293 439
1959.54529 1583.36328 -107.56458 333
1956.61682 1580.96179 -66.86279 466
2017.73840 1632.78821 -31.52405 499
2063.67920 1671.85803 7.18903 499
1970.96460 1573.31079 -107.42770 333
1966.99805 1570.43298 -66.50223 466
1981.99133 1562.97131 -107.53448 333
1976.82642 1558.98206 -66.90744 465
1992.80701 1552.37183 -107.98386 333
1987.50610 1548.03540 -66.99929 465
2004.44470 1542.04053 -108.62401 333
1997.35596 1536.40637 -66.80962 465
2015.33643 1531.30872 -108.76817 333
2007.79248 1525.34912 -66.83293 465
2026.96277 1521.35693 -108.52829 333
2017.92896 1513.95935 -67.24722 465
2093.11646 1573.49170 -32.97486 498
2038.62610 1510.71570 -109.02178 333
2028.23901 1502.65625 -66.98256 465
2066.39844 1532.23523 -29.65862 498
2049.66992 1500.34766 -109.16436 333
2038.44666 1491.42114 -67.47820 465
2077.28564 1521.17957 -30.04795 498
2181.20215 1601.11353 0.94889 388
2061.11694 1490.07190 -109.31727 333
2048.87085 1480.47607 -67.10717 465
2072.52832 1479.43274 -109.89008 333
2059.41797 1469.38989 -67.83178 465
2083.89209 1468.88428 -110.10691 332
2069.39673 1458.18604 -67.60188 464
2095.85181 1458.42041 -110.63016 332
2079.52856 1446.74463 -68.05841 464
2223.89355 1551.66199 91.25378 274
2244.52783 1566.15491 134.17810 497
2246.42456 1567.60266 178.02284 400
2107.18652 1447.91833 -111.04069 332
2089.48389 1435.36621 -68.22670 464
2145.14917 1475.22632 -31.49349 336
2119.06128 1436.88245 -110.81058 332
2100.20752 1424.22913 -68.21848 464
2131.09033 1426.99719 -111.16411 458
2110.55859 1412.45984 -68.18745 464
2141.98364 1415.92749 -111.98208 457
2120.73730 1401.21216 -68.19446 464
23437.02734 16060.28809 5310.43408 1000
2152.85522 1404.76294 -111.67274 457
2131.33105 1389.71667 -68.70808 464
2164.43359 1393.38733 -112.16355 457
2141.77515 1378.24890 -68.47989 463
2174.88135 1382.16504 -112.43772 457
2152.14746 1366.94360 -68.92362 463
2186.53589 1371.09595 -112.96098 456
2162.22095 1355.50073 -69.14094 463
2197.00342 1359.99939 -112.82207 456
2172.80151 1343.78979 -69.19158 492
2208.28833 1348.53955 -113.70260 456
2183.81836 1332.69727 -69.64767 492
2219.53223 1337.43164 -113.91043 456
2194.40039 1321.11731 -69.50361 492
5853.97949 3612.97461 1725.06482 1000
2204.79614 1309.72510 -69.79819 492
2328.49634 1385.92871 -38.77126 494
2215.71094 1298.41516 -70.37603 491
2226.06982 1287.26575 -70.56211 491
2237.04150 1275.06567 -71.01602 491
2247.96509 1263.87903 -70.83612 490
2261.35107 1254.08032 -71.81567 463
2276.57446 1244.91931 -72.56591 463
2292.39209 1236.10022 -73.31714 462
2307.83203 1226.59570 -73.47514 461
2324.13232 1217.37341 -74.83390 433
62991.85938 7730.59961 4326.20557 1000
2120.02026 99.08781 -33.41200 467
2125.63745 99.64948 -0.29976 468
2133.93506 100.07091 33.02060 353
2117.91162 86.36250 -32.89820 496
2125.16235 86.68504 -0.25999 468
4826.74023 -1070.29272 -24.33306 401
4828.61865 -1101.55872 -24.48316 436
4837.94141 -1134.35376 -25.95335 441
4849.83008 -1167.60925 -25.85866 436
4863.07324 -1203.31116 -26.23012 442
4876.36621 -1237.40039 -27.09370 435
4891.34961 -1273.23572 -27.80572 424
4916.84033 -1311.25671 -29.78718 411
4952.30176 -1353.35706 -30.63164 355
5007.01611 -1401.44714 -33.08369 337
5069.05615 -1452.65796 -35.46099 344
5130.00439 -1503.34351 -37.25817 343
5196.04834 -1557.55811 -41.08286 341
5262.93115 -1612.35889 -43.57952 350
3414.76221 -1336.14722 16.27324 497
4033.76489 -2308.26050 58.71088 445
4674.00830 -3076.44092 43.50184 361
4637.10303 -3092.18945 43.13451 406
4601.78174 -3109.95117 43.69659 448
4569.36377 -3128.29614 43.30494 457
15001.62988 -10557.77051 -1965.75928 1000
4538.67871 -3147.62354 44.53310 479
4508.97949 -3167.22974 43.99828 483
4479.68115 -3186.83203 43.79576 486
4579.27881 -3258.97437 223.64072 279
4452.54834 -3207.98706 44.03521 486
4471.43652 -3221.97729 222.48904 427
4425.04492 -3230.52026 44.40369 491
4518.43164 -3300.03003 133.60439 299
4447.30566 -3246.53516 222.10449 427
4400.04883 -3251.96777 45.23441 492
4430.99854 -3274.98828 133.30031 498
4424.71875 -3270.54517 221.86172 427
4374.40381 -3275.31006 44.63606 495
4409.61768 -3300.71191 133.29675 499
4400.78174 -3294.76611 221.23961 464
10553.42480 -8105.07324 -3411.10986 1000
4350.81250 -3298.31787 45.67114 495
4381.74023 -3322.00464 132.58788 499
4378.60156 -3320.65845 221.20000 465
4327.32812 -3321.91064 44.88046 496
4359.28320 -3347.69434 132.57411 499
4357.19824 -3345.09082 221.80312 499
4304.83691 -3347.06909 45.67172 497
4337.79639 -3371.90454 132.68022 499
4335.68115 -3370.10986 221.32071 499
4282.45312 -3371.29810 45.07746 497
4318.59424 -3399.89209 133.27916 499
4312.76660 -3395.45801 220.97084 499
4260.73926 -3395.99561 45.66936 497
4295.75537 -3424.80811 133.52585 499
4294.56738 -3423.18579 221.90242 499
4239.25635 -3419.95801 45.45262 497
4273.68799 -3449.30688 133.16553 499
4272.46289 -3448.34180 220.85287 499
4332.10156 -3498.16992 312.53839 460
4217.06055 -3444.53955 45.34301 497
4251.08252 -3473.54980 132.62158 499
4250.13770 -3473.72119 221.27797 499
4320.58057 -3532.36914 313.62064 360
4194.69531 -3469.85156 44.49504 497
4172.39746 -3493.36377 44.81295 497
4308.54053 -3610.18848 315.03168 465
4150.45801 -3519.36035 44.89904 477
4264.63184 -3617.54248 313.99380 298
4128.56689 -3544.39673 44.77687 477
4106.80518 -3567.39771 45.60242 477
4084.53687 -3592.72168 45.58061 477
4063.00854 -3617.72559 44.23863 477
4041.69263 -3642.10986 44.41801 440
4020.15063 -3669.00610 44.39333 445
4056.48853 -3702.49048 133.15665 499
3999.64844 -3693.22437 44.59314 445
4033.76245 -3725.75830 132.04153 499
3979.87183 -3720.70825 45.06538 351
4000.20825 -3739.58374 132.63176 489
4016.12231 -3802.79346 132.72081 488
3988.53613 -3821.86475 131.98015 493
2740.77026 -3284.82568 63.40918 467
2746.14478 -3292.55615 132.74593 467
2725.62207 -3308.34766 62.58907 271
2006.78552 -2843.58862 76.06234 331
1959.28369 -2809.31934 77.00361 333
1938.94312 -2778.46118 131.66370 340
1913.34961 -2776.05127 77.64635 336
1893.48914 -2746.79614 131.88968 341
1869.09131 -2746.68994 78.67780 342
1849.36487 -2715.56128 131.90410 343
1827.78381 -2718.32422 79.51149 344
1806.41467 -2684.68872 131.83597 344
1787.17896 -2690.73633 79.56755 336
1764.70715 -2655.14282 132.33839 345
1748.38672 -2664.27344 80.59113 337
1724.88635 -2626.52979 131.52524 347
1709.03186 -2638.03149 81.64735 333
1685.79578 -2598.75977 132.01028 348
1671.59839 -2612.93628 82.00282 334
1650.93994 -2578.46631 131.65259 384
1656.99866 -2587.48462 181.65048 386
1636.99841 -2590.47461 82.76898 362
1621.49512 -2565.67285 131.57111 403
1629.31750 -2577.96875 181.10063 478
1608.72876 -2578.28149 83.06728 373
1595.71716 -2556.06177 131.91515 411
1610.36853 -2581.84521 181.13107 478
1581.65161 -2568.63208 83.17702 377
1568.94495 -2547.56250 131.84848 424
1596.52771 -2593.97681 181.05350 455
1563.47241 -2552.79980 82.71945 382
1551.76733 -2532.33496 130.89607 431
1591.52747 -2600.91431 180.07431 454
1538.96021 -2545.40381 83.59737 382
1528.09485 -2526.45898 131.25504 445
1579.74304 -2618.00562 180.42322 454
1514.76367 -2540.06982 83.77434 389
1505.38721 -2522.62085 130.74393 441
1567.40125 -2634.36304 180.15187 453
1492.07349 -2536.02856 83.66900 401
1483.28992 -2520.37964 131.10562 441
1555.70569 -2650.84497 180.31058 452
1470.07202 -2532.52271 83.58209 410
1461.56689 -2517.61572 130.83739 442
1544.05469 -2667.94116 180.58009 452
1448.35168 -2529.44946 83.92051 413
1440.54309 -2514.99023 131.39114 436
1531.38123 -2684.91919 180.99586 451
1426.52283 -2525.57471 84.69686 408
1419.58240 -2512.76465 130.72385 441
1519.48340 -2701.28394 181.29860 451
1409.49854 -2531.12427 84.16938 294
1399.09607 -2511.80444 130.69521 443
1507.53796 -2718.93433 181.27039 450
1400.62634 -2551.14624 84.26741 294
1379.46631 -2510.45068 130.74121 443
1497.65613 -2741.81641 181.69128 315
1390.51099 -2571.56909 83.73483 294
1359.11548 -2510.01050 130.99986 444
1356.10791 -2542.33008 130.83008 271
11431.83887 -23844.10547 -2481.80469 1000
3083.75293 -28250.19531 -3630.66675 1000
1325.96545 -19756.57812 -1181.34546 1000
-3706.65796 -24642.73242 -3172.34277 1000
-446.95618 -3013.67505 129.45496 480
-446.76898 -3011.16382 179.49730 499
-446.75684 -3008.36597 229.65993 499
-445.87036 -3005.82593 279.49991 492
-445.91165 -3003.32568 329.63571 492
-11691.93457 -51006.25391 13198.11328 1000
-481.04877 -2298.99634 285.24747 323
-480.18158 -2295.49707 324.29718 394
-497.34265 -2303.03662 130.19777 329
-5205.92188 -14802.95312 118.99638 1000
-513.23499 -1576.92407 241.50925 355
-511.85056 -1573.51331 268.92371 355
-511.17020 -1571.13330 296.74081 420
-525.97284 -1580.89062 74.86507 496
-525.13989 -1578.71936 102.82405 497
-524.64703 -1576.82520 130.42819 475
-523.79303 -1575.30774 158.50404 475
-523.28424 -1573.67419 185.82486 475
-522.44690 -1572.28259 213.52274 432
-522.38916 -1570.80884 241.39662 432
-521.46063 -1569.72913 269.21112 370
-521.40967 -1569.07605 296.84503 370
-18483.22852 -40503.46094 2285.51123 1000
-18260.24805 -40013.73047 7364.34766 1000
-26354.49609 -57656.42578 12697.39453 1000
93.22095 -5.49082 131.75742 1000
-29841.85742 -39756.27734 912.17987 1000
-3865.00854 -3406.21362 -1000.31622 1000
-14859.27441 -9553.19238 -3709.98804 1000
90.07784 -3.02871 127.86306 353
90.07764 -3.02889 128.11200 354
90.07687 -3.02971 128.35782 354
90.19748 -2.91091 127.88925 355
90.19612 -2.91085 128.13324 355
90.19659 -2.91214 128.37682 356
89.17940 -3.26300 128.38651 302
90.31194 -2.79439 127.91084 356
90.31243 -2.79457 128.15623 357
90.26626 -2.81114 128.38538 306
89.21326 -3.16929 128.38783 302
90.42690 -2.68166 127.93520 357
90.42736 -2.68054 128.17744 358
90.30292 -2.72185 128.38620 306
89.24657 -3.07483 128.38609 302
90.53988 -2.56965 127.95570 359
90.54134 -2.56794 128.19852 359
90.33797 -2.63327 128.38686 306
89.28076 -2.98111 128.38722 302
88.05139 -3.38388 128.38525 298
90.65056 -2.45645 127.97814 360
90.64983 -2.45855 128.21782 361
90.37505 -2.54699 128.38626 306
89.31648 -2.88572 128.38782 302
88.08589 -3.27880 128.38597 298
-22654.22461 -7286.00684 3671.18237 1000
90.75995 -2.34718 127.99830 361
90.76018 -2.34787 128.23582 362
90.41164 -2.45584 128.38612 306
89.35121 -2.78834 128.38741 302
88.11749 -3.17553 128.38748 298
90.86664 -2.23937 128.01836 363
90.86776 -2.24044 128.25452 363
90.44817 -2.36925 128.38530 306
89.38759 -2.69317 128.38754 302
88.15354 -3.07191 128.38545 298
90.97305 -2.13595 128.03763 364
90.97461 -2.13464 128.27098 364
90.48800 -2.27925 128.38751 306
89.42562 -2.59966 128.38583 302
88.18826 -2.96914 128.38522 298
91.07801 -2.03114 128.05672 365
91.07774 -2.02840 128.29033 366
90.52538 -2.19233 128.38774 306
89.46352 -2.50325 128.38518 302
88.22604 -2.86585 128.38663 298
91.18183 -1.92707 128.07422 367
91.18076 -1.92782 128.30719 367
90.56497 -2.10422 128.38745 306
89.50113 -2.40695 128.38763 302
88.26194 -2.76397 128.38727 298
91.28372 -1.82485 128.09050 368
91.28331 -1.82594 128.32231 368
90.60390 -2.01478 128.38593 306
89.53952 -2.31327 128.38637 302
88.30087 -2.66080 128.38718 298
86.83647 -3.06914 128.38620 294
91.35819 -1.73125 128.10188 458
91.35728 -1.73287 128.33151 459
90.64405 -1.92658 128.38588 306
89.57993 -2.21747 128.38731 302
88.33621 -2.55606 128.38814 298
86.87265 -2.95575 128.38487 294
91.37787 -1.65247 128.09624 459
91.37662 -1.65299 128.32527 460
90.68583 -1.83694 128.38585 306
89.61695 -2.12259 128.38687 302
88.37601 -2.45283 128.38623 298
86.91031 -2.84487 128.38754 294
91.39833 -1.57516 128.08873 459
91.39987 -1.57440 128.32082 460
90.72686 -1.75032 128.38551 306
89.65900 -2.02540 128.38612 302
88.41572 -2.34982 128.38585 298
86.94706 -2.73220 128.38744 294
91.42019 -1.49615 128.08539 460
91.41894 -1.49553 128.31421 461
90.76918 -1.65992 128.38669 306
89.69906 -1.93214 128.38635 302
88.26015 -2.29707 128.34760 369
86.98860 -2.61923 128.38484 294
91.44215 -1.41688 128.07799 461
91.44156 -1.41647 128.30957 462
90.81223 -1.57138 128.38554 306
89.74292 -1.83641 128.38637 302
88.07490 -2.24777 128.30003 368
87.02574 -2.50671 128.38672 294
91.46207 -1.33653 128.07126 462
91.46268 -1.33772 128.30225 463
90.85516 -1.48391 128.38725 306
89.78407 -1.74222 128.38806 302
87.88537 -2.19598 128.25436 367
87.06725 -2.39323 128.38531 294
91.48386 -1.25845 128.06671 462
91.48268 -1.25724 128.29887 463
90.89706 -1.39453 128.38782 306
89.82708 -1.64654 128.38661 302
87.69323 -2.14577 128.20628 365
87.10825 -2.28311 128.38542 294
91.50417 -1.17757 128.06010 463
91.50481 -1.17878 128.29120 464
90.94272 -1.30519 128.38531 306
87.49232 -2.09157 127.85787 364
87.49324 -2.09096 128.15588 364
87.14835 -2.16868 128.38507 294
91.52673 -1.09974 128.05408 464
91.52555 -1.09820 128.28690 465
90.98691 -1.21821 128.38605 306
87.28282 -2.03691 127.80543 362
87.28316 -2.03484 128.10396 363
87.19178 -2.05825 128.38496 294
91.54813 -1.01768 128.04898 464
91.54704 -1.01862 128.28090 465
91.03156 -1.12959 128.38611 306
87.24769 -1.93938 127.78758 302
87.11948 -1.96923 128.06262 455
87.11842 -1.96718 128.36488 456
91.56993 -0.93931 128.04079 465
91.57056 -0.93766 128.27444 466
91.07822 -1.04065 128.38692 306
87.28835 -1.82860 127.78722 302
87.03067 -1.88288 128.03722 455
87.03411 -1.88238 128.34232 455
-12852.59570 -2695.96704 563.10687 1000
91.59047 -0.85847 128.03401 466
91.59006 -0.85755 128.26822 467
91.12366 -0.95306 128.38550 306
87.33080 -1.71725 127.78584 302
86.94446 -1.79660 128.00905 454
86.94448 -1.79548 128.31577 454
91.61337 -0.77703 128.02837 466
91.61336 -0.77664 128.26202 467
91.16985 -0.86434 128.38751 306
87.37522 -1.60618 127.78899 302
86.85696 -1.70598 127.98405 453
86.85696 -1.70482 128.29341 454
85.59859 -1.95229 128.38483 290
91.63440 -0.69677 128.02121 467
91.63525 -0.69558 128.25523 468
91.21743 -0.77519 128.38675 306
87.41895 -1.49201 127.78801 302
86.76680 -1.61707 127.95589 452
86.76608 -1.61420 128.26732 453
85.64626 -1.82614 128.38733 290
91.65574 -0.61617 128.01370 468
91.65534 -0.61491 128.24823 469
91.26530 -0.68542 128.38524 306
87.46354 -1.38319 127.78920 302
86.67407 -1.52460 127.92899 451
86.67608 -1.52717 128.24306 452
85.69147 -1.70697 128.38631 290
91.67892 -0.53455 128.00851 468
91.67850 -0.53355 128.24097 469
91.31291 -0.59784 128.38712 306
87.50886 -1.26835 127.78592 302
86.58168 -1.43050 127.89912 450
86.58381 -1.43142 128.21391 451
85.73602 -1.58118 128.38556 290
91.69968 -0.45390 127.99931 469
91.69990 -0.45222 128.23405 470
91.36448 -0.50976 128.38750 306
87.55386 -1.15696 127.78822 302
86.48817 -1.34026 127.87166 449
86.48910 -1.33793 128.19037 450
85.78488 -1.45872 128.38654 290
91.72181 -0.37143 127.99285 470
91.72176 -0.37054 128.22691 471
91.41319 -0.42210 128.38623 306
87.59930 -1.04621 127.78842 302
86.39375 -1.24499 127.84592 449
86.39133 -1.24359 128.16461 449
85.83417 -1.33492 128.38623 290
91.74435 -0.28987 127.98480 470
91.74232 -0.28889 128.21973 471
91.46275 -0.33317 128.38620 306
87.64531 -0.93393 127.78895 302
86.30176 -1.14624 127.81739 493
86.30290 -1.14731 128.13837 494
85.88346 -1.21221 128.38722 290
91.76550 -0.20706 127.97731 471
91.76497 -0.20569 128.21417 472
91.51290 -0.24567 128.38704 306
87.69463 -0.82032 127.78677 302
86.27231 -1.03718 127.80221 493
86.27364 -1.03478 128.12274 494
85.93106 -1.08977 128.38634 290
91.78893 -0.12480 127.97194 471
91.78770 -0.12397 128.20517 472
91.56485 -0.15729 128.38626 306
87.74329 -0.70954 127.78748 302
86.25275 -0.92462 127.78847 298
86.24379 -0.92593 128.10999 494
85.98186 -0.96569 128.38831 290
-2054.87549 -310.98001 95.66847 325
91.81079 -0.04158 127.96289 472
91.81070 -0.04127 128.19986 473
91.61639 -0.06817 128.38704 306
87.79253 -0.59788 127.78846 302
86.30071 -0.80551 127.78900 298
86.21532 -0.81625 128.09491 494
86.03220 -0.84443 128.38872 290
-2042.90686 -295.30460 60.39263 499
-2045.91345 -295.90796 95.77023 499
-2049.48877 -296.77487 131.51613 480
91.81127 0.03854 127.94845 489
91.80961 0.03815 128.18663 490
91.66803 0.02056 128.38599 306
90.58961 -0.12158 128.38638 302
86.35328 -0.68334 127.78915 298
86.18507 -0.70774 128.07794 493
86.08296 -0.71717 128.38501 290
-2051.49951 -283.21506 60.15482 397
-2055.75293 -283.83939 95.96282 328
91.79025 0.11483 127.93080 489
91.78949 0.11569 128.16798 490
91.72064 0.10784 128.38773 306
90.64224 -0.03007 128.38718 302
86.40054 -0.56120 127.78597 298
86.15593 -0.59350 128.06583 493
86.13465 -0.59638 128.38683 290
-2742.36035 -356.72058 84.12997 482
-2750.25684 -357.78525 131.39058 443
91.76827 0.19524 127.91000 489
91.76918 0.19480 128.14989 490
91.76971 0.19492 128.38628 490
90.69617 0.06719 128.38676 302
86.45293 -0.44301 127.78814 298
86.12440 -0.48202 128.04915 493
86.12425 -0.48168 128.37392 494
-2745.70996 -339.06866 83.96115 458
-2751.25195 -340.43823 131.16135 457
91.74788 0.27335 127.89051 488
91.74743 0.27375 128.12943 489
91.74810 0.27288 128.36658 490
90.74937 0.16051 128.38570 302
86.50477 -0.32248 127.78566 298
86.09177 -0.36759 128.03270 493
86.09233 -0.36730 128.36374 493
-3476.15747 -403.86310 131.03787 454
-3485.36426 -405.11697 190.80917 329
91.72581 0.35281 127.86961 488
91.72637 0.35373 128.11105 489
91.72483 0.35453 128.34937 490
90.80405 0.25577 128.38550 302
86.55708 -0.19892 127.78825 298
86.06345 -0.25209 128.01863 493
86.06219 -0.25158 128.34825 493
91.70556 0.43543 127.85096 488
91.70464 0.43507 128.09180 489
91.70441 0.43415 128.33301 490
90.85759 0.35024 128.38594 302
86.60911 -0.07946 127.78824 298
86.03326 -0.13577 128.00571 492
86.03377 -0.13926 128.33377 493
91.68206 0.51629 127.82951 488
91.68250 0.51531 128.07230 489
91.68259 0.51724 128.31445 490
90.91370 0.44449 128.38586 302
86.66422 0.04092 127.78776 298
86.00070 -0.01951 127.98924 492
86.00071 -0.02340 128.32068 493
91.65991 0.60074 127.81033 487
91.66184 0.59945 128.05246 488
91.66106 0.59978 128.29614 489
90.97077 0.53722 128.38640 302
86.71869 0.16096 127.78760 298
86.02058 0.10007 127.98338 481
86.02084 0.09860 128.31178 481
91.63871 0.68281 127.78793 487
91.63695 0.68303 128.03285 488
91.63842 0.68128 128.27673 489
91.02776 0.63321 128.38623 302
86.77364 0.28157 127.78912 298
86.05463 0.22349 127.97804 481
86.05511 0.22220 128.30733 482
91.61574 0.76723 127.76662 487
91.61475 0.76719 128.01416 488
91.61633 0.76600 128.25896 489
91.08434 0.72648 128.38704 302
86.82970 0.40202 127.78957 298
86.09016 0.34463 127.97330 482
86.08650 0.34540 128.30663 482
91.59273 0.85209 127.74596 487
91.59205 0.85243 127.99588 488
91.59163 0.85207 128.23895 488
91.14242 0.82014 128.38557 302
86.88540 0.52348 127.78753 298
86.12238 0.46743 127.96918 482
86.12135 0.47185 128.30083 483
91.56902 0.93713 127.72435 486
91.56975 0.93806 127.97547 487
91.57043 0.93712 128.22058 488
91.20068 0.91429 128.38612 302
86.94463 0.64359 127.78811 298
86.15499 0.59243 127.96342 483
86.15560 0.59082 128.29617 483
91.54614 1.02539 127.70458 486
91.54627 1.02636 127.95364 487
91.54549 1.02445 128.20341 488
91.25861 1.00676 128.38678 302
87.00050 0.76105 127.78853 298
86.18572 0.71487 127.95792 483
86.18653 0.71455 128.29341 484
91.52184 1.11149 127.68301 486
91.52202 1.11243 127.93308 487
91.52189 1.11207 128.18347 488
91.31695 1.10155 128.38568 302
87.06136 0.88304 127.78850 298
86.22208 0.83777 127.95323 483
86.22135 0.84097 128.28461 484
91.49894 1.20202 127.65984 485
91.49866 1.19918 127.91268 486
91.49738 1.20040 128.16499 487
91.37951 1.19608 128.38676 302
87.11850 1.00277 127.78898 298
86.25397 0.96019 127.95047 484
86.25484 0.96272 128.28206 485
91.47525 1.29164 127.63820 485
91.47412 1.29046 127.89184 486
91.47578 1.29036 128.14322 487
91.44064 1.28831 128.38647 302
87.18087 1.11942 127.78579 298
86.28770 1.08460 127.94337 484
86.28741 1.08872 128.27562 485
91.45107 1.38057 127.61556 485
91.45197 1.38048 127.87041 486
91.45061 1.37919 128.12387 487
91.44986 1.38034 128.37492 487
90.25108 1.33896 128.38753 298
86.36220 1.21252 127.94610 418
86.36310 1.21044 128.27861 418
91.42643 1.47300 127.59342 484
91.42756 1.47133 127.84875 485
91.42606 1.47141 128.10490 486
91.42828 1.47102 128.35818 487
90.31339 1.44283 128.38499 298
86.48899 1.33673 127.95858 419
86.48882 1.33682 128.29012 419
91.40289 1.56306 127.57006 484
91.40306 1.56337 127.82822 485
91.40168 1.56464 128.08481 486
91.40195 1.56236 128.33856 487
90.37608 1.54363 128.38507 298
86.61470 1.46606 127.96863 420
86.61344 1.46346 128.30035 420
91.37734 1.65491 127.54943 484
91.37686 1.65519 127.80597 485
91.37749 1.65516 128.06580 486
91.37724 1.65611 128.32059 486
90.43871 1.64218 128.38785 298
86.74083 1.58745 127.98195 421
86.73802 1.58824 128.30908 421
91.35058 1.75015 127.52639 483
91.35177 1.74952 127.78432 484
91.35098 1.74955 128.04436 485
91.35100 1.75107 128.30020 486
90.50344 1.74245 128.38710 298
86.86304 1.71504 127.99120 422
86.86301 1.71059 128.31889 422
91.26088 1.84463 127.48338 421
91.26212 1.84643 127.74855 421
91.26199 1.84488 128.00981 422
91.26191 1.84515 128.26752 423
90.56936 1.84450 128.38597 298
86.98589 1.83761 128.00038 423
86.98591 1.83313 128.32590 424
