# .PCD v.7 - Point Cloud Data file format
VERSION .7
FIELDS x y z rgb
SIZE 4 4 4 4
TYPE F F F U
COUNT 1 1 1 1
WIDTH 1053
HEIGHT 1
VIEWPOINT 5762.095703 -4059.015381 138.954208 -0.116328 -0.150343 -0.004696 0.981755
POINTS 1053
DATA ascii
-196.22035 1.11824 53.34409 324
-196.22807 2.94954 53.32720 324
-196.24706 4.75917 53.32981 324
-196.25250 6.53406 53.33178 324
-196.24332 8.34063 53.36670 324
-196.17064 10.15742 53.34345 324
-196.18385 11.94420 53.33754 324
-49890.45312 5496.31104 8414.57715 1000
-277.90427 61.30328 36.91983 322
-294.10928 63.95104 39.61249 312
-274.11993 63.05222 37.77430 346
-290.17535 65.79202 40.51035 341
-272.12125 65.04530 38.22013 347
-288.27356 67.80914 40.85808 341
-255.72289 64.43649 36.07814 351
-270.14761 67.07777 38.63267 345
-289.16351 70.41930 40.58759 319
-253.82230 66.30927 36.53566 351
-269.58185 69.24396 38.72824 322
-251.95279 68.17007 36.93079 349
-271.46674 72.00653 38.07671 319
-17646.78125 3403.55615 4027.01050 1000
-253.48230 70.76237 36.37641 322
-273.70972 74.77473 37.47443 318
-255.51579 73.38629 35.66811 322
-14371.18262 5885.49316 -1153.49121 1000
-7507.84229 3093.83081 129.47533 1000
-56913.00000 23187.41602 8214.45703 1000
-60822.71484 26543.06641 2286.69067 1000
-2212.75854 1523.55981 85.82684 498
-2218.97510 1527.53345 131.50812 492
-1602.62671 1136.15149 64.89037 411
-1592.72083 1144.59558 64.62059 498
-1596.23853 1146.79407 97.93502 491
-1599.24683 1148.93860 131.73700 497
-1013.35419 761.76276 21.49080 438
-1018.66473 765.44391 43.06802 379
-1593.17627 1159.43921 64.51283 379
-1004.85345 766.07251 21.78016 480
-1007.45856 767.67163 43.78216 480
-1010.59558 769.94720 65.51125 438
-1019.30640 775.98682 87.26162 467
-999.97644 772.57593 21.93598 493
-1001.59558 773.90790 43.88669 493
-1003.50134 774.98260 65.92683 498
-1005.56073 776.38055 87.82556 496
-1007.49957 778.04462 109.55043 497
-998.07184 781.49548 21.75430 462
-999.94360 782.46246 43.49843 412
-1001.70990 783.95355 65.46783 412
-1005.86829 786.84863 87.52671 393
-1006.98608 787.41089 109.76149 342
-45426.63672 42344.23047 -12247.49121 1000
75.47811 41.06396 125.71567 1000
-17429.58789 41776.14453 128.47380 1000
-10837.39062 26056.45312 6717.90820 1000
-7934.54736 19473.51953 -559.01465 1000
-3716.54883 14937.32910 130.07053 460
-3637.89355 15017.12402 -120.52992 460
-3612.12134 14921.01270 132.71591 465
-3532.86548 14995.02637 -122.16498 468
-3511.81763 14902.16699 132.25258 470
-3432.83008 14981.89355 -120.76130 469
-3410.25391 14890.83008 130.01100 470
-13858.74512 60981.98438 -7067.07715 1000
-3330.36572 14967.93066 -119.52769 469
-3313.06641 14877.64062 129.84853 471
-3231.48291 14955.22461 -117.82336 470
-3212.15332 14865.36426 129.85507 471
-3131.56689 14941.34961 -119.92722 470
-3113.41821 14851.73145 132.23524 472
-3034.91919 14927.88770 -115.81669 471
-3015.11084 14839.33301 131.85722 472
-2938.53906 14916.48047 -115.92945 471
-2917.60132 14828.14941 130.41345 480
-2838.26123 14905.50195 -117.21931 472
-2823.28857 14814.58984 130.81509 481
-2739.91479 14892.58691 -114.93066 472
-2723.01587 14803.49219 131.31813 481
-2643.87109 14877.40918 -115.71129 473
-2629.23730 14792.97266 130.48122 485
-2548.90649 14865.97949 -115.45270 473
-2531.37012 14778.78125 129.53882 485
-2451.64404 14851.93652 -115.99214 473
-2436.77441 14766.17773 133.34372 486
-2354.27295 14843.04199 -114.67310 474
-2340.13989 14757.03027 129.61342 486
-2259.74268 14829.04785 -112.28706 474
-2247.39624 14743.38477 132.19966 486
-2161.90942 14814.58301 -112.11155 475
-2150.91138 14734.58984 130.04044 487
-2069.94214 14801.82812 -111.72764 475
-2057.80273 14725.10645 132.22118 487
-1973.53479 14793.17773 -111.07345 475
-1962.22144 14710.34961 131.76405 488
-1880.10730 14778.70996 -111.87099 476
-1871.57874 14700.12695 129.85475 488
-1788.91992 14767.42188 -112.72926 476
-1776.72839 14691.40234 131.26042 488
-1692.98816 14754.06445 -113.31274 477
-1685.69104 14679.20117 132.19646 489
-1601.88855 14743.28809 -111.81742 477
-1592.03369 14665.40820 129.89305 489
-1507.42188 14729.67871 -112.02257 477
-1498.36609 14654.68848 133.95161 489
-1415.64014 14718.59277 -109.49510 478
-1405.64246 14643.51758 132.08723 490
-1322.34241 14704.74707 -111.30582 478
-1313.23499 14633.15527 132.89163 490
-1227.40540 14693.33496 -108.91732 478
-1223.50488 14621.83203 132.49623 490
-1134.52710 14681.60449 -107.30558 479
-1130.74927 14613.75586 132.18205 491
-1045.67725 14669.04688 -107.47496 479
-1037.97351 14602.09473 130.63683 491
-952.35901 14659.80078 -107.55778 479
-947.91199 14588.34570 131.10173 491
-862.31390 14646.19727 -107.02818 479
-855.64417 14578.26465 129.89714 492
-769.16211 14634.68652 -106.04454 480
-765.79480 14569.76953 130.16118 492
-680.03943 14623.52637 -105.76828 480
-674.74689 14558.44629 133.42108 492
-589.34235 14610.93262 -105.46246 480
-585.94049 14548.89062 130.52373 492
-499.07489 14600.58594 -106.60316 480
-495.36899 14536.86133 131.11673 493
-2253.33301 68495.36719 -7752.87402 1000
-410.69873 14587.96094 -106.08380 481
-406.34979 14527.03418 132.38820 493
-317.86426 14576.20605 -106.12205 481
-315.84418 14513.72070 130.99278 493
-337.77646 15285.25488 380.41348 487
-228.44901 14561.35352 -104.29755 481
-228.33131 14501.93457 133.58760 493
-242.02235 15256.05078 381.82166 487
-137.34404 14552.05957 -106.83805 481
-139.65468 14494.79004 134.02690 493
-151.10245 15229.37402 379.21680 488
-51.77320 14627.81348 -346.97711 479
-47.28113 14538.55566 -104.70370 482
-49.94576 14481.02832 133.04285 494
-55.08081 15201.57031 379.74896 488
38.01568 14615.66895 -345.80618 479
39.75612 14528.17969 -104.07935 482
42.08430 14473.08887 131.49303 496
40.12290 15171.04883 378.77713 489
128.66139 14604.29883 -344.38150 479
130.02504 14517.36230 -105.64794 482
129.31927 14460.73145 132.75934 497
131.53511 15145.57129 380.28625 489
220.18112 14593.52930 -343.64633 479
219.21767 14504.46387 -105.23297 482
218.03787 14451.23535 132.83809 497
222.85707 15118.57129 377.52243 490
310.12650 14578.62891 -347.10849 479
308.66919 14495.01953 -106.40273 482
305.91110 14440.86035 131.00832 497
315.55936 15090.01465 379.06049 490
399.09210 14569.82324 -343.64545 480
397.17776 14482.58301 -103.33622 482
396.27469 14430.86230 130.71429 497
410.91678 15062.11328 379.78784 490
486.42108 14555.16602 -344.60498 480
483.13770 14472.19824 -104.95851 483
482.63541 14422.09961 130.79158 498
500.14728 15037.74609 376.49850 491
577.75854 14544.71387 -342.37836 480
574.82770 14457.68750 -104.85175 483
573.59326 14409.91992 133.99222 498
591.22845 15014.54980 378.51883 498
665.01495 14533.64551 -345.06949 480
664.06921 14446.47363 -105.95686 483
662.96069 14400.27637 131.75214 498
684.40973 15005.28613 379.60196 498
755.99799 14523.41895 -342.53934 480
749.64398 14434.44531 -104.04269 483
748.77789 14390.58789 131.78079 498
774.78870 14993.31152 377.60913 498
843.34143 14509.98828 -342.90701 480
838.73077 14425.95605 -105.48949 483
838.23132 14380.42188 133.65927 498
869.48169 14980.21973 376.51096 499
931.31982 14500.47559 -342.15060 480
928.87164 14414.28223 -105.74203 491
926.16125 14368.17285 132.56767 464
959.60596 14968.47363 376.72675 499
1022.97241 14487.56445 -341.99170 480
1015.77533 14403.59277 -105.59439 491
1013.60730 14362.60156 131.02626 464
1052.04895 14959.81348 377.09512 499
1111.16858 14475.87695 -342.33533 481
1106.08020 14391.56152 -103.91517 491
1100.71509 14354.67871 132.76199 424
1142.49133 14946.27930 375.79248 499
1197.93506 14462.08691 -340.93900 481
1192.42871 14381.86816 -104.04850 491
1188.90857 14346.51465 134.20450 424
1234.36609 14933.52637 378.51352 499
1285.51428 14452.47656 -341.46381 481
1280.90955 14370.44336 -102.84063 491
1279.48450 14339.90234 133.73126 424
1318.59790 14843.54297 375.12955 330
1376.82886 14442.93848 -343.83472 481
1367.82007 14359.73438 -103.62045 492
1366.22595 14334.68652 131.45616 424
1407.31897 14809.56738 377.15134 405
1466.10168 14428.61621 -341.51904 481
1455.25659 14348.70898 -102.20838 492
1453.78223 14331.45508 133.23898 302
1498.43420 14793.90527 375.80276 405
1513.69128 14949.47461 625.26599 499
1553.49133 14418.03613 -342.70294 481
1544.38123 14337.72070 -103.87317 492
1545.74927 14336.32520 130.89117 301
1588.66711 14779.97266 376.52731 493
1605.04590 14939.65234 623.13025 499
1628.19556 15164.05957 881.54254 286
1640.71655 14404.38770 -343.51141 481
1631.86536 14327.10254 -104.91306 492
1634.04724 14341.01172 131.59999 296
1680.98096 14767.19824 377.36841 493
1699.33691 14926.78809 623.71741 499
1714.22095 15078.00586 877.76959 474
1731.71338 14394.35254 -340.07007 481
1721.52661 14315.92578 -103.16048 492
1753.77881 14599.57715 130.65929 499
1772.44641 14756.27637 377.15363 493
1788.47546 14916.75098 624.07892 499
1807.51050 15074.82910 877.11981 370
1815.96252 14384.75879 -341.19739 481
1808.65417 14307.22656 -103.17167 492
1841.97803 14588.17871 131.27887 499
1875.80591 14856.32324 375.46899 499
1876.98865 14871.16699 620.84180 457
1876.82910 14885.41309 870.57556 364
1906.73206 14371.43066 -343.63882 481
1898.38696 14295.49707 -105.28416 492
1931.37549 14576.34668 133.50114 499
1961.12256 14787.41406 374.49222 458
1961.34265 14801.91797 618.69574 457
1963.14990 14812.09082 866.00732 457
1994.14453 14361.39453 -340.98343 481
1985.80994 14283.65527 -102.11455 492
2020.80603 14567.07520 133.59042 499
2043.37109 14719.30762 375.82709 459
2041.90735 14729.16699 618.88434 458
2043.91516 14742.74707 863.99921 458
2083.62256 14348.71582 -341.55914 481
2072.83350 14272.07812 -104.49226 492
2110.33716 14555.28516 131.42519 499
2126.69116 14645.65430 376.28601 459
2124.67456 14658.95117 614.93292 459
2129.36328 14669.95605 860.03943 459
2169.16675 14338.34180 -343.26849 481
2160.96289 14265.22070 -104.25078 492
2202.83789 14544.81055 131.67929 499
2210.52637 14597.43457 374.04074 499
2211.40625 14605.65820 613.59082 499
2209.32275 14611.86230 857.93665 499
2259.57788 14327.06641 -342.23331 481
2249.96948 14252.93359 -102.46535 492
2291.20410 14533.40039 130.67828 499
2300.26758 14584.77441 373.58826 499
2299.81006 14594.42871 613.90161 499
2299.96582 14598.94238 855.96051 499
2349.06982 14929.65918 1123.79272 480
2335.66602 14838.43359 1859.14807 311
2337.41211 14829.51660 2107.36084 423
2335.64209 14839.22266 2358.97192 478
2347.54004 14316.40625 -343.32706 481
2336.32178 14241.77051 -102.94028 492
2378.75684 14521.68066 130.50096 499
2385.38672 14546.87695 374.53085 499
2386.45703 14549.56055 613.70776 499
2392.48657 14589.27441 858.67731 391
2423.72534 14787.24902 1112.25708 483
2429.16064 14814.65039 1362.37463 295
2522.03345 15405.38281 1668.18494 492
2434.79980 14304.41504 -343.14624 481
2425.48804 14230.50000 -105.25817 491
2469.61475 14510.89941 133.65916 499
2473.34180 14532.92773 372.71793 499
2473.38696 14540.52930 613.47375 499
2480.63232 14583.79980 859.14362 391
2537.12280 14905.31055 1124.03455 479
2524.61182 14293.40137 -343.30685 482
2512.91528 14222.24902 -101.77576 491
2562.05444 14498.94238 132.04681 499
2565.20190 14521.21973 375.38504 499
2563.91187 14529.12695 615.47552 499
2574.77539 14576.73926 860.59631 391
2618.47217 14831.58691 1120.47693 473
2611.88037 14281.41797 -342.01373 482
2600.10767 14211.35156 -104.43584 491
2650.90283 14487.22754 132.17570 499
2654.24194 14509.28125 375.25989 499
2656.97217 14518.79004 616.94543 499
2666.36230 14569.38867 858.40631 390
2712.25293 14840.64453 1119.87915 473
2703.02905 14267.67383 -343.32748 482
2691.56226 14197.40820 -104.25489 491
2739.94678 14476.98145 132.09309 499
2744.86426 14499.02637 373.23904 499
2744.48926 14506.09668 613.17834 499
2757.33643 14564.34375 860.40430 390
2812.17993 14873.47363 1123.96790 470
9346.81152 50566.11328 6046.40381 1000
2791.78174 14258.02246 -343.63159 482
2778.23657 14188.09961 -104.87522 491
2829.41235 14465.15430 132.44838 499
2836.73926 14488.63770 373.20880 499
2836.87427 14497.17676 614.44421 499
2846.81592 14555.92480 858.20813 390
2907.43579 14865.04980 1123.42517 470
2880.07617 14247.76465 -343.28653 482
2866.43018 14178.54004 -102.96353 491
2919.04443 14453.78613 133.60518 499
2923.97339 14476.87695 374.76108 499
2924.95215 14482.29785 613.65930 498
2939.85962 14548.71484 858.88263 390
2999.74097 14852.34570 1124.85596 470
2966.74390 14233.24512 -341.69769 482
2953.78638 14164.41602 -105.05850 491
2960.15454 14197.85938 133.64392 430
3013.42749 14465.34473 375.78140 499
3017.35352 14473.54688 615.91046 498
3032.00781 14541.68457 861.89038 390
3090.75684 14843.91309 1123.86169 470
3058.84985 14225.06152 -343.07925 482
3044.12012 14157.28027 -103.07771 491
3049.97021 14184.61035 133.89459 431
3109.16406 14485.25977 375.95172 498
3111.31226 14489.05176 615.56860 498
3123.80859 14533.39648 863.63641 390
3182.37817 14834.90430 1127.64893 470
3147.44629 14214.40332 -343.09811 482
3131.72998 14144.68066 -103.08220 491
3136.41699 14169.70215 130.84393 431
3202.29980 14472.65234 376.22238 498
3204.43506 14481.43750 615.83423 498
3214.82300 14526.93945 860.44568 390
3276.79321 14821.69727 1127.21704 470
3233.31299 14202.33105 -343.58801 481
3218.46606 14134.34277 -102.84942 491
3224.14258 14159.49902 134.33038 437
3261.28662 14323.18848 373.79727 308
3282.06934 14411.67480 613.91193 263
3304.60352 14517.62695 864.55383 381
3371.70728 14811.67969 1128.92224 470
3325.81958 14188.95215 -344.41159 481
3308.22363 14121.50977 -105.92146 490
3317.25122 14152.03711 131.72873 437
3352.58228 14304.21191 374.04184 467
3335.71558 14244.12598 612.51648 452
3396.32446 14511.04590 863.88525 381
3465.12280 14804.56836 1129.43127 470
3414.75977 14180.56250 -342.96933 481
3397.34937 14111.97363 -104.27192 490
3406.84009 14142.69727 133.41101 386
3475.61426 14440.19629 375.82727 498
3476.37207 14443.70215 619.01221 498
3490.68140 14502.24609 862.86426 381
3500.60229 14168.08203 -344.65555 481
3486.95850 14103.33691 -103.85325 493
3553.93237 14371.95703 134.02640 498
3566.20312 14428.37500 376.71136 498
3566.11523 14434.99512 616.42841 497
3582.36353 14492.89941 865.73639 381
3593.18848 14155.85449 -343.35519 481
3576.92261 14091.84082 -105.12940 493
3643.59326 14362.42480 134.35376 498
3656.90771 14422.02539 374.72446 444
3659.76758 14424.53223 619.77753 444
3679.42749 14506.71387 867.08710 351
3679.84766 14145.18164 -347.31259 481
3666.81860 14080.75293 -107.36070 493
3735.60425 14350.62891 133.31294 498
3764.36279 14470.39453 376.37903 443
3767.87329 14474.46094 622.84204 443
3793.14697 14579.48926 873.15472 351
3773.10498 14132.20801 -345.93411 481
3754.07373 14068.35938 -106.68305 493
3825.25073 14336.12891 131.43060 497
3873.28564 14517.43457 376.66031 466
3874.57666 14525.82031 622.35834 442
3907.13574 14651.20508 876.29395 351
3862.57104 14120.88867 -344.51633 480
3845.20703 14060.03027 -103.69728 492
3914.31836 14327.58594 131.47989 497
3974.71631 14542.87500 380.29471 466
3981.08447 14574.60059 624.69073 441
3953.08936 14109.48047 -344.69705 480
3933.06396 14049.41797 -105.06016 492
4018.99585 14355.44727 133.42381 407
4077.09448 14565.32031 379.44846 465
4090.78833 14621.13184 628.26544 464
4043.12036 14099.98535 -345.33356 480
4024.23413 14038.24121 -107.15606 492
4126.81396 14403.63281 131.16986 407
4180.60986 14586.35742 380.98062 464
4133.86230 14085.38574 -347.97098 480
4114.10791 14026.98926 -107.17784 492
4236.62500 14452.68945 131.85434 406
4222.90527 14076.06152 -346.62720 479
4203.94580 14016.12305 -105.25503 492
4368.98145 14570.42578 132.36185 442
4312.39600 14063.97949 -348.42603 479
4296.36768 14004.53320 -107.43402 491
4464.66943 14563.24219 133.15340 442
4405.58008 14053.01074 -350.29382 479
4388.83203 13994.42969 -105.16613 491
4496.84229 14038.68457 -348.13278 479
4476.66699 13985.45312 -107.93372 491
4587.80176 14029.11719 -350.57834 479
4570.49121 13972.83105 -107.37369 490
4680.16797 14018.94727 -349.45850 478
4661.64307 13963.42676 -106.42616 493
4771.44482 14007.51465 -350.31180 478
4751.67773 13952.10352 -109.12097 492
4863.70361 13992.69336 -351.67902 478
4842.72852 13938.86133 -107.18583 492
4954.69922 13984.33203 -351.39694 485
4937.93701 13930.33496 -110.38816 492
5046.55371 13970.79102 -354.94080 485
5030.42578 13919.05273 -109.59962 491
5138.72217 13960.79492 -352.34314 484
5122.10107 13910.72266 -111.31579 491
5232.89941 13950.53418 -355.90802 484
5215.49707 13898.10938 -111.60483 491
5326.24805 13939.37109 -353.71771 484
5307.81982 13887.01172 -112.20917 490
5419.13965 13925.07715 -357.62665 483
5400.88379 13875.21094 -112.13605 490
13533.73633 34483.41016 -4125.18066 1000
5513.66016 13914.99414 -358.25299 483
5497.15771 13864.76758 -110.91830 489
5608.57715 13904.07227 -356.18607 483
5589.28955 13854.92578 -109.39790 489
5702.39014 13893.12500 -358.76593 482
5685.15137 13843.07812 -110.97473 489
5798.11328 13882.29980 -360.97589 482
5778.93799 13834.09375 -113.63713 488
5894.87305 13870.55957 -361.60825 481
5875.49951 13820.73145 -112.00937 488
5988.86377 13859.80078 -359.02313 481
5967.78174 13809.88477 -113.26005 487
6085.32471 13844.34375 -359.67288 481
6063.91602 13800.23828 -114.18430 487
6182.38330 13833.83203 -360.47446 480
6160.67041 13786.85449 -115.23507 487
6277.32422 13822.79688 -363.24878 480
6258.83789 13778.00098 -116.46526 486
6375.96143 13813.06934 -363.16464 479
6354.23828 13766.94629 -117.03512 486
6472.97559 13799.79688 -365.46210 479
6452.92139 13755.19531 -117.14027 485
6569.85889 13790.48047 -368.35522 478
6547.46338 13743.45898 -116.49206 485
6667.71387 13775.49023 -368.59399 478
6649.03320 13733.42383 -118.40672 484
6768.07764 13763.52441 -367.22919 477
6745.97314 13723.08691 -118.91348 484
6865.12988 13751.41895 -367.95404 477
6846.40674 13710.09668 -117.58914 483
6965.32422 13740.61035 -371.93512 476
6943.56299 13699.44727 -117.13948 483
7065.51514 13731.29004 -371.53613 476
7044.81152 13685.07617 -119.26411 482
7166.83447 13718.71777 -373.76932 475
7143.66406 13676.24707 -118.09125 482
7268.21094 13707.28418 -372.81244 475
7247.03223 13661.80469 -119.41478 481
7371.96191 13701.99902 -376.17331 452
7346.87500 13654.80664 -120.05419 477
7533.57568 13798.48926 -637.67896 449
7481.40576 13702.52148 -378.37024 451
7451.89111 13648.60547 -123.30906 476
7644.33398 13799.00195 -640.45917 450
7592.23730 13703.94922 -380.37982 450
7555.68652 13641.53125 -123.01850 476
7753.91260 13803.53711 -645.24011 450
7703.02002 13705.92285 -380.89389 450
7663.54150 13634.62891 -124.40257 475
10321.98340 18157.08789 -5452.26660 1000
7870.49316 13805.93945 -647.17010 449
7814.35400 13708.34766 -383.21732 450
7767.48730 13627.16699 -122.22801 474
8001.98975 13840.23242 -649.90698 382
7929.35010 13712.81543 -384.60669 450
7880.70605 13628.81055 -124.07632 455
8138.57812 13881.16895 -655.66888 381
8040.03369 13713.93652 -387.62024 449
7994.89844 13635.31836 -127.36388 454
8198.78320 13972.94336 -664.28760 380
8074.11914 13756.05273 -390.55637 448
8032.62793 13688.11133 -127.30302 453
8341.53223 14016.85254 -668.55127 379
8205.11035 13788.34277 -391.73981 403
8149.69141 13698.13770 -128.83942 452
8522.70215 14123.68945 -677.29700 286
8339.46680 13820.42188 -395.58032 402
8269.66309 13708.36230 -131.08504 451
8475.33789 13849.86719 -398.02225 401
8393.59668 13717.23047 -133.74658 450
8618.65918 13894.85840 -401.52213 379
8515.81445 13726.99805 -131.59619 442
8774.04980 13950.45410 -406.83911 352
8639.91992 13738.87402 -132.65878 444
8939.98730 14029.91016 -412.40640 351
8773.04492 13763.93164 -135.49171 381
8926.43262 13819.82227 -139.34428 380
9087.66895 13880.60059 -141.20403 379
9247.88867 13938.82324 -144.20949 383
9460.44629 14073.60059 -145.82588 320
44224.74219 36260.96484 7659.15381 1000
1821.99121 1358.84937 -84.51002 367
1823.35486 1342.41577 -83.68298 496
1829.60645 1347.47791 -47.94899 464
1836.21802 1352.21069 -12.04078 422
1836.25061 1335.66833 -84.05264 419
51317.14844 25391.89453 14467.76562 1000
16440.52344 3342.97925 -2060.49268 1000
11448.80371 2178.42676 1084.18005 1000
5790.93945 949.44330 1582.47791 1000
3348.83350 359.02002 -82.13723 435
3338.29810 337.27338 -81.12772 471
3376.36816 320.54276 -137.98141 431
3330.56152 316.15356 -80.29890 472
28850.48242 2802.88892 4427.50195 1000
3365.12183 299.49509 -136.57298 431
3323.69653 295.61942 -80.02991 473
3347.68433 277.59650 -134.99222 476
3318.66528 275.45499 -79.60224 463
3341.32812 256.91907 -134.73369 476
3314.93018 255.06407 -78.79906 463
3335.42676 236.42941 -133.77704 477
3311.70044 234.45407 -78.55101 462
3330.52612 216.18736 -133.62119 489
3309.34741 214.30821 -78.69338 466
3327.46948 195.37756 -132.81725 489
3307.57007 194.98087 -77.69455 393
3307.30981 174.60077 -77.91833 393
3307.55200 155.06006 -78.38667 391
3307.55518 134.60120 -77.65347 392
3308.84668 115.06213 -77.54591 392
3309.86816 95.40170 -78.14214 392
3365.00903 96.68247 -27.75173 416
3309.96387 76.00050 -78.08389 392
3366.78784 76.64757 -27.49478 347
3311.32153 55.81137 -77.81883 298
3310.97852 35.79406 -131.36209 333
3309.86792 36.31390 -78.01033 430
3310.86182 16.32015 -130.92784 333
3312.44434 15.64449 -78.29914 430
3311.83765 -3.82506 -131.27924 333
3316.27759 -3.61366 -77.91975 417
3312.37866 -23.65229 -131.37230 333
3323.66211 -23.47890 -78.59338 296
3315.48193 -43.38013 -131.53584 331
3324.12842 -43.97152 -79.10081 297
3319.28589 -62.98885 -132.02940 331
3322.61670 -63.06100 -79.08451 418
3464.78809 -66.11476 -32.25919 497
3324.35327 -83.31184 -132.39322 331
3320.61108 -82.78423 -78.64563 441
3469.56836 -87.55492 22.76712 405
3329.60767 -103.11633 -132.67558 331
3324.85303 -102.90634 -78.60244 390
3334.31250 -123.90811 -132.99150 331
3326.88550 -122.80977 -78.79228 390
3328.28955 -143.34593 -79.42609 390
3507.98901 -151.33044 -34.44403 423
3330.18872 -163.22707 -79.32124 390
3416.39160 -167.68138 -30.04836 495
3331.18262 -183.45177 -80.05849 390
3386.07593 -186.88989 -28.82049 436
3332.92773 -203.50174 -79.37751 390
3334.55127 -223.67896 -80.17425 390
3549.34253 -238.80945 -36.88873 483
3336.10181 -243.87672 -80.33192 389
3337.46460 -264.02029 -80.54237 389
3338.82666 -284.35477 -80.96346 462
3341.36426 -304.96002 -81.23500 461
3343.41284 -325.14206 -81.47044 461
47617.01562 -5053.82764 -6943.90137 1000
3345.57031 -345.66461 -81.31063 461
3348.21948 -366.45181 -82.06774 461
3350.49365 -386.78320 -81.74683 460
3352.83325 -407.31851 -82.72477 460
3354.94727 -427.51050 -83.09780 460
3356.96338 -448.57526 -82.58698 459
3463.40845 -462.83081 -33.70957 491
3359.38721 -469.65225 -82.90758 459
3361.61328 -490.65445 -83.84460 459
3369.11548 -511.71030 -84.24343 430
3379.30981 -534.30212 -85.25726 429
3390.56177 -556.91486 -86.63657 361
17916.91797 -4153.81104 -2272.67554 1000
41121.30859 -15644.52441 -8591.68555 1000
2569.73560 -1371.04163 -53.07044 485
2576.22827 -1374.37402 -6.64069 498
20894.49414 -11687.39355 -6256.37012 1000
2566.07861 -1388.70007 -53.35089 398
4076.35425 -3908.74976 -50.08277 458
4067.56616 -3948.52905 -50.56933 429
4236.98584 -4118.43262 37.65855 445
4058.70947 -3989.36206 -51.05312 418
4196.54443 -4128.65283 36.69489 446
4051.11060 -4031.12231 -52.15015 417
4156.26123 -4138.00732 37.26080 447
4043.64355 -4074.26562 -53.84886 405
4114.72070 -4147.84619 37.58845 450
4040.59351 -4121.10791 -54.68840 393
4076.25342 -4156.27734 38.83032 448
4041.20020 -4172.36963 -55.53271 386
4045.20923 -4175.80615 37.97007 485
4051.54785 -4234.33838 -57.61575 348
4039.65649 -4222.73877 38.42107 380
4068.09351 -4306.63770 -59.68696 353
2780.69263 -3294.36572 -7.27904 483
2698.14355 -4439.34619 47.77834 482
2357.60132 -4294.72266 939.82343 1000
2817.38330 -5405.25488 138.97177 400
2777.01343 -5407.18701 138.78700 383
2765.16919 -5467.01660 39.97303 384
2737.95605 -5411.40186 138.78407 344
2717.27490 -5454.63281 39.57334 409
2708.47998 -5435.54541 139.45155 262
2673.54761 -5449.30908 39.90000 402
2734.14941 -5575.35352 139.22464 499
2631.15454 -5444.49902 40.11769 411
2589.80518 -5441.46240 40.25428 424
2586.29785 -5436.36426 137.91823 276
2548.89624 -5443.14746 40.85571 430
2543.81079 -5429.68555 138.55754 474
2537.65356 -5415.48389 235.91315 495
2509.83032 -5444.65234 41.70511 439
2502.13818 -5427.78662 138.55446 474
2500.13940 -5423.06836 234.87073 495
2472.65063 -5448.36670 41.61788 454
2466.11914 -5434.49902 139.10455 495
2464.72925 -5431.81250 236.07281 495
2434.31372 -5454.76074 41.14835 459
2429.24365 -5442.80811 139.14114 496
2428.72070 -5441.54980 235.09331 496
2391.08423 -5445.74072 138.50490 496
2390.97388 -5445.23926 234.87608 496
2355.31860 -5454.85547 139.08881 496
2354.86475 -5452.38086 235.28622 496
2321.46411 -5467.93750 138.87654 496
2321.50781 -5466.35498 235.69498 496
8073.71191 -19560.85156 845.27460 1000
2286.00000 -5475.74609 138.37170 497
2285.27344 -5475.26709 234.75618 420
2250.81030 -5483.70166 137.92468 497
2249.23120 -5483.04492 235.44644 497
2215.07446 -5492.05811 137.33508 497
2221.43140 -5508.67773 235.34933 298
2252.43237 -5588.92578 334.86603 494
2222.44409 -5616.01709 335.28986 467
2190.55884 -5637.60156 335.25308 476
2185.53784 -5620.59619 433.40500 480
2193.89746 -5753.56689 137.76764 498
20296.28516 -56325.84375 5097.65527 1000
1996.18250 -5524.29541 138.49384 312
1959.53479 -5527.10449 138.18719 312
1922.02319 -5531.26611 137.25296 395
1886.54578 -5537.79395 137.75191 395
1878.46790 -5630.03125 138.34012 479
1840.37671 -5626.17920 137.81412 478
1803.03821 -5630.08789 138.15842 496
1097.48962 -4469.77637 136.29572 498
730.65857 -3542.84937 135.06723 284
686.59357 -3423.64331 134.79677 275
640.97290 -3279.84204 134.70087 302
612.57062 -3228.30005 134.69044 346
586.80768 -3196.09253 134.58987 292
568.07928 -3201.31714 135.04530 308
549.97412 -3217.02563 135.13150 460
517.25043 -3126.35156 134.94116 257
494.50510 -3101.84497 83.76585 371
494.78592 -3100.80933 134.73009 351
472.72107 -3079.97461 83.51373 372
473.04803 -3082.86157 134.41695 339
451.35187 -3059.03394 84.23965 380
451.95300 -3065.77197 134.18434 305
431.66550 -3054.57764 84.07478 309
431.29205 -3050.01880 134.24629 357
413.90927 -3066.21973 83.97903 301
413.66895 -3064.33203 134.57465 309
400.09833 -3120.25684 83.06528 289
398.72830 -3109.40771 134.62276 322
417.48416 -3295.04980 188.85001 469
393.88351 -3259.55688 80.73769 264
385.36377 -3173.78052 134.88020 317
398.67221 -3315.54004 189.63530 383
-10335.98828 -62258.81641 -14552.56250 1000
-8427.08008 -45626.19922 6266.72559 1000
-15278.64062 -46430.67578 -12953.40625 1000
-554.42981 -1178.74011 65.93658 442
-553.56586 -1177.57971 88.27444 443
-552.98608 -1176.45544 110.21560 443
-552.46515 -1175.40002 132.38383 443
-551.77527 -1174.34216 154.13168 443
-551.50476 -1173.03833 176.36971 483
-550.61993 -1172.25269 198.21017 483
-550.30341 -1171.05115 220.07664 483
-549.76892 -1170.02136 242.16780 483
-549.10309 -1168.97974 263.80121 482
-548.78552 -1167.99719 286.02280 482
-561.58588 -1174.50623 66.16143 458
-561.01465 -1173.93262 88.17643 406
-560.59973 -1173.02905 110.12017 406
-560.33960 -1172.22253 132.33337 406
-559.82947 -1171.74268 154.39755 406
-559.54010 -1171.02002 176.24039 406
-559.13245 -1170.20312 198.43269 406
-558.79449 -1169.50781 220.33383 338
-558.51208 -1169.08789 242.30815 338
-558.23151 -1168.74890 264.44806 338
-558.81573 -1169.40723 286.65619 262
-942.30347 -1776.69592 267.51538 317
-940.51813 -1773.70068 300.82974 317
-955.43164 -1774.19312 98.64723 456
-954.67615 -1773.41956 132.31738 403
-954.10767 -1772.27893 166.12531 403
-953.55646 -1771.02722 199.78284 335
-953.45190 -1770.73523 233.35280 335
-1331.55847 -2375.98047 132.52888 499
-1330.78625 -2373.16870 177.77574 499
-1328.86743 -2370.69312 223.52252 499
-1327.55481 -2368.56299 268.40707 489
-1326.97693 -2366.56763 313.92676 489
90.10422 -3.00332 127.95686 359
90.10300 -3.00441 128.20099 359
89.87100 -3.07874 128.38570 306
90.21252 -2.89570 127.97932 360
90.21333 -2.89562 128.22290 361
89.90501 -2.99307 128.38586 306
88.82917 -3.33742 128.38512 302
90.32008 -2.78890 127.99922 361
90.31985 -2.78918 128.23953 362
89.93977 -2.90643 128.38536 306
88.86087 -3.24330 128.38774 302
90.42627 -2.68333 128.02022 363
90.42680 -2.68270 128.25928 363
89.97371 -2.82061 128.38774 306
88.89648 -3.15044 128.38559 302
90.53085 -2.57844 128.03880 364
90.52900 -2.57940 128.27829 364
90.00945 -2.73352 128.38680 306
88.93040 -3.05761 128.38550 302
90.63290 -2.47600 128.05833 365
90.63274 -2.47579 128.29515 366
90.04746 -2.64585 128.38527 306
88.96674 -2.96300 128.38730 302
87.70841 -3.33347 128.38559 298
90.73469 -2.37391 128.07614 367
90.73319 -2.37340 128.31013 367
90.08282 -2.56048 128.38744 306
89.00241 -2.87123 128.38686 302
87.74077 -3.23075 128.38751 298
90.83397 -2.27322 128.09203 368
90.83309 -2.27283 128.32655 368
90.12241 -2.47367 128.38591 306
89.03847 -2.77660 128.38638 302
87.77829 -3.12769 128.38643 298
90.93364 -2.17430 128.11064 369
90.93188 -2.17504 128.34207 370
90.15871 -2.38760 128.38556 306
89.07509 -2.68107 128.38707 302
87.81434 -3.02836 128.38780 298
91.02860 -2.07726 128.12514 370
91.02976 -2.07802 128.35722 371
90.19876 -2.29883 128.38635 306
89.11272 -2.58802 128.38765 302
87.84718 -2.92452 128.38499 298
91.12666 -1.98151 128.14160 372
91.12723 -1.98202 128.37357 372
90.23781 -2.21172 128.38757 306
89.14938 -2.49565 128.38667 302
87.88420 -2.82502 128.38742 298
91.22200 -1.88615 128.15770 373
91.22119 -1.88684 128.38673 310
90.27618 -2.12545 128.38641 306
89.18964 -2.40196 128.38797 302
87.92205 -2.72201 128.38521 298
91.31509 -1.79261 128.17180 374
91.26131 -1.80448 128.38622 310
90.31787 -2.03935 128.38580 306
89.22827 -2.30679 128.38533 302
87.95956 -2.61953 128.38538 298
91.36199 -1.71028 128.17465 462
91.30403 -1.72429 128.38570 310
90.35660 -1.95329 128.38531 306
89.26890 -2.21412 128.38789 302
87.99945 -2.51722 128.38673 298
86.50638 -2.87690 128.38518 294
91.38195 -1.63483 128.16907 462
91.34653 -1.64312 128.38626 310
90.39817 -1.86468 128.38593 306
89.30949 -2.12073 128.38669 302
88.03946 -2.41791 128.38725 298
86.54420 -2.76727 128.38734 294
91.40327 -1.55939 128.16100 463
91.38939 -1.56335 128.38583 310
90.43989 -1.77676 128.38757 306
88.21415 -2.28574 128.13632 364
88.08055 -2.31375 128.38496 298
86.58242 -2.65612 128.38666 294
91.42420 -1.48214 128.15709 464
91.42376 -1.48257 128.38461 465
90.48300 -1.69197 128.38637 306
88.02551 -2.23454 128.08284 362
88.02561 -2.23387 128.36685 363
86.62101 -2.54505 128.38770 294
91.44413 -1.40741 128.14879 464
91.44384 -1.40685 128.37820 465
90.52645 -1.60415 128.38593 306
87.83112 -2.18044 128.03195 361
87.82925 -2.18368 128.31821 361
86.66335 -2.43302 128.38516 294
91.46400 -1.33022 128.14459 465
91.46320 -1.33107 128.37210 466
90.56889 -1.51653 128.38739 306
87.63083 -2.12836 127.97960 360
87.63123 -2.12742 128.27167 360
86.70464 -2.32140 128.38635 294
91.48576 -1.25540 128.13626 466
91.48389 -1.25547 128.36652 467
90.61327 -1.42958 128.38693 306
87.42236 -2.07337 127.92516 358
87.42318 -2.07428 128.21956 359
86.74376 -2.20972 128.38579 294
91.50532 -1.17772 128.13028 466
91.50474 -1.17905 128.36121 467
90.65769 -1.34291 128.38750 306
87.20991 -2.01545 127.86992 357
87.21168 -2.01701 128.16714 357
86.78561 -2.09823 128.38754 294
91.52532 -1.10129 128.12337 467
91.52483 -1.10033 128.35284 468
90.70232 -1.25707 128.38770 306
87.09100 -1.93757 127.83420 451
87.08872 -1.93983 128.13550 452
86.82967 -1.98914 128.38669 294
91.54735 -1.02322 128.11784 468
91.54635 -1.02480 128.34869 469
90.74691 -1.16906 128.38792 306
87.00308 -1.85166 127.80450 451
87.00493 -1.85157 128.10924 451
86.87434 -1.87745 128.38826 294
91.56825 -0.94672 128.11070 468
91.56629 -0.94659 128.34033 469
90.79462 -1.08156 128.38554 306
86.96807 -1.75789 127.78721 302
86.91589 -1.76491 128.08090 450
86.91743 -1.76415 128.38481 451
91.58813 -0.86827 128.10417 469
91.58815 -0.86944 128.33353 470
90.84080 -0.99476 128.38690 306
87.01215 -1.64505 127.78613 302
86.82883 -1.67910 128.05365 449
86.82760 -1.67753 128.36047 450
91.61022 -0.79114 128.09682 470
91.60963 -0.79058 128.32658 471
90.88762 -0.91006 128.38754 306
87.05372 -1.53448 127.78934 302
86.73978 -1.58879 128.02791 449
86.73682 -1.58818 128.33821 449
91.63023 -0.71252 128.08870 470
91.62865 -0.71315 128.32127 471
90.93639 -0.82255 128.38614 306
87.09875 -1.42551 127.78648 302
86.64545 -1.49620 127.99928 448
86.64605 -1.49637 128.30949 448
85.25438 -1.71423 128.38744 290
91.65108 -0.63373 128.08266 471
91.65028 -0.63396 128.31418 472
90.98301 -0.73645 128.38553 306
87.14606 -1.31467 127.78634 302
86.55305 -1.40318 127.97120 447
86.55570 -1.40219 128.28606 447
85.29874 -1.59181 128.38451 290
91.67175 -0.55596 128.07527 471
91.67187 -0.55696 128.30756 472
91.03307 -0.64801 128.38773 306
87.18958 -1.20516 127.78584 302
86.46069 -1.31202 127.94428 446
86.45992 -1.31223 128.25842 447
85.34602 -1.47144 128.38797 290
91.69238 -0.47854 128.06790 472
91.69269 -0.47880 128.30070 473
91.08160 -0.56190 128.38737 306
87.23765 -1.09437 127.78800 302
86.36600 -1.21589 127.91500 445
86.36697 -1.21559 128.23248 446
85.39630 -1.35071 128.38518 290
91.71310 -0.39834 128.06070 473
91.71359 -0.39813 128.29185 474
91.13248 -0.47455 128.38536 306
87.28382 -0.98439 127.78793 302
86.29544 -1.11383 127.89260 493
86.29443 -1.11513 128.21304 493
85.44493 -1.22649 128.38753 290
91.73524 -0.31819 128.05305 473
91.73639 -0.31888 128.28563 474
91.18127 -0.39003 128.38623 306
87.33348 -0.87191 127.78664 302
86.26434 -1.00940 127.87592 492
86.26654 -1.00906 128.19841 493
85.49551 -1.10468 128.38576 290
91.75814 -0.24074 128.04411 474
91.75697 -0.23898 128.27910 475
91.23376 -0.30232 128.38605 306
87.38290 -0.76396 127.78927 302
86.23489 -0.89899 127.86078 492
86.23681 -0.90033 128.18111 493
85.54322 -0.98485 128.38519 290
91.77719 -0.16072 128.03621 474
91.77805 -0.16067 128.27069 475
91.28559 -0.21687 128.38768 306
87.43153 -0.65092 127.78683 302
86.20678 -0.79302 127.84769 492
86.20673 -0.79096 128.16855 493
85.59708 -0.86182 128.38663 290
91.80016 -0.07875 128.02887 475
91.79832 -0.07937 128.26277 476
91.33643 -0.12861 128.38599 306
87.48287 -0.54331 127.78939 302
86.17794 -0.68449 127.83006 492
86.17978 -0.68104 128.15273 493
85.64592 -0.74013 128.38499 290
91.82159 0.00157 128.01926 488
91.82221 -0.00065 128.25507 489
91.38818 -0.04338 128.38724 306
87.53059 -0.43322 127.78719 302
86.14981 -0.57210 127.81475 492
86.14813 -0.57312 128.13815 492
85.69984 -0.61689 128.38777 290
91.80022 0.07760 128.00020 488
91.79991 0.07597 128.23555 489
91.44263 0.04354 128.38751 306
87.58429 -0.32060 127.78855 302
86.12093 -0.45876 127.79747 491
86.12147 -0.46129 128.12306 492
85.75318 -0.49490 128.38644 290
91.77998 0.15392 127.98169 487
91.77936 0.15476 128.21916 488
91.49570 0.13001 128.38734 306
87.63612 -0.21304 127.78829 302
86.12136 -0.34658 127.78953 298
86.08828 -0.35140 128.10899 492
85.80904 -0.37449 128.38559 290
91.75959 0.23263 127.96054 487
91.75892 0.23295 128.20007 488
91.55011 0.21574 128.38708 306
87.68900 -0.10111 127.78640 302
86.17471 -0.22636 127.78626 298
86.05979 -0.23533 128.09384 492
85.86363 -0.25140 128.38695 290
91.73722 0.31071 127.94038 487
91.73794 0.31041 128.17964 488
91.60378 0.30100 128.38664 306
87.74092 0.00727 127.78694 302
86.22793 -0.10827 127.78596 298
86.02856 -0.12456 128.07887 491
85.91946 -0.12971 128.38689 290
91.71529 0.39005 127.92056 487
91.71481 0.39182 128.16225 488
91.65910 0.38821 128.38528 306
90.56334 0.31087 128.38686 302
86.28430 0.01033 127.78951 298
85.99841 -0.00954 128.06064 491
85.97637 -0.00899 128.38704 290
91.69434 0.47161 127.90022 486
91.69515 0.47108 128.14192 487
91.69557 0.47271 128.38159 488
90.61858 0.40373 128.38631 302
86.33753 0.13111 127.78616 298
86.02576 0.10915 128.05656 483
86.02418 0.11121 128.38542 483
91.67110 0.55428 127.87900 486
91.67234 0.55324 128.12296 487
91.67238 0.55340 128.36258 488
90.67565 0.49486 128.38776 302
86.39223 0.25024 127.78899 298
86.05663 0.23165 128.05302 483
86.05627 0.22852 128.37985 484
91.65015 0.63472 127.85779 486
91.65114 0.63450 128.10251 487
91.65121 0.63530 128.34532 488
90.73087 0.58926 128.38730 302
86.44729 0.36864 127.78634 298
86.09059 0.35210 128.04791 483
86.08759 0.35086 128.37680 484
91.62920 0.71957 127.83764 485
91.62918 0.71911 128.08389 486
91.62897 0.71839 128.32515 487
90.78888 0.68072 128.38600 302
86.50602 0.48665 127.78580 298
86.12024 0.47071 128.04094 484
86.12367 0.47003 128.37329 485
91.60550 0.80201 127.81719 485
91.60510 0.80322 128.06293 486
91.60506 0.80350 128.30652 487
90.84727 0.77445 128.38626 302
86.56612 0.60709 127.78684 298
86.15247 0.58932 128.03934 484
86.15488 0.59064 128.36896 485
91.58315 0.88740 127.79505 485
91.58257 0.88644 128.04321 486
91.58332 0.88824 128.28996 487
90.90649 0.86414 128.38576 302
86.62357 0.72277 127.78957 298
86.18476 0.70817 128.03104 485
86.18510 0.70948 128.36261 486
91.55847 0.97439 127.77267 484
91.55997 0.97375 128.02377 485
91.56062 0.97475 128.27043 486
90.96690 0.95632 128.38795 302
86.68137 0.84292 127.78924 298
86.21869 0.83224 128.02600 485
86.21803 0.82865 128.35687 486
91.53732 1.06116 127.75214 484
91.53604 1.06044 128.00278 485
91.53696 1.06118 128.25134 486
91.02675 1.04826 128.38620 302
86.74145 0.96187 127.78799 298
86.25050 0.95178 128.02357 486
86.25186 0.94976 128.35365 486
91.51296 1.14731 127.72889 484
91.51345 1.14709 127.98295 485
91.51350 1.14797 128.23007 486
91.08649 1.14246 128.38574 302
86.80326 1.07981 127.78902 298
86.28181 1.07237 128.01607 486
86.28500 1.07110 128.34821 487
91.48865 1.23519 127.70905 483
91.49072 1.23701 127.95988 484
91.49042 1.23663 128.21100 485
91.14772 1.23176 128.38622 302
86.86425 1.19636 127.78922 298
86.34283 1.19481 128.01501 422
86.34610 1.19178 128.34676 422
91.46418 1.32610 127.68446 483
91.46555 1.32644 127.94019 484
91.46547 1.32577 128.19231 485
91.21001 1.32531 128.38658 302
86.92737 1.31564 127.78667 298
86.46587 1.31461 128.02890 423
86.46461 1.31246 128.35574 424
