# .PCD v.7 - Point Cloud Data file format
VERSION .7
FIELDS x y z rgb
SIZE 4 4 4 4
TYPE F F F U
COUNT 1 1 1 1
WIDTH 1071
HEIGHT 1
VIEWPOINT 6751.758301 -3129.661133 137.595856 -0.559980 -0.131652 -0.068241 0.815128
POINTS 1071
DATA ascii
-196.19673 1.35972 53.34867 324
-196.16795 3.14169 53.28326 324
-196.15678 4.94245 53.33484 324
-196.20509 6.75214 53.29294 324
-196.19160 8.54277 53.34184 324
-196.13443 10.27531 53.30250 324
-196.12372 12.14415 53.31231 324
-277.12637 61.48952 37.15709 323
-293.18692 64.14043 39.88960 313
-259.24966 60.86239 35.26252 350
-273.86115 63.34234 37.84238 346
-289.86948 65.98840 40.54787 341
-257.27414 62.79504 35.71948 350
-271.80276 65.30612 38.24922 347
-288.00385 68.13264 40.94040 341
-27355.33789 4792.77051 5205.68262 1000
-255.35072 64.69843 36.11906 351
-269.91965 67.28484 38.65347 345
-289.41705 70.83134 40.49429 318
-253.49573 66.54712 36.53672 351
-269.74527 69.56940 38.62366 322
-251.66415 68.43729 36.86961 325
-271.65277 72.32666 37.99833 319
-253.58441 71.05285 36.31640 322
-274.99524 75.26171 37.09340 261
-33218.16406 6661.85107 3481.27026 1000
-255.67557 73.63822 35.65051 321
-257.68045 76.37244 34.91501 321
-15671.53320 4801.43506 399.89322 453
-15556.31152 4765.76025 669.02081 458
-15587.21875 4881.40430 402.94952 447
-15477.18945 4847.46826 664.43457 459
-15494.54102 4853.85400 934.93921 436
-15512.28809 4963.71045 399.95291 444
-15399.60840 4928.68018 662.28394 464
-15387.14258 4926.60547 932.45270 338
-15436.40625 5047.91797 399.14346 445
-15328.43066 5010.14941 663.91132 465
-15365.25684 5127.63965 397.27994 445
-15254.99121 5089.77002 659.98773 466
-15289.38379 5210.57910 399.76947 463
-15183.25000 5174.34766 660.66687 466
-51237.74219 17720.84766 -7923.44678 1000
-15215.72754 5289.11865 395.01569 464
-15112.96582 5252.69727 657.82703 467
-15142.86328 5367.74170 397.98969 466
-15039.20020 5333.89697 658.42572 467
-15074.94824 5448.13672 397.21942 467
-14971.79102 5411.23730 654.06927 468
-15000.31055 5527.36768 395.51489 467
-14898.37207 5489.72461 654.72076 468
-14930.97070 5607.55322 394.69843 468
-14830.46582 5567.80713 653.96301 469
-14857.38574 5686.53125 394.62888 468
-14760.25391 5648.82764 650.13605 469
-14791.02539 5765.89795 392.45233 469
-14690.91797 5723.94385 652.55597 470
-14718.33691 5839.46387 393.79810 469
-14621.84570 5801.74414 647.67749 478
-14652.04004 5919.30029 392.38757 470
-14550.16992 5879.77051 646.65674 479
-14581.78223 5995.04883 391.26724 470
-14486.07910 5957.69922 649.08801 479
-14511.20801 6071.48633 388.73285 471
-14415.31445 6035.20068 645.48608 480
-14441.91504 6148.19141 387.73111 471
-14351.42285 6110.28271 643.13318 480
-14374.65723 6227.70117 389.75165 472
-14283.75000 6184.80762 643.23840 481
-14305.42773 6300.61133 389.77533 472
-14215.88867 6261.99707 640.42548 481
-26795.15039 11957.08105 -7241.11572 1000
-14235.49023 6377.80811 389.35175 472
-14148.87891 6338.87158 642.15527 485
-3644.26807 1664.79517 602.63470 1000
-14168.97266 6449.15674 386.99365 473
-14084.89746 6412.55469 638.91394 485
-14101.68848 6524.68848 388.84573 473
-14015.60352 6484.55762 637.47437 485
-14036.31738 6599.34717 387.56525 474
-13950.13965 6561.25586 637.79645 486
-13969.95898 6677.93506 385.26251 474
-13885.75293 6634.86133 638.79596 486
-13901.09180 6750.61426 383.91934 475
-13821.42969 6708.67871 636.62939 487
-13835.61523 6823.75146 386.00296 475
-13756.45410 6783.27930 633.91010 487
-13769.28516 6898.23340 382.27502 475
-13688.37012 6858.11279 632.86871 487
-13705.22754 6970.10303 385.06140 476
-13623.70898 6931.65381 633.21814 488
-13636.91699 7042.63428 384.83408 476
-13559.04688 7005.89648 635.13910 488
-13572.44531 7115.85645 384.34470 476
-13499.01562 7079.48047 634.45441 489
-13504.56641 7189.97070 380.92941 477
-13433.51855 7150.95654 631.03961 489
-13439.44238 7261.01025 383.38422 477
-13367.47363 7223.35547 629.06329 489
-13377.57520 7332.21045 382.25385 478
-13305.56641 7292.45117 631.43549 490
-13311.89941 7402.99219 380.53021 478
-13243.10547 7365.12402 627.27368 490
-13902.28320 7730.64844 915.63477 481
-13246.64941 7475.09668 379.53015 478
-13180.42383 7440.36768 629.99731 490
-13818.45312 7799.18164 916.07312 482
-13182.00684 7548.02734 381.37036 479
-13116.15723 7512.22461 628.87286 491
-13737.44824 7864.73340 912.32379 482
-4304.42676 2481.76196 80.78885 479
-13050.68652 7583.26172 626.45038 491
-13655.32422 7927.02930 911.37042 483
-13055.41016 7693.14258 379.89981 479
-12990.45508 7654.68066 628.47491 491
-13576.83887 7993.87744 908.53564 483
-12991.53906 7763.81104 380.20667 479
-12928.69336 7725.81348 627.14978 491
-13492.94336 8057.89844 906.62006 484
-12927.97266 7832.11182 380.19336 480
-12864.37012 7794.56885 623.75610 492
-13413.13477 8127.14062 905.55768 484
-12864.26465 7901.14844 379.78189 480
-12803.11523 7864.57275 627.00165 492
-13332.59863 8190.76562 903.82056 485
-12799.54395 7973.74512 376.98520 480
-12743.17578 7936.55127 624.50165 492
-13253.33105 8254.91309 900.88458 485
-12738.30078 8042.68018 379.45508 480
-12676.49219 8008.44678 624.34735 495
-13185.53320 8324.96777 900.66174 496
-12670.34766 8114.61865 377.53857 481
-12616.77637 8079.89453 622.57898 495
-13123.87598 8398.01270 897.26782 496
-12694.34863 8235.52441 131.85097 478
-12607.71484 8183.14209 377.74301 481
-12557.60156 8149.89404 623.98425 495
-13057.41797 8471.29785 900.27850 496
-12629.85156 8305.94336 131.05449 478
-12549.09375 8251.85059 376.18274 481
-12494.82422 8218.48242 622.52936 496
-12992.72168 8546.88867 899.13300 496
-12566.42188 8377.16602 129.49516 478
-12484.11719 8322.21387 375.67267 481
-12431.85449 8288.88477 621.44342 496
-12929.24219 8614.96289 895.08069 497
-12502.79492 8448.84668 130.45035 479
-12419.59961 8393.60742 374.38675 482
-12370.23242 8358.16602 620.79382 496
-12866.51953 8689.14941 894.62695 497
-12439.73340 8516.84961 131.11595 479
-12358.00098 8462.47070 374.47668 482
-12310.85254 8429.50977 622.09155 496
-12798.35059 8762.55273 893.47174 497
-12377.21582 8586.97070 130.07736 479
-12297.89551 8531.47754 378.22128 482
-12249.20703 8497.59180 618.77411 497
-12736.31738 8832.35840 894.30371 497
-12314.04297 8657.47070 131.71626 479
-12232.90820 8600.30371 374.23892 482
-12190.33984 8569.99316 621.88452 497
-12598.69824 8853.16016 890.36560 417
-12251.39453 8724.18945 129.48607 479
-12171.01074 8666.87695 374.10071 490
-12129.93750 8637.66113 620.47504 497
-12534.08398 8926.65625 891.35638 417
-12640.13867 9004.04297 1152.70691 497
-12187.55371 8793.89160 130.29224 480
-12112.38477 8738.89355 374.85068 490
-12067.45801 8710.55762 619.44379 463
-12463.28125 8993.69922 889.82300 404
-12577.10059 9075.29590 1150.70361 498
-12122.95117 8864.89551 130.52231 480
-12049.66406 8806.84082 373.20471 491
-12010.42188 8780.70215 620.94885 463
-12399.56934 9061.97852 889.81964 404
-12516.50586 9146.08496 1150.54407 498
-12644.03125 9241.01855 1419.52246 446
-48873.86328 35519.44922 6080.91406 1000
-12062.43555 8932.02441 130.20435 480
-11987.08008 8876.84961 373.07693 491
-11951.21777 8852.52344 620.68994 424
-12332.72363 9130.45801 886.66901 404
-12451.28711 9216.32910 1149.40344 498
-12562.09766 9301.24707 1417.53845 490
-11999.29980 8999.45898 130.60393 480
-11926.36523 8948.89062 374.13446 491
-11892.63086 8924.62695 618.82074 424
-12350.95312 9265.83789 891.06616 498
-12365.45410 9273.49219 1147.19775 445
-12388.16895 9291.25293 1406.96167 357
-11938.65625 9070.82617 129.58769 480
-11865.97559 9017.87402 372.69189 491
-11839.95020 8997.94629 618.20074 302
-12244.96387 9299.82227 888.27106 446
-12249.71680 9307.42480 1143.58325 445
-12269.06641 9320.32812 1398.11230 358
-11876.91602 9137.96094 129.89601 480
-11802.48242 9084.00781 373.44360 491
-11792.44629 9079.00488 620.69196 301
-12125.94727 9331.41211 883.42957 447
-12131.83594 9337.30664 1138.25183 446
-12153.67188 9353.69824 1393.46069 358
-11814.76758 9209.70117 127.70644 480
-11741.71387 9151.81543 375.31210 491
-11752.55762 9160.79199 621.56299 296
-12011.77930 9361.87109 882.66974 448
-12018.54297 9369.57617 1132.09338 447
-12033.93164 9382.71680 1388.47009 359
-11750.16895 9276.08594 128.97675 481
-11680.36914 9220.13184 373.93323 491
-11893.62988 9389.73535 627.29102 499
-11930.10352 9420.30371 879.97125 499
-11928.34082 9415.59766 1130.86853 499
-11940.12598 9425.18750 1381.71082 391
-11686.89648 9346.70801 127.89108 481
-11621.02148 9293.63379 373.51700 491
-11832.03711 9461.31934 626.89972 499
-11867.20605 9488.98535 880.61426 261
-11868.28711 9490.06250 1131.77698 499
-11882.65527 9497.74609 1382.18298 391
-12127.24609 9696.95410 1667.33228 479
-12497.93164 9985.20020 1975.81982 475
-12017.16797 9608.51562 2421.95557 437
-12022.08691 9613.56152 2681.24927 470
-11626.51172 9415.04297 127.34587 481
-11559.28223 9360.83691 375.25165 491
-11767.15625 9528.84668 625.41052 499
-11783.72461 9539.61523 879.05664 499
-11779.99609 9538.21680 1128.25769 499
-11823.75195 9574.09668 1383.21204 391
-11957.85254 9682.56250 1651.97461 489
-11969.86816 9691.33594 1908.10815 275
-11563.06152 9483.98145 130.03346 481
-11496.09863 9427.77246 373.14993 492
-11707.48535 9597.42676 626.02460 499
-11719.17676 9608.99609 879.66730 499
-11720.51367 9608.87891 1126.48865 499
-11764.35547 9646.87695 1383.60278 391
-12001.38867 9837.77539 1663.09766 471
-11504.01367 9550.02148 129.46947 481
-11436.51660 9495.57812 372.58490 492
-11644.77734 9667.53223 625.42731 499
-11657.70703 9679.47949 875.51196 499
-11658.16309 9679.63281 1126.37463 499
-11707.93457 9720.12988 1384.47437 391
-11892.81250 9873.09863 1659.79272 453
-11439.69629 9619.00684 127.60371 481
-11374.86133 9564.93457 373.09882 492
-11583.63867 9740.46387 628.78778 499
-11597.61914 9749.25684 875.92365 499
-11593.18555 9748.88477 1126.50256 499
-11648.48926 9794.87109 1382.87842 391
-11844.55469 9955.94922 1661.63757 477
-11377.31055 9687.57422 129.12506 481
-11314.35547 9634.34277 375.13309 492
-11519.05664 9809.80957 627.30829 499
-11536.00977 9819.80273 875.36462 499
-11531.82422 9820.26660 1128.14819 499
-11590.76855 9870.33594 1384.41907 391
-11814.84375 10058.18652 1666.04907 471
-11317.35156 9755.72852 129.79315 481
-11252.39844 9704.40430 374.93457 492
-11457.88867 9878.03320 628.85437 499
-11473.06543 9890.90820 876.19031 499
-11470.75684 9889.96680 1126.05054 499
-11531.96191 9939.44043 1384.38074 391
-11751.35938 10130.93457 1664.61853 486
-11255.49316 9824.86426 127.48380 481
-11193.12207 9773.16113 373.21353 492
-11395.98242 9947.54883 626.55573 499
-11408.23828 9959.93945 878.80249 499
-11407.24805 9959.41016 1125.39722 499
-11470.99609 10016.43652 1382.16870 391
-11690.96484 10202.82520 1664.69104 486
-11191.92578 9895.29102 127.58210 481
-11131.66797 9838.64746 371.66016 492
-11148.85645 9853.44824 618.39166 431
-11368.27344 10050.89648 877.98517 499
-11345.00977 10029.29785 1124.28577 499
-11416.56348 10088.86133 1383.04297 391
-11130.15918 9960.23047 129.57281 483
-11070.41992 9909.91016 375.40579 492
-11085.44824 9922.49707 619.72583 431
-11308.69922 10118.27344 877.55371 499
-11308.04980 10118.30273 1127.65271 499
-11356.82031 10162.36035 1386.75183 391
-11068.12402 10027.89746 128.59796 483
-11009.22168 9979.17188 373.88043 492
-11021.36523 9988.62500 619.71259 431
-11244.23340 10186.91797 880.01355 499
-11244.36719 10189.18848 1126.82898 499
-11297.70508 10238.08789 1383.27783 391
-11007.16895 10100.43164 127.50121 483
-10950.29688 10048.39062 372.41104 492
-10961.75391 10058.29883 617.24561 438
-11072.33691 10155.90723 870.16418 475
-11027.25195 10118.52539 1116.28711 391
-11243.50391 10311.66992 1384.44141 390
-10945.40039 10167.74414 129.38457 483
-10888.64355 10115.59570 373.26813 492
-10906.32812 10133.61426 619.31482 387
-11119.02148 10330.87500 879.60693 499
-11122.12891 10328.27832 1129.82056 499
-11182.67383 10386.16504 1386.19421 382
-10465.95703 9757.75977 -2.76441 483
-10829.36816 10183.92578 372.39960 492
-11024.77344 10365.29785 628.89288 499
-11059.22754 10401.28516 877.08350 499
-11058.02051 10400.50879 1128.59290 499
-11121.69531 10458.05957 1388.20459 382
-10820.72949 10303.39453 129.86526 483
-10765.43066 10252.69238 372.58481 495
-10961.21387 10435.94922 628.04224 499
-10995.06250 10470.84180 877.64844 499
-10996.18750 10468.03711 1126.85400 499
-11061.62207 10532.88965 1387.66003 382
-10760.85742 10371.41699 127.22712 482
-10705.08594 10319.03125 372.17282 495
-10899.84082 10507.24512 627.51605 499
-10972.09570 10573.55566 880.07129 456
-10962.66211 10567.40234 1132.29797 456
-11055.46289 10656.58105 1392.06226 359
-10698.45996 10439.25195 127.87711 482
-10644.84180 10390.39453 375.29166 495
-10833.95996 10576.34863 627.92548 499
-10950.53906 10687.96582 885.25110 455
-10947.30859 10679.56543 1136.14233 455
-11051.70703 10784.93848 1402.53943 359
-10635.65527 10510.38672 126.94922 482
-10581.32520 10459.40723 372.79431 495
-10776.07715 10644.93652 628.42981 499
-10920.45410 10786.03711 884.90430 475
-10926.19727 10794.28027 1139.47925 454
-10574.00586 10576.13574 127.02834 482
-10523.53418 10526.36914 374.42709 495
-10740.49316 10745.84863 629.34100 418
-10882.00391 10881.94727 886.95007 474
-10905.85254 10906.40137 1142.34937 454
-10511.33496 10648.38379 128.19891 482
-10464.50684 10595.58887 373.75418 495
-10808.82715 10945.74316 636.36005 474
-10841.83691 10980.28613 892.08698 473
-10450.38770 10716.62500 128.56537 482
-10399.27148 10664.71680 373.98975 494
-10769.19043 11037.76172 637.44983 474
-10802.56055 11076.21484 892.92273 473
-10387.84766 10784.50195 131.00407 482
-10341.79395 10734.37988 375.68533 494
-10728.85449 11136.04297 635.59692 473
-10327.37598 10854.56738 130.86784 482
-10278.36035 10803.67676 372.85352 494
-10679.12598 11222.50977 638.13660 444
-10262.78613 10919.17383 127.28992 482
-10215.87598 10874.52246 372.02878 497
-10199.08105 10990.92188 127.65768 482
-10157.30566 10941.96289 372.66510 496
-10139.07031 11061.37695 130.23134 482
-10094.74609 11013.25488 376.38632 496
-10076.58008 11127.58105 127.18718 482
-10034.27148 11083.70898 375.60977 496
-10014.64453 11197.26074 127.24793 489
-9973.51855 11154.19824 374.39844 496
-9954.92578 11266.15527 129.92969 489
-9911.42480 11223.94629 376.06665 496
-9891.35645 11336.08496 130.89786 489
-9851.94824 11294.38574 374.75208 496
-9827.95410 11405.75195 130.68739 489
-9788.27734 11363.43164 375.22223 495
-9764.23438 11477.72363 130.63655 489
-9726.79102 11431.44824 377.12326 495
-9703.76465 11547.27051 127.18742 488
-9665.04492 11504.29004 376.72583 495
-9639.27539 11618.29883 127.41850 488
-9603.38770 11572.95605 375.91403 495
-1232.33130 1602.70227 -4.99708 492
-1237.08057 1608.42981 29.00817 399
-9578.96680 11686.60938 129.49106 488
-9544.10352 11644.32812 375.42816 494
-1223.25928 1611.83252 -4.89861 481
-1225.02588 1614.00513 29.36877 473
-1226.74023 1616.46777 62.99480 478
-9516.91309 11757.04492 130.17464 488
-9481.61719 11716.23828 377.72208 494
-9451.63672 11828.19629 126.59952 487
-9416.93457 11784.37109 374.40808 494
-9391.90137 11901.51953 127.62057 487
-9355.15234 11858.26660 377.80072 494
-9382.49023 12043.08203 -122.70043 476
-9328.27832 11972.72754 127.42581 487
-9294.34863 11928.88086 376.28494 493
-9319.80273 12112.37500 -122.07133 476
-9265.48047 12042.07422 130.02142 487
-9231.16992 12001.51172 375.09286 493
-9256.59473 12185.89648 -122.37522 476
-9202.29590 12114.82715 126.54340 486
-9167.35645 12072.57422 379.23447 493
-9190.61621 12256.70117 -125.05956 476
-9137.12305 12186.47070 128.38486 486
-9105.75586 12142.16699 377.60812 493
-9126.82324 12327.78906 -123.99519 475
-9072.59766 12255.52637 127.19818 486
-9042.10156 12214.03027 377.20462 492
-9060.78906 12400.75195 -125.08916 475
-9008.70801 12330.53516 129.51619 486
-8978.03906 12288.95020 377.10321 492
-8996.28125 12471.50488 -123.65936 475
-8945.09863 12399.13477 126.41599 485
-8919.89062 12365.74121 376.80078 374
-8929.98340 12544.44043 -125.21624 474
-8883.04688 12471.41797 126.77076 485
-8861.78223 12445.84180 380.19821 373
-8866.87891 12613.39648 -126.40691 474
-8818.01953 12545.52246 129.31520 485
-8803.04785 12524.55176 379.37186 441
-8802.04395 12688.95703 -126.42907 474
-8753.93262 12618.97949 129.04726 484
-8736.47949 12597.22754 379.66077 441
-8736.45020 12762.35449 -126.04492 473
-8686.31934 12689.43262 127.73526 484
-8671.67676 12666.91992 380.50040 440
-8669.10547 12835.02930 -128.05235 473
-8623.16992 12763.85449 130.03473 484
-8605.70020 12737.35449 379.92001 440
-8604.13672 12905.37402 -125.47964 473
-8557.26953 12838.92969 128.40123 483
-8538.11133 12810.33887 380.64349 440
-2794.90161 4286.92627 1071.20044 1000
-8537.58789 12980.45801 -126.87420 472
-8494.57910 12910.54395 127.33002 483
-8474.12109 12884.14844 383.40585 407
-8472.59668 13054.05371 -127.55643 460
-8428.83398 12983.44434 127.85348 482
-8422.49902 12978.13086 380.50009 317
-8413.82324 13139.39355 -127.23894 460
-8362.06152 13060.46875 128.24841 482
-8667.95508 13529.35449 390.65506 399
-8353.73145 13228.14062 -128.53381 461
-8294.93164 13132.84766 127.67821 482
-8297.47070 13311.96289 -130.29643 461
-8234.41699 13219.78516 129.30045 461
-9027.18652 14474.70312 409.52509 497
-8237.94922 13404.35938 -130.82883 460
-8175.57471 13303.85156 128.43373 460
-8176.01172 13488.42480 -129.80627 460
-8120.15332 13392.49805 127.35282 460
-8878.58008 14630.89746 408.32965 402
-8117.84619 13581.41699 -130.34825 459
-8057.13770 13481.78027 129.28557 459
-8070.09082 13498.87891 388.56302 335
-8057.81201 13668.73047 -132.03275 458
-7995.81885 13571.09180 127.68207 459
-7979.30127 13536.44727 386.13644 479
-8008.26221 13780.57129 -133.62657 416
-7937.70752 13658.69629 127.21140 458
-7960.53613 13892.88379 -132.87164 415
-7879.25293 13751.11328 129.29111 457
-7882.17383 13753.69824 387.90289 382
-7920.33154 14018.67480 -138.12000 393
-7819.09082 13839.97754 126.62456 458
-7817.73486 13837.86719 387.12112 438
-7879.82715 14150.72461 -138.48938 392
-7765.31787 13945.23828 128.24597 416
-7754.14795 13933.30859 391.44870 437
-7836.35303 14277.16016 -137.49059 391
-7713.28516 14061.81055 125.93081 415
-7699.89697 14032.37891 392.78528 350
-7803.04590 14430.70703 -140.03767 364
-7667.48389 14178.33105 126.04182 414
-7814.37939 14664.76855 -146.89574 296
-7621.38477 14296.01172 126.25961 413
-7569.71631 14416.50879 126.06176 413
-7530.94482 14556.79590 129.22408 365
-7496.50781 14716.51562 126.42965 364
-7467.27002 14878.97266 125.96583 363
-7464.48486 15107.50586 130.17975 270
-19061.09766 58499.03906 9247.73730 1000
-3724.00806 37518.90234 -1728.19836 1000
-816.28217 12825.50586 -3315.54443 1000
453.02432 2296.20557 -20.74605 371
471.09341 2316.92920 -60.43266 386
464.78775 2281.69604 -19.57870 416
476.41287 2262.62109 -56.24300 365
477.31067 2267.56372 -19.06715 415
497.27121 2300.50464 -98.48601 381
486.75821 2240.66064 -54.73723 366
489.07788 2255.89209 -18.21636 373
506.15991 2270.58179 -95.57716 346
497.98254 2224.72510 -53.28288 443
501.77774 2246.40845 -17.61120 374
516.74542 2249.53125 -93.57561 435
509.73984 2211.87598 -52.43521 444
514.89154 2240.04614 -17.16681 310
528.08710 2235.42603 -92.18259 435
520.80627 2198.81738 -51.41051 445
527.49469 2229.74976 -17.27095 396
539.62579 2220.36816 -90.95304 436
532.31573 2186.08960 -50.96484 467
565.20508 2346.84766 -25.04957 365
550.60950 2207.20435 -89.80325 460
544.51306 2176.12354 -50.17759 468
581.20099 2350.87329 -25.56834 315
562.78845 2196.37573 -89.29616 461
556.00116 2166.24902 -49.66175 468
597.20557 2357.49341 -25.88341 321
574.59277 2185.92969 -88.47318 462
568.30688 2156.69067 -48.91028 469
612.72760 2357.84424 -26.27984 435
586.42865 2175.34448 -87.58643 462
579.85754 2147.12964 -48.64536 470
597.51520 2164.91675 -87.22134 463
591.39130 2137.70459 -47.88975 478
608.06342 2150.14136 -85.68620 318
603.27576 2130.04517 -47.86891 454
618.89862 2135.62646 -84.93108 318
615.60468 2122.34937 -47.06446 454
628.96106 2121.35132 -83.30613 319
627.00348 2114.47681 -46.96169 454
639.03394 2107.98706 -82.77416 418
639.30634 2107.00244 -46.52404 455
650.11829 2097.49512 -81.93504 419
650.59613 2099.59814 -46.34897 455
670.61835 2172.50439 -15.55661 390
661.94501 2088.64990 -81.41371 425
662.72565 2092.07690 -45.88890 459
683.06549 2165.43628 -15.05085 494
673.32080 2080.47778 -80.54903 425
674.66095 2085.03149 -45.69993 459
695.05359 2159.09937 -14.88600 495
684.36670 2071.70508 -79.96313 426
686.32025 2078.71826 -45.31908 389
707.36841 2152.49121 -14.65711 495
695.84570 2063.36255 -79.58173 429
698.79248 2072.82349 -45.07997 389
727.75830 2171.39453 -16.51060 495
707.40045 2055.71973 -79.23711 429
710.98804 2067.24536 -44.95532 391
743.32562 2175.37402 -16.63789 446
718.83032 2048.63794 -78.86184 491
723.22644 2062.27905 -44.89539 390
730.11322 2041.51807 -78.40945 491
735.35065 2056.97729 -44.76045 390
742.13721 2035.08020 -78.44894 494
747.79199 2051.78857 -44.78574 390
753.90405 2029.08374 -78.19196 494
759.84698 2046.43018 -44.24508 390
765.66492 2023.12158 -78.26163 494
771.65582 2040.35144 -44.45956 390
796.58325 2114.72998 -14.03348 338
777.46979 2016.99023 -77.50572 495
783.73499 2034.79797 -43.96076 390
806.33795 2100.68213 -13.46017 497
789.08905 2010.84656 -77.45101 495
794.95349 2028.08276 -43.72420 433
818.25092 2094.65137 -12.96592 497
833.82233 2138.90820 94.94235 399
800.75623 2005.05237 -77.62463 495
807.37408 2023.10693 -43.87598 433
855.72809 2159.94019 -18.34422 497
851.69073 2148.18140 19.93846 401
851.30426 2146.74902 57.73466 497
844.89856 2128.59351 95.13803 495
812.76752 1998.61731 -76.95680 495
819.88330 2018.00574 -44.02603 447
859.53418 2128.69067 20.99115 498
858.73657 2126.65332 95.08646 445
824.13446 1992.81982 -76.77477 495
832.51953 2014.13440 -43.63912 297
878.42163 2139.62427 94.72345 341
836.21802 1986.98889 -77.08567 496
844.82733 2009.62219 -43.92495 297
898.42303 2153.00586 94.64851 398
899.04834 2153.97241 132.39272 498
899.18701 2155.65698 169.57027 497
847.52545 1980.76416 -76.77022 496
856.79498 2005.03247 -44.08355 297
859.48254 1975.01917 -76.56870 496
869.17621 2000.85132 -44.01317 297
871.09198 1968.99231 -76.66129 496
881.58868 1996.20654 -43.99097 297
891.10883 2019.66687 -10.49959 498
882.61243 1962.82324 -76.28927 496
976.11536 2194.79834 -62.09964 380
903.02997 2014.06592 -10.02483 499
894.03381 1957.50378 -76.09821 496
903.24030 1978.98621 -43.42033 432
958.11322 2113.00781 -17.55635 270
906.09601 1951.30420 -76.39854 497
933.04193 2016.60608 -46.93871 389
917.45789 1945.19580 -76.30038 497
1004.84735 2150.71289 -59.41385 388
928.90546 1939.36279 -75.95782 497
1028.64478 2170.07471 -61.61062 380
940.24493 1933.46851 -75.79652 497
1041.95190 2163.41431 -61.49336 381
951.90417 1927.44556 -75.50083 497
963.39258 1952.35144 -43.01741 455
963.75696 1921.27515 -75.49555 497
975.61365 1948.48914 -43.57812 455
1053.51794 2119.19385 17.64889 367
1053.26770 2119.29810 55.73555 499
1045.54419 2101.83105 94.19905 499
975.31079 1915.65186 -75.46713 497
989.16077 1946.59570 -43.32729 442
986.74774 1909.75232 -75.42609 497
1003.41949 1944.77747 -43.92352 457
997.92206 1903.77808 -75.84757 497
1107.17383 2132.86646 -61.52173 381
1009.92438 1897.78955 -75.39175 497
1120.79626 2126.36060 -61.46035 381
1021.57745 1892.27026 -75.50162 497
1133.32092 2120.28052 -61.27962 381
1032.58484 1886.43530 -75.59711 497
1147.04163 2113.88989 -61.80967 381
1044.49585 1880.25122 -75.45764 497
1159.91602 2107.84741 -61.89853 381
1055.64075 1874.19666 -75.50907 497
1172.77966 2101.24365 -61.88413 381
1066.91589 1868.40198 -75.55249 497
1185.89148 2095.37061 -61.56157 380
1078.62488 1862.62891 -75.37427 497
1198.70825 2088.65674 -61.40100 380
1090.41028 1856.76050 -75.47213 497
1211.98132 2082.36548 -61.44292 380
1101.77917 1850.77576 -75.55788 497
1225.19910 2076.35278 -61.56476 380
1113.27161 1844.69519 -75.84503 497
1184.61975 1973.10925 -53.06711 382
1185.45044 1974.72742 -15.60645 382
1125.13843 1838.83179 -75.83501 497
1251.49219 2062.96313 -61.72396 380
1136.42346 1832.93152 -75.90597 497
1264.51758 2056.82056 -62.13686 380
1147.76709 1827.09253 -75.46937 497
1280.02759 2054.61670 -62.51419 317
1145.60071 1826.56836 -75.68639 482
1158.97583 1824.08777 -76.07767 481
1173.13220 1821.23926 -76.80456 481
1186.69397 1819.35901 -76.81290 480
1263.86694 1947.44714 -17.37195 499
1200.62317 1816.65576 -77.52359 480
1214.71765 1814.19421 -77.91407 479
1228.28247 1811.43408 -78.34819 491
1394.02063 677.51074 -61.93391 457
1398.33044 679.52527 -37.77298 457
1403.21948 682.07861 -14.00402 411
1407.98010 684.70264 10.09848 334
1395.90002 668.33820 -61.59350 499
1399.84546 670.12646 -37.46183 499
1403.96521 672.43292 -13.52203 496
1407.44141 674.21954 10.42514 496
1401.84509 661.14703 -61.69623 483
1406.84314 663.84473 -38.04509 445
1414.70715 667.27460 -14.29379 339
1417.20654 658.51422 -63.58648 316
11777.53613 2451.15186 1111.16309 1000
4396.98291 495.56161 -151.70462 297
4386.99023 467.47137 -151.64757 297
4603.51953 492.22879 -91.45548 452
4393.76611 442.50595 -152.27124 413
4592.18701 461.80093 -89.87849 453
4417.44482 417.38998 -153.58109 413
4580.44434 433.71524 -89.65849 453
4440.82373 392.42560 -154.41762 409
4568.69678 404.70917 -88.46185 454
4467.62354 367.43512 -155.55420 389
4557.72998 375.61258 -87.85837 453
4497.56006 343.49423 -158.19777 383
4546.08057 347.64111 -87.96384 454
4529.74951 318.22748 -160.25485 379
4535.40088 319.27887 -86.70560 476
4568.47656 293.46326 -162.27130 356
4544.22314 291.89908 -87.59517 408
4621.91309 268.72357 -165.91437 343
4582.89502 267.21045 -89.34288 384
4683.80176 244.74156 -169.94423 339
4641.29248 242.13498 -92.33807 349
4711.38965 217.49420 -94.88524 305
4772.84326 190.82115 -98.69018 337
4839.62207 164.70154 -102.18552 347
4908.09814 137.23990 -105.06985 347
3101.76611 -228.64706 -65.65674 474
3109.70093 -229.34171 -16.88970 473
3103.89990 -247.40582 -66.04852 419
4004.69678 -965.57678 -65.60597 442
4899.01953 -1440.25122 -32.19711 355
4856.34766 -1458.91565 -31.90613 471
4835.54834 -1485.46399 -30.53382 478
4814.70361 -1511.06787 -31.10179 462
4794.42578 -1536.28333 -29.69417 465
4776.06738 -1562.32776 -29.09717 429
4758.81201 -1587.96777 -29.32938 435
4741.28662 -1613.34888 -29.95551 438
4725.44531 -1639.86938 -29.03148 439
4707.53564 -1666.47791 -29.17887 413
4836.21924 -1711.98645 49.52382 492
4813.78613 -1703.79749 132.07651 284
4693.23730 -1692.56287 -28.36259 415
4729.49756 -1706.02405 50.55241 339
4735.49023 -1707.80518 132.19304 425
4678.09961 -1719.77246 -28.36513 416
4707.36914 -1729.88977 51.67675 499
4720.57422 -1735.04370 131.67703 411
4662.20752 -1745.22156 -27.97774 416
4695.59863 -1758.20752 51.19013 499
4708.35791 -1763.92078 132.44965 425
4648.59570 -1772.02441 -28.17273 443
4683.04004 -1786.56445 51.04703 499
4695.32861 -1790.69519 131.25166 425
4634.71143 -1798.59058 -27.86305 443
4666.74414 -1811.54565 51.46670 499
4681.12695 -1818.29712 131.88321 425
4620.99316 -1826.51355 -27.54077 444
4654.73242 -1839.13184 51.42979 499
4668.18750 -1844.60193 131.24265 425
4607.67969 -1852.77966 -28.52241 444
4642.37256 -1867.10925 51.61847 499
4654.40918 -1872.36658 131.74733 426
4595.22607 -1879.79907 -27.48235 476
4636.08643 -1898.14136 51.71886 499
4624.09766 -1892.31238 131.76019 479
4582.78369 -1908.25513 -28.18243 476
4624.62402 -1925.90955 50.88388 391
4611.42236 -1919.98096 131.47151 482
4570.58838 -1934.78784 -27.84960 474
4613.75244 -1952.99365 50.90687 499
4600.89014 -1948.75171 131.58253 482
4711.26562 -1996.11584 214.82608 434
4557.35400 -1962.01978 -28.33871 474
4601.67969 -1980.73999 50.73106 499
4602.26318 -1981.05054 132.31134 426
4695.08691 -2021.77222 214.52545 464
4545.10352 -1989.56726 -27.76352 498
4534.05176 -2017.40991 -27.35088 498
4704.67139 -2094.63745 215.17282 463
4693.84717 -2089.88013 297.43195 455
4522.08740 -2045.26599 -27.21580 498
4674.41357 -2115.36523 214.31137 329
44197.37891 -20691.21680 -3063.62134 1000
4510.69385 -2072.95581 -27.61156 497
4501.87500 -2100.99097 -28.29312 499
4487.72949 -2128.19263 -27.96787 499
4478.63623 -2156.96460 -27.97884 499
4467.25684 -2184.66260 -27.59218 499
4740.45557 -2321.88110 46.84032 388
4452.96094 -2210.53125 -27.95875 499
4726.47803 -2350.46851 47.12529 487
4443.48633 -2240.18872 -28.87454 499
4477.79004 -2257.52979 51.39674 487
4430.43945 -2267.25195 -28.57003 499
4464.75684 -2285.80811 50.98639 486
4417.42969 -2293.96997 -27.81099 496
4514.51221 -2346.12329 50.64462 492
4453.85889 -2347.42114 -30.54305 498
4492.94678 -2369.09644 49.90981 492
4491.18750 -2403.31812 -32.57508 431
4472.12842 -2392.71851 50.75825 489
4466.30029 -2423.88037 49.40425 485
3115.52124 -2314.18115 7.37808 476
2266.94580 -2107.83374 32.55554 365
2224.53491 -2092.55396 34.36017 346
2193.28906 -2086.67627 35.02042 366
2213.52612 -2107.53662 83.20819 375
2158.33569 -2077.50171 36.05005 366
2187.68848 -2106.84277 83.52798 420
2123.66089 -2067.61987 37.48892 367
2184.70825 -2130.04004 82.88027 461
2089.90381 -2058.71851 38.54516 368
2178.91577 -2150.72827 82.82847 461
2057.29883 -2049.50269 38.81283 369
2169.74805 -2167.12207 82.60319 436
2024.44287 -2040.56812 40.40932 370
2179.52808 -2204.85596 82.31540 461
1992.86414 -2031.88684 41.40017 368
2173.45166 -2225.27881 82.29852 461
1962.71423 -2024.35950 41.71960 360
1967.26721 -2028.74109 87.04186 387
1932.04797 -2015.89807 42.58958 362
1938.57654 -2022.66016 87.52197 389
1901.55176 -2007.05359 43.39425 363
1909.70215 -2015.93958 88.06258 390
1873.60461 -2000.12622 44.22366 364
1881.20752 -2009.16089 88.17180 391
1848.30432 -1996.48901 44.86488 388
1855.66992 -2004.60779 88.02702 427
1824.94446 -1994.43750 45.40125 392
1832.24207 -2003.17615 88.46822 428
1802.60754 -1993.49475 46.22526 398
1815.98364 -2009.07324 88.94081 484
1781.88745 -1993.41919 46.41312 382
1801.22803 -2016.60522 89.15485 486
1762.02136 -1994.18323 46.94194 391
1795.28674 -2034.73865 88.55844 435
1741.76416 -1995.99646 47.17408 378
1789.70630 -2053.44165 88.63622 434
1723.69214 -1998.03760 47.79193 368
1784.26465 -2072.35889 88.11275 433
1705.15161 -2000.51880 47.69381 391
1886.40503 -2225.06689 85.21073 448
1688.21741 -2003.91077 48.03647 386
1876.13098 -2240.68408 85.27666 496
1671.34595 -2008.06323 48.21350 386
1782.51770 -2150.34937 87.15333 389
1654.67419 -2012.50916 48.60440 337
1759.54419 -2148.17603 87.91008 490
1638.07751 -2016.47046 49.18367 432
1749.21594 -2161.98755 87.88496 489
1621.43298 -2019.77234 49.01440 433
1739.23340 -2175.83643 87.59874 489
1604.88831 -2024.37903 49.63033 437
1728.69141 -2189.57861 87.41725 372
1589.27380 -2028.90283 49.68245 438
1696.50061 -2175.11938 87.55448 259
1573.72461 -2033.67834 49.95608 448
1674.89758 -2173.09082 87.78234 259
1558.36450 -2038.74341 49.95652 462
1543.23022 -2044.07190 50.33787 475
29807.85742 -41980.87891 2658.20825 1000
1532.67993 -2054.73438 49.96159 415
19107.31641 -35651.01953 6099.02295 1000
11306.89941 -37952.42969 -7766.69336 1000
10798.86426 -37069.50000 -8227.79199 1000
12.05395 -3108.41895 130.69579 435
-3336.63574 -54383.37891 -14501.72852 1000
-4252.48389 -57623.14844 99.98382 1000
-259.16751 -2453.84863 131.02007 478
-258.98608 -2452.00366 171.20288 479
-258.27036 -2450.48315 211.60995 498
-258.51324 -2448.93018 252.32341 498
-258.16330 -2448.12939 292.82278 493
-257.81625 -2446.56470 333.32089 493
-6868.69238 -32592.85938 1206.47375 1000
-534.22980 -1782.87292 100.01717 498
-533.98615 -1781.67444 131.15891 498
-533.25208 -1780.36597 162.39551 498
-532.76849 -1779.10815 193.18356 498
-532.37317 -1777.73596 223.83006 498
-532.00525 -1776.61572 255.00740 477
-531.73016 -1775.44727 285.59354 477
-531.49982 -1774.26855 316.59473 477
-25805.22852 -31004.90625 -3191.44116 1000
-2395.41089 -1096.21033 132.06248 411
-2404.06274 -1100.27356 176.91786 345
-2396.38599 -1078.94604 131.51315 496
-2403.28784 -1081.88770 176.48318 476
-2412.15552 -1085.55127 221.52116 372
-2417.95850 -1069.44214 131.61440 303
90.15329 -2.95354 128.22882 371
89.81831 -3.04402 128.38771 310
88.78208 -3.31865 128.38521 306
90.25822 -2.85020 128.24911 372
89.85011 -2.95711 128.38551 310
88.81279 -3.22623 128.38646 306
90.35948 -2.74816 128.26740 373
89.88013 -2.86877 128.38765 310
88.84138 -3.13372 128.38629 306
90.45988 -2.64885 128.28740 374
89.91101 -2.78330 128.38548 310
88.87290 -3.03962 128.38628 306
87.67571 -3.33703 128.38795 302
90.55873 -2.54876 128.30450 376
89.94382 -2.69718 128.38678 310
88.90198 -2.94667 128.38716 306
87.70397 -3.23472 128.38811 302
90.65695 -2.45040 128.32353 377
89.97522 -2.61046 128.38753 310
88.93108 -2.85344 128.38745 306
87.73202 -3.13369 128.38687 302
90.75332 -2.35356 128.33923 378
90.00716 -2.52342 128.38588 310
88.96390 -2.75873 128.38583 306
87.76153 -3.03431 128.38678 302
90.85154 -2.25807 128.35768 379
90.04039 -2.43443 128.38695 310
88.99684 -2.66772 128.38728 306
87.79273 -2.93134 128.38510 302
90.94631 -2.16082 128.37457 381
90.07590 -2.35012 128.38647 310
89.02757 -2.57118 128.38586 306
87.82239 -2.83067 128.38579 302
91.02881 -2.07123 128.38666 314
90.10970 -2.26060 128.38657 310
89.06282 -2.48009 128.38557 306
87.85426 -2.72992 128.38634 302
87.02188 -2.68212 128.38753 298
91.06402 -1.98786 128.38759 314
90.14366 -2.17428 128.38615 310
89.09449 -2.38451 128.38780 306
87.89004 -2.62776 128.38770 302
86.48132 -2.91125 128.38557 298
91.10007 -1.90724 128.38614 314
90.18022 -2.08512 128.38539 310
89.13010 -2.29159 128.38777 306
87.92177 -2.52543 128.38777 302
86.51505 -2.80348 128.38704 298
91.13736 -1.82495 128.38647 314
90.21548 -1.99826 128.38759 310
89.16438 -2.19590 128.38531 306
87.95486 -2.42526 128.38730 302
86.54725 -2.69305 128.38681 298
91.17716 -1.74258 128.38773 314
90.25362 -1.91111 128.38565 310
89.19905 -2.10291 128.38673 306
87.98860 -2.32497 128.38701 302
86.57860 -2.58067 128.38705 298
91.21477 -1.66098 128.38573 314
90.29012 -1.82244 128.38640 310
87.99713 -2.22700 128.09332 352
87.99653 -2.22501 128.37978 353
86.61097 -2.47189 128.38602 298
91.25381 -1.57937 128.38666 314
90.32742 -1.73695 128.38795 310
87.77777 -2.16713 128.03465 351
87.77642 -2.16944 128.32465 351
86.64820 -2.35914 128.38817 298
91.29218 -1.49698 128.38564 314
90.36662 -1.64885 128.38641 310
87.55258 -2.10707 127.97106 350
87.55188 -2.10639 128.26874 350
86.68281 -2.24810 128.38541 298
91.33231 -1.41558 128.38690 314
90.40563 -1.56065 128.38608 310
87.31556 -2.04566 127.90906 348
87.31602 -2.04439 128.20961 349
86.71912 -2.13801 128.38640 298
91.37233 -1.33178 128.38699 314
90.44380 -1.47193 128.38741 310
87.12341 -1.97182 127.85363 445
87.12444 -1.97355 128.15851 446
86.75298 -2.02708 128.38614 298
91.41228 -1.24903 128.38658 314
90.48438 -1.38418 128.38707 310
87.03156 -1.88270 127.82128 445
87.03468 -1.88273 128.13164 445
86.79039 -1.91860 128.38733 298
91.45362 -1.16819 128.38649 314
90.52422 -1.29700 128.38556 310
86.93961 -1.79016 127.79224 444
86.94204 -1.79174 128.10284 444
86.82719 -1.80681 128.38629 298
-25469.63672 -3534.58984 3530.66528 1000
91.49462 -1.08603 128.38539 314
90.56583 -1.20818 128.38628 310
86.95924 -1.68280 127.78763 306
86.84949 -1.69719 128.07285 443
86.84777 -1.69575 128.38428 444
91.53780 -1.00279 128.38768 314
90.60679 -1.11861 128.38586 310
86.99637 -1.57275 127.78938 306
86.75378 -1.60281 128.04597 442
86.75506 -1.60553 128.35654 443
91.57332 -0.91957 128.38452 474
90.64803 -1.03093 128.38722 310
87.03526 -1.46174 127.78762 306
86.65644 -1.50747 128.01497 442
86.66009 -1.50667 128.32721 442
85.26734 -1.67505 128.38737 294
91.59614 -0.83963 128.37886 474
90.69250 -0.94260 128.38573 310
87.07737 -1.35365 127.78954 306
86.56292 -1.40941 127.98512 441
86.55978 -1.40816 128.30061 441
85.30698 -1.55307 128.38858 294
91.61777 -0.75950 128.37291 475
90.73390 -0.85351 128.38737 310
87.11927 -1.24109 127.78814 306
86.46159 -1.30969 127.95441 440
86.45992 -1.31262 128.27469 440
85.34699 -1.43192 128.38663 294
91.63837 -0.67824 128.36612 475
90.77930 -0.76552 128.38574 310
87.15969 -1.13015 127.78600 306
86.36251 -1.21324 127.92363 439
86.36113 -1.21176 128.24609 439
85.38684 -1.30792 128.38614 294
91.66031 -0.59907 128.36044 476
90.82250 -0.67647 128.38771 310
87.20249 -1.01986 127.78564 306
86.29233 -1.10651 127.89939 490
86.29197 -1.10622 128.22379 491
85.42950 -1.18609 128.38698 294
91.68211 -0.51789 128.35463 476
90.86749 -0.58980 128.38547 310
87.24617 -0.90805 127.78712 306
86.26109 -0.99540 127.88362 490
86.26269 -0.99807 128.20766 491
85.47052 -1.06528 128.38571 294
91.70438 -0.43522 128.34952 477
90.91283 -0.50146 128.38683 310
87.28793 -0.80058 127.78807 306
86.23373 -0.88588 127.86787 490
86.23495 -0.88484 128.19417 491
85.51405 -0.94287 128.38678 294
91.72469 -0.35385 128.34265 477
90.95767 -0.41120 128.38753 310
87.33189 -0.68707 127.78864 306
86.20155 -0.77396 127.85228 490
86.20274 -0.77136 128.18036 490
85.55817 -0.82145 128.38686 294
91.74718 -0.27223 128.33533 478
91.00351 -0.32369 128.38560 310
87.37748 -0.57885 127.78922 306
86.17360 -0.66228 127.83598 489
86.17155 -0.66228 128.16611 490
85.60349 -0.70094 128.38567 294
91.76988 -0.18814 128.32889 478
91.05154 -0.23598 128.38542 310
87.42410 -0.46465 127.78599 306
86.14261 -0.54903 127.81854 489
86.14264 -0.54558 128.14737 490
85.64842 -0.57820 128.38606 294
91.79228 -0.10684 128.32219 479
91.09923 -0.14773 128.38713 310
87.46751 -0.35553 127.78883 306
86.11020 -0.43332 127.80577 489
86.11099 -0.43356 128.13258 490
85.69332 -0.45779 128.38696 294
91.81349 -0.02302 128.31360 479
91.14615 -0.05603 128.38669 310
87.51752 -0.24315 127.78596 306
86.08591 -0.31918 127.78757 302
86.08053 -0.31764 128.11961 489
85.74218 -0.33764 128.38573 294
91.80511 0.05934 128.29913 485
91.19522 0.03128 128.38789 310
87.56284 -0.13208 127.78751 306
86.13142 -0.19843 127.78703 302
86.05003 -0.20248 128.10216 489
85.79085 -0.21328 128.38763 294
91.78484 0.14129 128.28081 485
91.24352 0.12013 128.38759 310
87.61126 -0.02256 127.78570 306
86.17702 -0.07903 127.78658 302
86.01849 -0.08561 128.08884 489
85.83682 -0.09037 128.38834 294
91.76013 0.22475 128.25996 485
91.29561 0.20827 128.38657 310
87.66030 0.08918 127.78709 306
86.22934 0.04234 127.78633 302
86.00559 0.03256 128.07559 484
85.88564 0.02848 128.38669 294
91.73880 0.30815 128.24265 484
91.34322 0.29747 128.38559 310
87.70869 0.19974 127.78815 306
86.27946 0.16158 127.78723 302
86.03616 0.15767 128.07266 485
85.93746 0.15316 128.38831 294
91.71633 0.39257 128.22267 484
91.39587 0.38461 128.38612 310
87.75896 0.31184 127.78796 306
86.32900 0.28019 127.78883 302
86.06933 0.27685 128.06792 485
85.98440 0.27417 128.38574 294
91.69345 0.47892 128.20177 484
91.44774 0.47501 128.38649 310
87.81187 0.42336 127.78673 306
86.37720 0.40056 127.78920 302
86.10372 0.39796 128.06201 485
86.03773 0.39766 128.38538 294
91.67098 0.56437 128.18187 483
91.49940 0.56274 128.38737 310
87.86456 0.53281 127.78903 306
86.43126 0.52086 127.78938 302
86.13720 0.51928 128.06201 486
86.09071 0.51545 128.38609 294
91.64702 0.64985 128.16235 483
91.54923 0.65100 128.38571 310
90.48450 0.64936 128.38560 306
86.48286 0.63821 127.78582 302
86.16639 0.64116 128.05603 486
86.14185 0.64185 128.38449 294
