# .PCD v.7 - Point Cloud Data file format
VERSION .7
FIELDS x y z rgb
SIZE 4 4 4 4
TYPE F F F U
COUNT 1 1 1 1
WIDTH 663
HEIGHT 1
VIEWPOINT 4169.855469 -4091.026123 129.851349 -0.002622 -0.125696 0.006499 0.992044
POINTS 663
DATA ascii
-277.86658 58.30558 33.38208 319
-271.52307 59.59299 34.97889 320
-285.98935 61.98925 37.75266 323
-266.61404 61.03657 36.18319 350
-281.24261 63.48967 38.87489 346
-297.51624 66.32140 41.47038 341
-264.71500 62.87514 36.58848 350
-279.32254 65.46067 39.18092 344
-295.63794 68.36115 41.85361 340
-262.80310 64.83319 37.03400 351
-277.48056 67.46928 39.61663 345
-260.89972 66.68645 37.46851 351
-277.66022 69.86600 39.47276 321
-259.51282 68.66580 37.76606 324
-279.50995 72.62209 38.88613 318
-261.28568 71.22775 37.10466 321
-263.23993 73.89040 36.43987 321
-61344.83984 12883.27832 -14375.71484 1000
-268.47552 77.23955 34.95044 261
-883.44611 379.47708 185.49625 1000
-53028.33203 42326.40234 -16756.57422 1000
-39717.85938 33347.33203 -3183.11621 1000
-290.83798 1948.95728 -28.71404 323
-276.81207 1939.67896 -27.78775 485
-277.60901 1944.90039 3.97422 485
-278.42050 1950.35754 36.53572 497
-265.12134 1942.56787 -27.95829 487
-266.42957 1949.84827 4.01805 451
1192.61011 15441.78906 -114.35183 469
1186.35010 15347.13770 136.12299 484
1285.06445 15403.13184 -114.55780 469
1278.37354 15315.05957 137.99010 487
1376.59753 15364.45508 -115.24107 476
1372.37634 15281.68848 137.46393 487
1471.93335 15335.46094 -114.48789 476
1462.31628 15250.22266 139.76073 488
228.75975 1454.16797 -10.74107 438
229.40459 1460.83264 12.73766 379
1563.27185 15303.19043 -112.98035 477
1555.67480 15217.99121 135.86461 489
237.23207 1447.99915 -10.25700 498
237.75482 1451.87231 13.53348 479
237.97418 1456.13184 37.20945 479
238.32861 1460.34644 60.72950 448
1652.64319 15272.45410 -114.82648 477
1644.36462 15185.18359 139.00922 489
245.97304 1447.40613 -10.33626 492
246.58575 1451.58337 13.46286 492
247.13220 1456.33936 37.18289 464
247.44099 1461.55701 60.60607 419
1745.59668 15240.86621 -115.17479 477
1735.02197 15154.32715 136.73439 489
255.73015 1452.76538 -10.84995 411
1836.15002 15209.53711 -115.04798 478
1828.40308 15124.08008 139.33543 489
1927.92786 15181.38574 -112.53002 478
1919.46655 15095.91602 135.59328 490
2020.67529 15150.11816 -114.98040 478
2007.55811 15063.94336 138.38144 490
2107.08521 15118.52441 -111.00879 478
2097.10156 15033.84863 137.72655 490
2200.53638 15087.92285 -113.21415 479
2187.48413 15001.26562 136.85919 491
2288.15405 15056.75000 -110.73553 479
2278.02100 14971.22754 137.24753 491
2379.28931 15028.34082 -111.61226 479
2367.34668 14944.56738 136.01144 491
2470.47656 14996.10352 -113.41248 479
2455.86548 14910.60938 134.48019 492
2557.42261 14965.25488 -112.92658 480
2542.25781 14883.80957 138.34700 492
2645.33960 14934.93652 -110.69817 480
2634.45483 14852.07715 135.67421 492
2738.34888 14904.83105 -110.36497 480
2720.88184 14824.06641 138.19075 492
2823.81567 14874.95898 -113.47837 480
2811.29614 14792.35156 136.10640 493
2912.22485 14848.27539 -110.56599 480
2896.18750 14760.63184 134.88950 493
3000.93945 14817.58789 -110.18990 481
2987.69263 14731.71777 135.29973 493
3091.63989 14788.16504 -113.04950 481
3075.10205 14704.07324 134.72217 493
3179.55078 14758.76270 -109.70343 481
3163.59961 14672.08789 134.40953 493
9525.34570 45037.12109 9295.52246 1000
3269.90601 14726.82031 -109.83377 481
3251.40503 14644.35156 136.34656 494
3355.04932 14695.67480 -112.63477 481
3338.97656 14613.93066 134.44119 491
3444.48486 14668.02051 -109.63083 482
3425.49561 14584.66406 134.96689 491
3532.10010 14636.35645 -110.03110 482
3513.62915 14554.55664 135.89777 491
3618.38550 14610.69434 -112.00420 482
3597.67114 14526.17578 135.64606 491
3707.08936 14580.43945 -109.14992 482
3688.29004 14497.08594 136.92407 491
3793.12231 14549.60840 -112.02935 482
3774.95605 14466.54004 133.55188 491
3883.43652 14520.21973 -111.71325 482
3861.19214 14436.03418 135.69926 491
3971.07202 14492.57227 -111.32764 482
3949.13989 14407.83301 133.56720 491
4056.31885 14460.46875 -109.44698 482
4035.75464 14377.77539 135.15616 491
4143.24756 14433.23828 -108.86134 482
4120.39404 14351.29297 134.59447 492
4232.73242 14400.65234 -112.00787 482
4207.93311 14319.81348 133.45222 492
4319.89648 14372.16602 -111.73011 483
4294.86377 14291.65625 132.71779 492
4407.19482 14342.79395 -110.92480 483
4382.14600 14261.48047 132.54123 492
4590.21680 14953.42578 391.93002 494
4589.96191 14953.05664 645.13251 494
4491.83154 14312.38184 -111.74993 483
4467.51172 14233.72949 136.47578 492
4475.92139 14263.67871 380.09204 387
4673.50781 14904.46094 646.05627 494
4581.02979 14283.28809 -111.81171 483
4556.62061 14205.20312 133.67612 492
4561.31299 14230.18555 377.99832 387
4762.66797 14859.36133 645.18567 494
4668.92041 14254.11621 -111.07751 483
4641.95996 14175.41309 133.28798 492
4646.19092 14196.90918 378.57025 387
4846.83301 14812.87305 644.83093 494
4755.46582 14224.27441 -111.58025 483
4727.72705 14143.88379 135.41389 492
4731.66309 14162.31934 379.34167 438
4929.22070 14763.64258 641.50000 495
4841.73340 14197.94141 -111.34604 483
4813.81201 14114.24316 136.17546 492
4822.14941 14134.85840 377.65781 431
5015.34473 14715.34570 642.62958 495
4930.41895 14167.35840 -109.73223 483
4901.33008 14086.63965 136.28200 492
4909.16309 14104.72266 380.00293 431
5099.11963 14670.60449 641.86353 495
5014.51807 14137.69922 -112.36557 483
4987.16602 14058.04004 132.23763 492
4994.75977 14079.72266 376.68192 431
5185.63037 14622.72266 640.60486 496
5102.82031 14107.43066 -111.57210 483
5075.50684 14030.00098 134.61052 492
5084.09277 14049.66504 378.96320 431
5270.15918 14576.18555 640.56238 496
5191.06787 14078.80664 -110.34930 483
5162.61182 13999.84082 134.16428 492
5353.48877 14530.29199 385.31390 499
5356.13086 14535.78320 638.61426 499
5275.01025 14049.47656 -113.02649 481
5248.60449 13971.18359 135.81914 492
5441.02393 14500.84180 389.02863 499
5445.91309 14503.54883 640.21851 499
5365.22998 14022.60059 -113.06061 481
5334.56934 13941.97070 133.76060 492
5531.23242 14466.26270 386.85870 499
5533.00488 14469.31543 639.89441 499
5450.33447 13993.07520 -112.17089 481
5422.57568 13911.29492 134.28731 492
5623.35449 14436.61328 386.99390 499
5621.67285 14438.94629 638.60712 499
5540.06787 13963.46484 -111.55772 481
5508.95947 13884.52051 133.44801 492
5710.33936 14403.06152 385.85355 481
5712.45850 14408.48340 639.04254 499
5626.44434 13934.19629 -110.82124 481
5593.08008 13855.14258 132.18602 492
5784.57764 14332.57715 386.22427 482
5800.27246 14376.99023 641.18713 499
5713.39600 13902.56641 -111.72894 481
5683.29492 13824.31445 134.75058 491
5860.33301 14262.93262 385.46686 483
5889.34570 14341.56348 642.02045 499
5798.71094 13875.77539 -110.28333 481
5768.37158 13792.96777 135.61833 491
5932.12695 14191.33887 385.60107 483
5979.12354 14312.38574 639.28778 499
5888.63281 13843.07324 -110.19766 481
5855.69629 13766.92090 131.74725 491
6005.68701 14123.11914 383.36258 484
6029.46533 14178.94238 634.68292 496
5975.85498 13813.30371 -112.18181 481
5940.54785 13734.92676 134.56427 491
6077.36182 14056.46484 384.36099 484
6118.41553 14150.43359 637.72131 497
6064.29346 13783.60449 -114.00991 480
6030.19531 13707.28809 132.34146 491
6151.74316 13988.13477 383.52539 485
6207.79443 14120.15234 635.67468 497
6267.52393 14258.02148 895.10748 498
6149.86670 13754.73340 -112.36966 480
6118.47803 13677.18262 133.49666 491
6230.73438 13937.95410 382.06647 499
6295.08105 14084.68359 639.03278 492
6359.68408 14224.73828 898.70001 498
6421.98047 14370.86035 1162.82007 482
6237.12109 13727.77734 -114.71944 480
6204.37500 13649.78906 133.01344 491
6320.96045 13906.24414 381.82141 499
6386.02979 14051.48926 636.52747 492
6448.54492 14192.70117 895.30499 498
6508.22803 14321.64648 1160.74146 475
6327.87939 13698.86914 -111.01448 480
6290.47998 13619.65723 133.49936 491
6408.44238 13875.98730 381.87109 499
6474.70947 14019.47852 636.25836 492
6538.60645 14161.35840 896.45819 469
6415.50537 13668.28125 -112.24884 480
6378.79834 13589.75098 134.28479 490
6497.09082 13844.46289 384.55161 498
6603.19531 14073.81152 639.85107 469
6602.29102 14071.64160 896.48010 469
6619.71875 14110.21387 1150.33398 372
6501.60205 13636.97461 -115.05196 480
6468.29248 13558.61426 132.01192 490
6585.72461 13813.66797 380.84955 498
6667.01270 13988.91699 638.93182 470
6665.89941 13985.07617 891.53662 470
6680.80273 14014.09863 1146.78345 373
6592.70557 13610.16895 -114.09422 480
6552.53418 13529.09375 131.59389 490
6674.21729 13778.63086 381.79422 498
6732.19336 13901.71387 638.39160 471
6732.25537 13899.85449 890.25171 471
6739.49316 13919.40234 1144.02612 373
6680.84424 13580.45703 -113.96146 479
6640.23926 13498.89258 134.29575 490
6643.49072 13503.79102 377.28503 295
6796.13379 13816.28320 634.81702 472
6794.72119 13814.60938 888.42206 471
6799.94971 13823.63574 1142.30225 374
7140.68994 14530.11816 1455.81213 371
7146.85742 14543.64844 1727.32666 280
6768.12012 13548.71875 -113.18017 479
6731.66406 13468.92871 134.68196 490
6726.78711 13460.93262 379.63818 301
6872.78467 13763.96387 636.31964 498
6877.35107 13764.76270 885.72430 497
6877.84912 13776.13379 1140.12170 390
7025.15967 14072.34473 1420.58289 478
6856.47119 13517.86426 -115.30490 479
6816.62500 13440.18555 133.15466 490
6809.57422 13419.89160 379.40829 301
6961.50830 13731.61328 634.15112 497
6959.46436 13720.48633 888.37427 306
6967.29102 13740.02734 1138.38513 390
7054.16357 13915.79590 1410.85437 474
7057.37207 13922.60645 1664.14429 473
7062.74854 13928.87500 1923.85437 345
6944.17041 13491.18555 -115.75374 479
6906.35889 13411.60742 133.35788 489
6893.87354 13382.37402 380.60434 422
7040.37354 13671.17188 634.51227 497
7038.80322 13671.95605 884.39008 497
7055.59229 13706.16113 1141.10938 390
7208.57910 14003.86133 1418.89294 478
7033.61133 13461.04785 -114.22639 479
6993.67090 13383.45801 130.82033 489
6977.85986 13349.34082 378.92822 422
7126.56836 13639.11816 633.28876 497
7130.51172 13641.94629 889.30957 497
7146.55371 13672.30078 1139.40613 497
7271.85107 13918.87402 1418.16064 467
7126.19873 13428.68555 -115.27325 478
7081.94531 13350.32520 134.16603 489
7066.48486 13318.57129 378.63382 422
7215.85010 13607.36719 635.08063 497
7217.22217 13612.15527 885.64117 497
7237.08740 13639.38574 1143.91736 496
7387.78857 13933.60547 1424.06921 469
7213.36475 13400.74316 -114.01727 478
7170.78027 13323.54980 130.68030 489
7154.53955 13287.03906 377.55481 422
7306.26758 13575.66016 636.99512 497
7307.19043 13580.27246 888.55127 496
7324.72021 13607.83887 1140.97961 496
7479.48730 13904.34082 1423.39258 469
7303.92041 13368.12695 -116.50397 478
7260.17822 13291.70996 134.83546 488
7238.78027 13252.66699 377.21140 461
7398.14551 13545.62695 635.62714 496
7400.38672 13548.18555 890.47906 496
7413.41357 13577.99707 1143.15259 496
7571.83252 13867.70898 1426.43738 468
7393.26367 13339.62402 -116.91628 478
7352.81787 13261.20117 132.85947 488
7327.93945 13222.04395 379.37131 444
7486.83936 13509.90430 635.35034 496
7489.17578 13512.61328 888.27356 496
7506.38086 13545.80078 1146.13660 496
7663.21777 13835.19043 1424.03882 468
7483.33447 13308.71094 -115.50407 477
7439.82959 13230.02734 130.73064 488
7420.93359 13192.12402 378.57230 444
7578.66260 13478.71875 636.30493 496
7580.38721 13483.81445 888.36523 496
7594.98389 13512.51367 1144.86597 495
7757.36621 13800.31836 1426.02173 468
7572.91553 13280.48047 -116.53812 477
7528.72314 13201.16992 131.79683 488
7507.68701 13162.65527 381.93463 444
7683.08252 13471.68652 637.63519 496
7682.39697 13477.19238 891.80383 495
7576.23633 13287.11133 1133.64600 390
7850.01416 13768.46191 1426.63306 468
7662.12305 13247.19922 -117.41949 477
7619.68750 13170.01953 132.80191 487
7598.59180 13137.58398 380.03012 443
7774.82471 13438.30762 639.87402 495
7776.70801 13442.15039 891.53436 495
7607.36523 13148.95703 1123.48633 495
7943.06250 13733.55664 1428.23669 468
7753.85693 13220.17285 -118.82479 477
7707.93506 13139.94336 130.87326 487
7688.71191 13101.85156 378.43246 374
7829.76904 13350.12891 637.95038 334
7821.02686 13327.24023 891.60205 312
7697.24658 13120.50000 1127.58362 495
8032.09326 13701.37207 1431.33606 467
7844.99365 13187.67383 -104.53901 476
7797.64355 13109.45410 145.58974 487
7775.78467 13069.09961 393.52850 374
7876.46729 13238.81738 649.68829 424
7832.51367 13166.58105 899.76953 491
7786.29639 13082.58496 1140.93970 494
8128.53760 13664.65137 1449.20557 470
7933.68408 13158.66309 -103.78249 476
7892.00977 13078.53711 148.47667 486
7865.87207 13036.31348 393.97714 493
8048.51465 13340.94336 657.69257 495
8049.72168 13345.04980 911.79419 494
7875.72754 13051.52344 1143.49963 494
8223.24023 13628.61133 1447.16882 470
8027.77783 13125.06836 -102.66168 476
7982.17529 13048.00488 146.83716 486
7955.29150 13005.58203 393.62982 492
8137.09619 13307.23340 657.53827 494
8142.14795 13310.27246 912.72583 494
7965.05762 13019.79297 1142.63916 494
8320.35840 13600.68457 1450.06909 440
8120.22510 13095.11133 -105.97165 475
8072.51758 13018.90430 146.99860 486
8045.96826 12976.31055 395.03613 492
8238.23633 13285.91602 657.27521 429
8244.55078 13293.47266 911.22888 429
8264.90625 13328.41699 1170.29199 344
8432.98242 13596.94629 1454.60913 441
8210.14941 13067.13086 -103.48489 475
8164.42578 12987.75391 145.52069 485
8137.25342 12946.17090 394.78806 492
8368.42090 13313.62695 661.07556 457
8375.27441 13322.02051 919.41730 428
8394.02441 13351.61230 1176.97449 344
8300.63965 13035.28516 -104.80003 475
8252.33105 12958.27246 144.45126 485
8227.09863 12912.87695 396.76083 491
8479.44043 13308.91016 663.50372 456
8506.69141 13350.53809 922.00397 427
8522.27637 13373.91016 1183.02405 350
8394.30664 13002.99902 -105.34023 474
8345.37402 12926.32227 144.24750 485
8317.36035 12884.11035 395.84177 491
8595.02832 13309.08203 662.77069 455
8631.16602 13365.47461 926.65948 454
8652.52539 13397.70020 1186.84326 342
8489.88281 12974.60254 -107.36924 474
8438.16406 12896.48535 144.65913 484
8410.97949 12850.47168 394.90897 491
8705.55762 13305.83594 665.08130 455
8747.19727 13365.35156 929.03790 454
8583.05469 12940.26562 -109.69262 474
8530.25977 12864.39062 143.99321 484
8504.25879 12819.09961 395.68826 490
8821.08496 13306.17871 667.36108 454
726.30292 958.67792 0.71854 432
728.65344 962.16028 19.53127 431
731.77411 966.76575 38.00759 370
8674.08203 12909.58203 -108.40901 473
8621.61621 12834.13574 143.60904 484
8594.09375 12788.70801 396.31482 490
8984.00293 13369.19434 671.36475 438
730.29791 951.83942 1.00273 497
732.16644 954.58179 19.95570 476
734.20264 957.32007 38.65457 476
736.07526 960.06885 57.42311 475
738.17548 963.14319 75.99355 432
8768.93359 12880.00879 -109.50559 473
8715.31543 12801.21289 143.62163 483
8688.86816 12757.02734 394.99661 489
735.85046 947.85522 1.28054 494
737.83063 950.48041 19.83659 494
739.73328 953.04041 38.65524 494
741.65973 955.66937 57.24067 494
743.42346 958.45551 76.09409 467
8810.78809 12769.07129 142.39604 483
8781.99707 12725.22266 397.68695 489
743.21997 946.11786 0.73021 467
745.45715 949.15851 19.32582 418
748.09375 952.88361 38.05857 418
752.21149 958.75757 56.66923 293
8901.97852 12739.32520 144.95552 482
8874.77539 12696.55664 396.17062 489
754.75824 949.69928 -0.22327 352
8996.51562 12708.68945 143.08914 482
8965.66797 12661.66113 398.55185 488
9092.02148 12673.12305 145.34224 482
9060.95117 12631.94824 395.78989 488
9185.27051 12640.76953 141.26924 481
9155.80273 12598.10059 398.19333 487
9279.39648 12610.93164 142.67116 481
9251.09180 12568.90723 399.06763 487
9375.63379 12580.54102 140.35779 480
9344.48340 12535.06250 396.80026 486
9469.52539 12546.11035 144.09911 480
9441.29199 12502.69043 398.91296 486
9569.53125 12515.62598 141.56842 479
9534.68945 12467.98145 396.86914 485
9662.30469 12480.58398 141.82312 479
9629.09375 12438.82812 398.66653 485
9762.30371 12449.49512 140.27939 478
9725.20801 12403.75000 397.18665 484
9859.77246 12417.85156 141.88779 478
9824.24121 12372.70996 399.69910 484
9953.86426 12384.45312 138.35223 477
9919.81250 12338.02930 399.47803 483
10054.97266 12350.98926 139.83005 477
10018.19434 12304.25293 396.85886 483
10150.61328 12315.34375 139.54659 476
10118.25195 12273.19531 398.70496 482
10251.04883 12285.39160 139.26791 476
10216.73926 12239.91406 399.67139 482
10351.86816 12250.16992 140.14418 475
10314.01172 12204.17871 398.15225 481
10450.72754 12214.14258 137.80225 475
10414.84473 12172.35645 401.73883 481
10549.67480 12181.56738 137.69870 474
10511.91895 12135.23438 401.78235 480
10650.31836 12149.05371 140.28860 474
10613.18164 12102.76270 400.47250 480
10755.23633 12114.35840 138.66248 473
10714.95410 12070.66211 399.75092 479
10855.78613 12079.08008 137.44283 472
10818.41406 12032.04004 399.94962 478
10960.34961 12043.81445 135.57082 472
10918.50586 11997.12402 402.17148 478
11061.01367 12008.40820 139.11682 471
11021.20117 11965.47754 401.38449 477
11165.05078 11973.75391 137.45737 471
11123.56836 11931.09766 403.16077 477
11268.85449 11939.33691 138.89853 470
11227.90137 11892.41602 405.29364 476
11372.30273 11907.15820 134.27759 469
11333.56641 11857.70605 406.09235 475
11481.96289 11870.31348 137.39774 469
11437.95703 11820.99512 403.15192 475
11585.81641 11831.93555 134.78752 468
11542.41113 11787.16211 405.51938 474
11702.55762 11809.02051 137.65442 443
11647.25586 11752.23633 406.62177 473
11822.53223 11786.73926 136.88434 444
11759.14551 11719.76660 407.05447 468
11945.05957 11760.76660 134.86830 443
11869.28320 11684.24316 405.89560 468
12066.77539 11740.23340 136.62273 442
11982.79688 11656.49902 408.13080 448
12192.17090 11716.91797 133.36026 441
12108.16309 11633.73242 409.45236 447
12316.31250 11691.81152 135.34209 440
12228.87793 11611.26953 408.09509 446
12450.34082 11675.16113 134.68417 394
12358.27930 11583.36523 410.01578 445
12608.08496 11681.27051 133.29776 393
12481.07227 11563.71680 409.84082 443
12775.88086 11695.29980 131.26794 370
12615.70312 11545.71973 412.04965 442
12953.65137 11713.50977 131.06358 369
12749.53418 11526.81055 410.88718 441
13153.94727 11748.29980 134.85172 341
12909.25879 11525.65723 414.51541 383
13076.04492 11535.96973 416.85440 391
13242.60254 11535.66406 416.80682 390
13446.49414 11573.77344 422.29251 341
13677.76172 11627.35840 422.07346 340
6029.52295 4203.43066 11.10353 1000
27795.68555 15562.43457 -4068.16284 1000
36667.37891 14993.66406 -5102.09082 1000
64254.28906 25842.84961 -9027.58789 1000
3644.45825 899.08063 68.97560 474
3652.65063 900.29358 128.88203 430
24066.40039 3302.05249 4920.82227 1000
4964.10889 -379.63406 127.56017 278
4911.31543 -404.58319 127.31618 465
4892.32080 -433.02533 126.95312 465
4873.63135 -460.91904 126.47250 483
4860.56201 -489.19012 127.28567 483
4849.38574 -517.13654 126.64968 490
4840.39648 -545.48010 126.88766 490
4831.76904 -574.01196 127.05563 491
4824.45996 -603.15875 127.04796 493
4818.31641 -632.37927 126.53796 461
4812.09863 -661.19415 127.05489 460
4808.33398 -689.31689 127.36635 461
4803.71729 -718.88409 126.44626 461
4801.34814 -747.96960 127.21372 460
4798.86182 -777.15009 127.60826 460
4928.42236 -797.84961 287.18057 388
4796.84180 -806.84955 126.69083 459
4952.86523 -833.14276 208.05203 498
4918.38232 -827.60492 287.09967 480
4793.91846 -835.38068 127.69991 459
4791.15234 -864.68079 127.33900 459
4789.31738 -893.83746 126.66053 459
4786.53320 -923.66827 126.98692 459
4784.88232 -953.09521 127.35503 492
4782.24463 -982.94580 127.60783 492
4874.97119 -1002.47815 286.52783 463
4781.03662 -1013.27600 127.74535 492
4778.48438 -1042.75012 126.87827 492
4776.91602 -1072.60449 127.33139 492
4774.20020 -1102.22607 126.78048 491
4772.12939 -1131.70435 127.85883 491
4771.04150 -1161.68115 127.24862 491
4767.92627 -1191.86682 127.22167 491
4766.36816 -1221.92249 127.95653 490
4770.72607 -1254.32959 127.22035 466
4779.29443 -1286.55811 127.70662 465
4785.65088 -1319.48645 127.80092 448
3771.79468 -1929.92175 129.37779 483
4769.46094 -4957.01660 241.32520 417
4712.89453 -4956.90869 241.04553 417
4656.67090 -4956.61230 240.09770 418
4601.70996 -4958.82178 238.95621 419
3554.52734 -3854.97852 129.77657 441
4569.99072 -4984.56738 238.74286 446
4565.60449 -5040.62842 241.02151 414
4563.84668 -5103.53955 241.11852 413
4738.15625 -5365.24902 245.93828 356
4571.01367 -5237.76221 243.12517 406
4571.70850 -5305.03076 244.19760 348
767.63287 -1024.93640 253.34337 299
761.69000 -1029.50781 31.24535 476
761.27765 -1029.12830 51.45110 477
760.93005 -1028.55713 71.76161 477
760.70410 -1028.17505 91.89188 498
760.70575 -1027.63831 112.08570 498
760.15649 -1027.25989 132.09811 498
760.20966 -1026.85217 152.32588 498
759.72046 -1026.68616 172.35353 498
759.56018 -1026.26038 192.56366 494
759.35516 -1025.85974 212.44919 494
759.20935 -1025.80432 232.80342 494
759.16467 -1025.35596 252.88867 493
756.53137 -1035.16431 31.17420 416
756.31104 -1035.22314 51.55803 351
756.77106 -1035.43091 71.52946 351
757.02899 -1035.84802 91.75542 275
3230.95630 -4939.50830 132.30592 475
3142.07617 -5943.52393 212.87068 270
3075.61816 -5900.83447 213.20366 364
3028.59888 -5897.21973 212.56650 334
3040.57153 -6013.80811 212.93298 359
3014.26636 -6052.54980 214.35091 497
2838.68091 -5873.55713 212.18642 441
2830.06030 -5852.98389 317.88412 409
2790.18774 -5863.25732 212.10909 477
2786.19849 -5853.00586 316.14832 409
2746.27148 -5863.32568 211.48007 478
2742.48022 -5853.55713 316.40344 410
2700.88232 -5858.49707 210.15195 478
2698.66895 -5853.53760 315.88318 410
2658.67896 -5858.26318 210.82027 479
2656.71753 -5853.46582 315.75107 410
2607.21436 -5840.58008 107.09000 306
2618.41528 -5863.06396 211.26569 480
2613.41528 -5854.38574 314.17273 449
2563.93604 -5839.43994 106.36899 306
2575.55225 -5863.04980 210.97183 480
2570.64478 -5853.76172 315.27463 449
1424.37769 -3204.69141 118.38257 281
2532.75781 -5864.44629 210.03203 481
2528.56445 -5853.76465 314.22089 450
1376.62524 -3143.22607 63.22866 265
1364.11548 -3113.66016 118.77833 310
2507.33594 -5903.17236 211.29568 343
2490.76099 -5861.95020 314.20526 327
1342.96045 -3117.38428 63.35606 298
1328.91504 -3081.80493 118.82227 338
2507.19287 -6007.59229 212.02696 342
2489.87378 -5966.31934 317.37921 273
1320.10339 -3114.98706 63.58236 298
1314.90112 -3102.10352 119.20124 385
2506.83862 -6117.66992 213.69798 340
2492.95361 -6081.60156 320.57227 328
2457.07056 -5987.66748 423.37256 496
1303.45386 -3127.34375 64.37936 386
1301.87024 -3123.04785 118.74390 406
1291.86597 -3155.84106 63.69276 389
1288.23499 -3145.90405 118.71500 401
1280.07166 -3183.72339 62.90051 387
1275.49255 -3170.23486 119.27528 410
1268.15198 -3212.56494 62.46158 379
1262.09985 -3195.29468 118.50571 419
2287.80884 -5988.21729 211.43776 492
1258.03723 -3245.89819 62.56207 357
1249.82971 -3222.91992 118.64828 418
2205.42163 -5874.99805 210.43146 485
1248.40857 -3282.07080 62.17391 353
1238.93958 -3253.62524 119.04263 396
1239.63672 -3322.52563 60.97953 342
1228.53430 -3290.36328 118.53763 383
2141.08032 -5922.32568 210.40173 446
1235.85229 -3377.75708 60.24552 305
1219.60437 -3328.99292 119.02428 369
2083.15576 -5870.51074 210.07117 280
1214.31689 -3381.71436 118.44758 329
2057.38037 -5913.65527 210.98753 389
1218.08826 -3463.52173 118.84022 315
2053.62036 -6029.05127 212.52840 356
1222.51599 -3550.01831 118.09775 314
1226.68274 -3641.42041 117.79901 312
1231.28967 -3735.77930 118.14923 311
6423.76611 -55970.97266 2728.00122 1000
242.72168 -1529.64685 26.48621 490
242.60056 -1529.26196 51.86854 491
242.74725 -1528.46936 77.06566 491
242.90427 -1528.09558 102.37129 491
242.63718 -1527.51221 127.48315 491
242.66035 -1526.94836 152.41832 491
242.89601 -1526.49744 177.79877 491
242.86583 -1525.77771 202.75143 491
242.59784 -1525.34644 227.93161 491
242.85542 -1524.91724 253.08789 491
-259.38968 -2033.31274 60.51690 499
-259.47736 -2033.00732 94.26120 488
-259.36060 -2032.04858 128.06516 488
-259.17502 -2031.62585 161.43974 488
-258.96936 -2030.57849 195.21124 488
-258.76645 -2029.84290 229.16954 488
-258.25693 -2029.28113 262.76590 453
-6070.19141 -15758.52734 -3545.68921 1000
-6178.86377 -16048.32031 -1587.94128 1000
-263.36270 -75.11346 36.04158 321
-261.30722 -72.40150 36.77765 321
-259.34558 -69.80749 37.40755 322
-279.56873 -73.83057 38.40757 318
-259.32535 -67.55540 37.55484 349
-277.48386 -71.07440 39.12626 321
-261.12140 -65.65314 37.10292 351
-275.78531 -68.44041 39.68567 345
-263.02206 -63.76154 36.77203 351
-277.58859 -66.38689 39.29496 345
-295.37494 -69.71476 41.46285 319
-265.01727 -61.90519 36.33728 350
-279.45834 -64.46208 38.86338 347
-295.65225 -67.22226 41.56706 340
-268.15814 -60.18950 35.53386 326
-282.30164 -62.63193 38.29600 324
-298.74438 -65.36612 40.87657 315
-273.93323 -58.91709 34.10394 320
-287.99579 -61.12847 36.95967 323
