# .PCD v.7 - Point Cloud Data file format
VERSION .7
FIELDS x y z rgb
SIZE 4 4 4 4
TYPE F F F U
COUNT 1 1 1 1
WIDTH 1016
HEIGHT 1
VIEWPOINT 5401.175781 -4114.703125 137.819412 -0.026929 -0.145537 0.002921 0.988982
POINTS 1016
DATA ascii
85.07021 1.04447 128.38573 314
-195.54378 3.05849 53.25675 324
-24621.41016 174.30215 -265.26477 1000
-195.57985 4.88287 53.32420 324
-195.57378 6.62047 53.29712 324
-195.49902 8.46787 53.28881 324
-195.56155 10.26040 53.29117 324
-195.50444 12.02145 53.31963 324
-282.77811 60.08979 35.56411 317
-262.24283 59.11337 34.38608 325
-276.81760 61.43077 37.09700 323
-292.74579 64.01848 39.81330 313
-258.84186 60.84684 35.19372 350
-273.42294 63.29924 37.75615 346
-289.51154 65.99258 40.48147 341
-256.96930 62.73807 35.65067 350
-271.42099 65.22790 38.26452 347
-287.58661 68.11438 40.87207 341
-255.03192 64.61166 36.03413 351
-269.49451 67.22741 38.63053 345
-288.89725 70.79659 40.41896 318
-253.19664 66.52746 36.45045 351
-269.21375 69.46777 38.54850 322
-251.29301 68.37074 36.82015 349
-271.15771 72.24246 38.01679 319
-253.08385 70.89310 36.28364 322
-273.42795 74.99039 37.27425 318
-255.14406 73.57213 35.57339 321
-257.14957 76.25480 34.96703 321
-1565.91101 1862.84106 49.97972 282
-1546.87927 1864.71545 50.36279 496
-1551.46765 1869.21472 90.98795 493
-25567.72266 29883.83203 9995.79785 1000
-1017.70837 1378.11523 15.95213 374
-1004.93597 1379.48523 16.36610 497
-1008.49115 1383.91516 44.81553 477
-1012.31134 1388.65234 73.81680 447
-996.90533 1386.69458 16.43769 464
-999.82544 1390.51111 45.05416 464
-1002.27484 1393.88391 73.99815 464
-1004.96338 1397.52234 102.77012 464
-995.47498 1402.81982 15.26397 348
-501.95108 908.22272 7.16528 439
-503.83795 911.12946 24.57461 439
-505.72525 913.96033 42.42976 379
-508.83011 918.54626 59.85849 305
-494.85910 909.58575 7.26977 499
-496.25177 911.68567 24.94790 480
-497.83670 913.90948 42.77288 480
-499.02908 915.89807 60.52761 480
-500.69537 918.10297 78.20145 438
-502.57538 921.01483 95.85858 437
-489.27371 912.83594 7.36427 493
-490.48984 914.88867 25.09252 492
-491.68182 916.68347 42.84198 492
-493.06314 918.76868 60.44780 492
-494.12253 920.79132 78.30114 494
-495.63089 922.72266 95.93480 491
-484.79175 918.33160 7.28088 462
-486.21170 920.52734 24.79204 462
-487.44162 922.74646 42.41932 462
-488.88632 924.86859 60.30857 411
-490.95120 927.87354 78.02987 411
-482.28500 926.58881 6.60418 410
-484.45844 930.16461 24.10241 344
-8723.56836 14792.25293 2684.60669 1000
-16715.70703 28201.30859 6658.97803 1000
-620.17877 15424.93262 -120.64937 461
-611.82373 15324.75488 130.29951 467
-520.85046 15386.98047 -121.69332 462
-515.98663 15290.71582 130.51370 467
-519.16199 15316.99414 381.56592 461
-426.14917 15356.21191 -121.07087 470
-423.17935 15258.98145 131.48108 472
-421.77066 15253.38477 378.59744 450
-332.40726 15326.68652 -119.93288 471
-327.97705 15231.80762 131.84610 472
-237.97804 15296.51758 -119.68917 471
-235.25620 15202.94727 129.61784 473
-142.34250 15268.33887 -120.71495 472
-140.32190 15170.70312 128.67029 473
-47.11817 15239.83789 -116.81596 472
-45.82114 15144.06641 129.69099 473
46.41532 15208.23047 -116.64417 472
47.65912 15113.03906 130.64963 474
137.58437 15180.30176 -116.87566 473
139.49464 15086.25684 130.09589 474
139.35989 15120.50000 376.54568 414
234.59674 15151.70508 -116.49107 473
230.67578 15056.08203 129.07306 475
230.87589 15094.95703 376.09668 398
326.22409 15122.71191 -117.69479 474
321.86752 15027.15527 130.79649 475
418.44473 15091.90430 -115.49470 474
416.76624 15002.21875 129.32101 476
510.59326 15063.50488 -116.45348 474
505.25250 14972.78613 129.96100 476
602.10852 15036.89648 -114.20059 475
597.99780 14943.93164 128.79015 476
692.78693 15008.02637 -113.49288 475
688.64795 14918.30859 129.96884 477
781.61700 14979.40527 -113.21368 476
779.09973 14889.68164 131.21968 477
872.40875 14952.94238 -114.33688 476
870.85815 14860.52539 130.99718 485
966.76019 14924.30566 -115.26241 476
958.29468 14831.58691 128.70261 485
1054.44153 14896.63965 -115.08083 477
1050.09143 14804.51758 129.70055 486
1146.35193 14867.25684 -113.97887 477
1136.51819 14780.93457 129.63905 486
1233.89124 14839.28613 -114.68719 477
1226.45667 14753.25879 129.96327 486
1324.13806 14813.41699 -110.73180 478
1317.64050 14724.75879 129.29539 487
1414.70679 14783.16113 -112.91862 478
1403.70032 14697.83105 128.79303 487
1503.31262 14758.45605 -112.12130 478
1492.59924 14669.79590 131.87158 487
1589.71301 14731.47559 -110.19661 479
1583.93860 14643.39746 132.21460 488
1680.34937 14700.45020 -111.64232 479
1671.10742 14619.29980 128.84229 488
1769.30115 14673.72949 -109.94791 479
1757.78845 14590.55371 131.03433 488
1855.54016 14648.79883 -112.06721 479
1845.68311 14565.52441 131.07610 488
1943.85254 14621.98340 -108.81794 480
1933.91687 14538.73828 131.83704 489
2032.42017 14594.77539 -110.27676 480
2021.70520 14512.71777 129.46823 492
2118.88550 14565.29004 -110.30229 480
2108.28613 14485.37402 130.39944 492
2206.74146 14539.76953 -111.51361 480
2196.68481 14460.60547 129.83511 493
2292.64526 14511.50586 -107.18977 481
2281.78809 14434.23047 130.51556 493
2378.83862 14483.59961 -107.17943 481
2368.13477 14405.91992 132.94919 493
2468.28125 14456.65625 -106.92093 481
2456.22729 14381.67969 132.38329 493
2554.23657 14431.98340 -106.52289 481
2543.03027 14354.57812 131.27542 493
2640.70776 14403.37012 -107.49188 481
2626.79175 14329.27930 131.20915 494
2754.52783 15053.80957 380.03122 489
2759.65405 15084.06641 634.20844 410
2727.97461 14376.46582 -107.37421 481
2715.53101 14303.27637 129.43341 494
2842.65308 15009.57031 379.39441 489
2848.96216 15042.25684 633.33386 410
2815.68140 14349.75391 -106.53497 482
2801.07837 14277.98145 130.84525 494
2928.81372 14968.80078 379.83588 490
2938.21997 15000.25977 630.59698 411
2898.07202 14325.80469 -106.92181 482
2883.73755 14252.80859 132.27104 494
3016.98633 14925.96484 381.88147 490
3024.29980 14957.99219 629.05365 411
2987.25757 14298.46973 -108.24039 482
2970.59668 14227.03711 129.15620 494
3105.56079 14882.74316 378.44379 491
3111.80859 14916.91699 629.63361 411
3073.48096 14273.22363 -107.78464 482
3059.18872 14199.22266 131.37096 494
3191.42090 14836.55176 378.39868 491
3199.10620 14871.04980 627.63971 411
3157.26660 14244.83398 -106.22221 482
3140.71924 14173.95801 130.29266 495
3275.19141 14794.12012 378.40646 491
3286.03931 14830.84375 628.01013 412
3242.69409 14218.10352 -107.50456 482
3226.61255 14148.88281 130.38948 495
3363.25610 14753.52832 377.72351 492
3368.50439 14789.28613 627.11517 412
3328.73804 14191.44531 -106.24789 482
3315.12866 14124.85352 129.10214 495
3449.50171 14709.24609 376.51346 492
3457.92334 14746.21777 627.60291 412
3414.67334 14164.48926 -108.09344 483
3399.16235 14098.21094 130.99687 495
3535.43970 14667.53418 375.59116 499
3539.80713 14703.06641 624.13885 417
3500.21704 14138.29785 -108.01558 483
3483.40918 14072.52637 129.56683 495
3620.37329 14640.00586 379.48541 499
3629.30957 14679.61035 624.71735 417
3586.60645 14113.80078 -106.72725 483
3570.02759 14047.36133 132.97922 495
3711.01343 14615.09668 376.77466 499
3721.56079 14654.62695 627.43256 417
3670.15454 14083.93262 -106.97074 483
3654.96118 14021.56543 131.37543 495
3800.10522 14587.79590 376.12448 499
3806.99194 14627.65039 623.92767 417
3755.66406 14057.84570 -107.58757 483
3738.15674 13995.41699 131.18129 495
3886.65210 14559.95605 376.78439 499
3899.69141 14598.71680 626.28223 417
3842.68457 14035.01855 -108.41502 483
3823.94556 13968.01953 129.80423 495
3975.37280 14531.91016 375.92392 499
3988.17505 14574.85352 625.71826 417
3929.56030 14008.59180 -104.54450 483
3910.33765 13943.38281 131.92526 495
4064.62549 14502.34570 378.08173 499
4076.75122 14548.66797 624.38092 417
4010.98560 13981.54004 -106.56273 483
3994.37109 13919.26758 130.04378 495
4153.12109 14476.99609 375.84689 499
4164.70264 14522.43555 627.30890 417
4096.78809 13953.20703 -105.50672 483
4079.19165 13890.98633 131.06773 495
4238.89502 14451.18359 376.06836 499
4252.61523 14499.29785 626.93359 417
4181.57617 13927.54395 -106.08154 483
4163.43164 13864.63867 132.58423 495
4300.40088 14319.03418 375.09369 498
4340.24951 14466.02344 625.89880 499
4267.51660 13902.38574 -106.47387 483
4249.02246 13840.34277 130.65344 495
4386.00391 14292.97656 374.75400 498
4429.25195 14439.99023 624.20508 499
4354.22314 13876.28809 -107.45551 483
4335.34912 13813.30273 131.27225 495
4474.23193 14266.19336 376.06302 498
4518.14062 14412.53125 623.55701 499
4437.43945 13846.94727 -106.62637 483
4419.90088 13788.73828 132.31972 495
4560.43311 14235.04980 376.97092 498
4608.25586 14384.91895 623.94214 499
4647.54541 14520.85156 881.12811 353
4664.19336 14571.35840 1132.05103 377
4525.17725 13823.94629 -106.26863 483
4506.01465 13764.96289 130.98247 495
4649.34424 14211.62500 373.78857 491
4697.98047 14358.93750 624.74359 499
4744.59082 14508.83398 880.21429 479
4739.01270 14492.27344 1129.25598 377
4607.31641 13795.23535 -107.16839 483
4592.28076 13737.72461 130.16534 495
4768.53857 14283.66504 376.30762 499
4778.47412 14315.53125 623.31573 460
4781.39453 14325.24316 873.15912 459
4693.91602 13770.81055 -107.52203 483
4676.67236 13710.91211 129.62459 495
4847.84180 14226.64844 376.12250 461
4851.10791 14233.12012 622.47388 461
4850.41113 14237.82227 869.58301 460
4779.96436 13742.33301 -104.83035 483
4760.31836 13685.28223 132.88039 495
4916.35254 14142.79199 376.49399 462
4916.33936 14148.81445 619.92676 461
4919.98193 14155.07715 864.30823 461
4863.30957 13719.06152 -105.01350 483
4844.89648 13660.05664 129.58971 495
4982.47168 14057.87402 375.47836 462
4987.61426 14064.86133 617.42279 462
4987.64990 14072.00879 864.94019 462
4948.68262 13691.24414 -106.87660 483
4933.04004 13634.62695 130.12140 498
5052.76074 13972.84570 373.78970 463
5053.95215 13979.84277 617.09766 463
5058.07568 13990.18164 860.72821 463
5035.71387 13665.86133 -104.52172 483
5015.83643 13612.38184 130.41298 497
5138.19580 13945.65137 373.46368 499
5140.38867 13950.81641 618.50159 499
5142.75830 13954.38672 862.49249 499
5239.86670 14225.53613 1124.40979 452
5215.17236 14157.90430 1365.54834 420
5216.24365 14157.80371 1613.58508 419
5213.08740 14158.30176 1862.58093 419
5215.09326 14164.24707 2116.86206 481
5221.49805 14172.18164 2365.48071 480
5121.78076 13639.61133 -104.23419 483
5101.78369 13585.47266 130.12669 497
5226.81592 13919.46191 374.67618 499
5215.67822 13895.96387 617.65308 499
5228.79590 13927.38281 860.48895 499
5328.57764 14200.66309 1122.22363 452
5358.34619 14281.29297 1377.75867 485
5512.88281 14699.02637 1675.50098 494
5515.18506 14706.58398 1934.62488 493
5207.86816 13611.82520 -104.61648 483
5188.33350 13560.47559 133.31088 497
5311.99512 13893.37402 375.06805 499
5302.60596 13866.56445 617.96753 499
5313.73584 13901.33203 862.15826 498
5417.90234 14172.15820 1125.72888 452
5446.62646 14252.14160 1382.42212 485
5293.65186 13584.24121 -105.98363 483
5274.27393 13532.88184 130.36290 497
5400.59814 13864.04688 375.94888 499
5389.23730 13841.33203 615.78082 499
5401.77100 13872.95312 860.54993 498
5508.25781 14144.32422 1124.85156 470
5539.62207 14226.76465 1380.60596 485
5377.07178 13557.38379 -108.28139 482
5357.86035 13506.55664 130.23395 497
5487.61621 13839.50684 376.48013 499
5477.49268 13815.83984 615.67603 499
5490.91455 13846.21973 861.24884 498
5596.85254 14116.62012 1123.86279 470
5627.41260 14199.21875 1383.19836 484
5461.85840 13533.20312 -106.58791 482
5445.67285 13482.83301 131.61650 497
5575.73340 13809.18359 376.59952 499
5566.06152 13787.93848 618.42523 498
5575.81885 13822.10254 863.19476 498
5684.38867 14089.05859 1125.85181 470
5717.72461 14170.39844 1383.26062 484
5551.15771 13506.18848 -108.46650 482
5531.50732 13458.08105 132.41039 497
5662.76562 13784.54785 375.30042 498
5651.92334 13759.73926 617.30267 498
5666.95605 13792.02441 863.03046 498
5774.98047 14061.49707 1126.59351 470
5635.38818 13481.73438 -106.52814 482
5615.15918 13431.41504 133.31767 497
5749.57129 13754.79980 376.80630 498
5740.01855 13733.82812 617.32703 498
5752.53320 13764.23340 864.58905 498
5864.72900 14032.31152 1125.61340 470
5720.82910 13454.48242 -106.87501 490
5700.56787 13404.48340 131.79878 496
5838.82812 13728.23340 375.17624 498
5826.97852 13707.75684 616.27606 498
5840.95361 13737.48242 865.31250 498
5952.24609 14004.09473 1127.18127 469
5808.41406 13425.39746 -105.08158 490
5788.15088 13379.17480 133.74692 496
5922.84619 13702.46094 374.35641 498
5925.98779 13708.54395 618.19641 498
5847.89551 13525.05566 855.55896 375
6041.90430 13977.42871 1128.58655 470
5893.91016 13401.80078 -106.28334 490
5872.68652 13352.90527 130.29852 496
6014.17090 13675.69336 376.71677 498
6014.01025 13680.13086 617.78394 498
5883.03125 13373.83105 846.48676 497
6131.15283 13952.50488 1126.81189 470
5981.26270 13376.22754 -106.60297 489
5959.26074 13330.51367 129.93584 496
6100.61426 13645.95312 374.12643 498
6101.99756 13651.29004 621.63300 498
5966.70508 13349.23340 847.42706 497
6225.12012 13926.01367 1129.39001 470
6067.18701 13349.71582 -106.04539 489
6047.51074 13301.64551 132.15234 496
6190.67578 13622.03516 374.74637 498
6100.15723 13422.80469 613.12482 492
6052.74316 13322.67578 847.88824 497
6315.23096 13897.06348 1131.59485 470
6153.07129 13322.96191 -109.33141 489
6135.35840 13277.60840 130.10193 496
6276.04932 13591.12109 377.80832 497
6279.84668 13597.45508 619.79633 497
6141.97021 13294.06152 848.49371 497
6406.32764 13872.60156 1129.01294 470
6277.55713 13377.89453 -348.80139 478
6241.98438 13296.59082 -107.19857 489
6222.18457 13253.13184 131.97260 495
6366.72266 13565.32031 377.51816 497
6369.07471 13571.12305 619.48578 497
6228.44922 13266.53809 848.22693 497
6493.94873 13846.19043 1130.51770 466
6366.40186 13349.13867 -349.31824 478
6326.75537 13271.68457 -109.95764 489
6308.00195 13223.74121 133.37851 495
6455.44385 13539.11719 378.72534 497
6456.05713 13540.29199 621.44867 497
6372.72363 13360.60156 858.46027 319
6586.60693 13820.90723 1131.92310 446
6450.77197 13320.56250 -352.41217 478
6416.96729 13244.58105 -107.68449 488
6396.46094 13198.26172 131.68425 495
6568.11523 13562.52734 377.40698 440
6570.18799 13561.97363 625.36969 440
6585.55566 13604.40332 870.63165 435
6695.10303 13830.05273 1136.18005 445
6539.12061 13296.11816 -351.73944 477
6501.23291 13218.87695 -109.58289 488
6479.94141 13172.78809 130.92328 495
6672.83350 13569.23730 380.63016 465
6684.80957 13596.02832 626.74438 439
6705.69238 13640.73242 876.60809 434
6626.78760 13268.88184 -350.99588 477
6589.48096 13192.57910 -110.16003 488
6568.44922 13147.89551 130.50253 494
6779.53369 13570.92090 378.56204 464
6806.86670 13624.67578 630.84589 463
6825.84521 13673.06250 879.20709 433
7905.17480 15858.37793 3950.37646 1000
6714.76660 13241.57129 -352.76166 477
6680.07080 13163.01074 -106.86754 488
6658.24561 13121.86426 132.71054 494
6885.71777 13575.71191 381.48364 463
6910.61475 13628.83984 631.33679 462
6805.35498 13212.33789 -354.63412 477
6765.81689 13137.15625 -107.48048 487
6743.63330 13095.38574 130.93210 494
6991.26221 13578.60254 379.33521 462
7020.41650 13634.60938 632.47559 462
6894.68604 13188.20215 -353.04892 476
6852.36523 13111.05566 -107.38116 487
6834.52197 13067.52734 133.44951 494
7098.98389 13586.12695 382.31314 462
6982.45850 13157.69238 -355.66782 476
6942.56934 13082.37012 -111.34814 487
6920.39893 13040.67676 133.79860 493
7233.76318 13644.36426 385.75568 441
7070.22705 13131.72363 -355.48526 476
7030.06104 13058.31738 -110.82033 487
7008.31055 13016.67578 132.36836 493
7159.05762 13106.70605 -354.51627 476
7119.24854 13030.31250 -110.90923 486
7098.84180 12989.58203 132.59633 493
7247.34180 13077.17090 -354.84531 475
7206.75586 13005.55078 -111.62025 486
7186.53467 12963.38379 130.10466 492
7337.65234 13050.66016 -355.14166 475
7298.85693 12977.95117 -112.11193 486
7274.63623 12938.03613 133.42294 492
7430.52295 13024.20898 -356.70050 475
7386.19434 12951.83203 -112.68456 485
7363.09717 12911.63477 133.24388 492
7517.76660 12995.87012 -358.43591 474
7475.82080 12924.90430 -110.83848 485
7456.13965 12885.13672 131.59776 491
7608.75000 12966.08789 -358.09802 474
7565.17578 12897.11523 -110.01244 485
7544.85938 12858.67480 133.16325 491
7647.93994 12963.82031 -371.94312 474
7606.32910 12891.86133 -125.87128 484
7585.24316 12856.46582 119.59971 373
7739.06543 12935.13184 -374.31509 474
7697.25098 12866.07617 -129.12320 484
7677.51953 12834.12793 116.97003 373
7831.90527 12909.45898 -373.38611 473
7789.46729 12840.19922 -126.85710 484
7773.57617 12811.01367 119.66878 373
7922.74414 12881.34375 -377.81824 473
7878.94971 12812.60742 -127.65005 483
7864.30420 12787.93164 118.14729 372
8012.64062 12853.40918 -378.57388 472
7972.00488 12782.83398 -128.68066 483
7958.54980 12762.99316 117.57178 439
8106.90674 12827.20508 -377.95108 472
8063.78564 12757.05371 -128.99454 482
8049.78125 12735.82324 119.06813 439
8200.93164 12798.74414 -379.73117 472
8156.31299 12729.33691 -127.85403 482
8139.13232 12707.00781 116.08163 439
8293.28711 12770.94824 -379.20972 471
8246.09570 12703.68164 -131.00490 482
8230.81445 12677.98145 116.77271 439
8383.59961 12742.54297 -382.07822 471
8341.44336 12673.31836 -129.44164 481
8324.75879 12649.64355 118.92282 438
8478.99219 12712.01562 -381.42764 471
8436.51172 12644.23633 -128.28764 481
8418.78223 12622.35938 118.81432 438
8572.33398 12684.72363 -383.78555 470
8529.05957 12616.83203 -129.66614 480
8512.36523 12590.86328 116.37524 438
8668.72656 12655.27051 -383.52774 470
8622.89941 12590.43750 -133.27676 480
8602.65723 12562.19629 117.44050 437
8760.10840 12628.60938 -382.01550 469
1804.79089 2625.40308 -55.19801 479
8697.78027 12536.26660 119.58840 437
8856.56543 12600.48047 -386.29190 469
8812.05664 12532.12305 -133.96976 479
8790.35059 12505.01562 118.91599 436
18050.53906 25464.07617 -6097.67236 1000
8950.04395 12572.94434 -386.20551 468
8907.06055 12504.36328 -132.23268 479
8884.99902 12478.29688 116.53036 436
9046.41016 12540.47070 -388.49463 468
9000.97070 12478.89551 -132.42271 478
8978.79297 12449.01465 118.35848 452
9144.04297 12515.28418 -386.07980 467
9098.38086 12450.39844 -132.25612 478
9080.94434 12428.11621 117.26911 293
9237.61719 12482.69824 -389.64337 467
9190.96680 12420.15723 -135.72385 477
9182.04590 12406.99902 118.44630 293
9337.34668 12454.61230 -389.79202 467
9290.58984 12393.62500 -134.93204 477
9287.22949 12387.44238 117.72025 293
9432.80762 12424.26074 -390.06473 466
9386.67090 12362.45410 -135.48642 476
9389.66504 12368.67773 118.68272 293
9530.56543 12397.73242 -393.56296 466
9481.91016 12332.30566 -137.73503 476
9494.81836 12346.73047 118.52297 293
7387.76514 9584.93164 1507.55310 1000
9628.51758 12366.52148 -393.75284 465
9583.06445 12303.53320 -136.33109 475
9727.11719 12338.04297 -394.18253 465
9681.24121 12277.29004 -137.94435 474
9831.96484 12309.69336 -394.87881 449
9778.03223 12246.82715 -137.18871 474
9940.15625 12292.89160 -396.46368 449
9876.05273 12217.93457 -137.39299 473
10855.71484 13436.74414 118.57354 498
10051.37500 12273.25977 -399.31277 450
9978.35254 12185.08105 -139.45786 450
10161.15430 12256.00684 -399.65970 449
10090.32227 12169.11523 -138.58675 449
11060.72754 13350.59375 114.65975 426
10275.74805 12238.83203 -404.61911 448
10203.76758 12150.82031 -139.33231 448
11159.74902 13300.66406 117.94033 399
10385.76855 12221.95801 -406.64166 447
10314.17773 12136.45312 -142.93086 448
11257.78613 13254.75586 117.28989 399
10502.55078 12204.19727 -409.18027 447
10428.01270 12119.42090 -144.04625 447
10403.44629 12088.77930 118.38994 467
10628.13672 12202.51465 -408.70850 401
10540.49316 12101.07422 -145.55072 446
10512.55762 12064.08887 118.39049 468
10769.32812 12211.63477 -414.78311 379
10657.83594 12085.49902 -145.97031 447
11552.39062 13105.54102 118.85735 465
10920.87988 12234.37305 -418.50330 378
10771.29297 12063.48340 -146.30879 446
11645.00977 13048.47559 115.13591 465
11078.92969 12253.84375 -418.97311 377
10904.28906 12060.83691 -147.79506 401
11242.75000 12283.87402 -426.48743 349
11045.79590 12070.24219 -147.26591 400
11191.77246 12079.65820 -148.76570 399
11333.04785 12086.68164 -153.20003 398
11498.03906 12107.88965 -153.11966 349
11401.09570 12007.84277 119.75874 383
11685.31641 12158.89453 -155.45583 348
11547.54980 12013.09961 119.77370 382
11878.29688 12209.29297 -159.83847 347
11704.62402 12028.62988 117.29301 387
11890.87012 12073.30566 115.98179 357
15069.49512 12734.67090 -204.79083 1000
1201.29053 586.49573 69.63892 1000
2389.82544 983.33875 -74.74583 499
2395.87817 985.96021 -33.95849 497
2403.69800 989.53040 7.21026 476
2400.67041 971.38269 -74.75835 401
10553.97949 3295.80420 2309.94946 1000
107.81654 4.81375 131.57825 1000
53255.21484 10460.72363 111.77664 1000
3730.61279 -254.55095 -47.34033 427
3713.06201 -275.65411 -47.00747 464
3760.58496 -301.91846 -110.22661 319
3698.34229 -296.69626 -45.88465 465
3730.16943 -321.76242 -108.44460 416
3685.09521 -317.75589 -45.88264 472
3709.66797 -342.55960 -107.10617 478
3675.53320 -339.61655 -45.52073 485
3699.04419 -363.74356 -106.67119 479
3666.47119 -360.76834 -45.28812 485
3688.26270 -385.47528 -105.20631 479
3657.93726 -382.65497 -45.20102 485
3680.78198 -406.99152 -105.39497 491
3652.12793 -403.49954 -44.37230 492
3674.07227 -429.15274 -105.23363 488
3646.26001 -425.79230 -44.20700 462
3668.64648 -449.87723 -104.78399 488
3641.10962 -447.04413 -44.53360 461
3663.10645 -471.55774 -104.91264 490
3636.66748 -468.63489 -43.92017 463
3658.51880 -493.39459 -104.02320 488
3632.25024 -489.87082 -43.55054 463
3628.56055 -511.24399 -44.21464 462
3824.20435 -539.49921 7.56439 498
61917.80078 -9341.35059 -12315.20801 1000
3624.95825 -533.49280 -44.16804 463
3696.01196 -544.33789 11.98498 350
3621.43237 -554.75861 -44.15217 463
3619.03027 -576.57666 -44.32142 463
3616.57812 -598.63757 -44.26743 462
3615.27271 -621.15784 -43.91338 462
3613.14917 -643.28040 -43.75433 461
20797.15430 -3914.32397 -5517.38477 1000
3612.02319 -665.03088 -44.03791 460
3767.40039 -693.95587 8.94311 401
3611.00659 -687.46277 -44.27465 460
3609.21777 -709.23090 -45.10733 460
3607.84985 -731.25946 -44.69520 460
3606.50244 -754.07867 -44.43012 460
3750.32153 -784.93237 9.02310 421
3605.43921 -775.92786 -44.99899 459
3654.59375 -787.05157 12.33492 496
3603.59668 -798.86920 -45.40529 459
3601.99927 -820.97778 -45.67337 459
3601.16040 -843.77100 -46.00764 459
3599.76758 -866.08618 -45.41686 459
3597.72119 -888.89978 -45.86903 458
3596.53882 -911.13745 -46.51962 458
3595.07153 -933.68353 -46.04515 490
3594.46387 -956.23755 -46.75266 489
3593.25732 -978.92682 -47.12363 489
3592.44824 -1002.21631 -46.80517 489
3591.40967 -1024.95435 -47.46057 488
3733.01758 -1066.24622 7.60243 492
3589.68823 -1047.69775 -47.61567 488
3588.23267 -1071.39587 -47.33264 488
3587.63257 -1094.67798 -47.84881 487
3590.88745 -1119.37537 -48.52235 458
3598.18481 -1145.02820 -49.25476 457
3604.11230 -1171.18640 -50.48803 456
50908.51172 -32409.91797 133.15846 1000
2661.55371 -1820.72168 -22.87152 438
2648.58911 -1834.92834 -22.77947 462
26648.08398 -20870.15625 -8326.81250 1000
3826.35449 -4817.24854 31.95710 289
3771.61353 -4807.55322 32.64135 435
3728.15576 -4810.52002 33.90641 343
3680.58887 -4808.87598 34.02090 393
3626.73706 -4796.35840 34.30824 295
3598.54810 -4820.18750 34.48661 436
3589.34155 -4871.55762 34.03376 411
3590.34814 -4936.08838 33.27068 380
3595.29883 -5007.95117 31.77373 348
3598.62549 -5080.23828 31.77269 374
3603.22900 -5152.89062 29.67003 376
3607.03760 -5228.64404 28.36741 375
2519.72607 -3754.88696 -14.44568 498
2524.71069 -3762.25854 58.61597 483
2240.30566 -4865.72705 43.22028 487
2155.55029 -5905.87598 28.23153 340
2102.62720 -5872.23535 29.33308 401
2117.98560 -5914.48486 130.86369 487
2045.18689 -5816.18115 30.87853 292
1999.87512 -5799.36475 31.92221 354
1955.61389 -5787.02100 31.33137 413
1915.05188 -5779.26221 31.39046 418
1918.12585 -5790.51465 230.86769 429
1873.07568 -5772.03418 31.69025 460
1887.17114 -5814.24854 131.41284 468
1878.23193 -5790.01025 229.91722 348
1834.39075 -5769.82178 32.31044 464
1845.07568 -5806.83740 130.83369 492
1845.51746 -5805.49365 231.10120 419
1795.53162 -5767.19434 33.04252 468
1806.09692 -5808.53857 131.83473 493
1806.08887 -5804.69971 229.84578 419
1755.55774 -5768.37891 33.92092 471
1767.82214 -5804.97168 130.65857 493
1768.29907 -5805.40430 230.75566 420
1718.38293 -5769.10791 33.65370 471
1729.35132 -5807.65967 131.11749 493
1729.82080 -5806.91943 229.29114 420
1681.13171 -5771.11475 32.56113 474
1691.55652 -5808.55469 130.55740 494
1691.05627 -5807.60205 229.85345 420
1643.44910 -5773.48291 34.26837 440
1655.04749 -5816.15332 132.08334 494
1653.18872 -5806.92920 229.76924 421
1606.00940 -5776.10596 33.12240 440
1617.67920 -5818.89746 131.24921 494
1614.93970 -5811.06787 228.89503 462
1570.04932 -5780.05908 34.56237 440
1580.10535 -5820.19775 131.88074 495
1579.87292 -5819.99414 230.30446 495
1607.04675 -5930.14648 330.96857 349
1532.55884 -5782.52051 33.84842 444
1564.20093 -5908.09570 132.09741 495
1567.83740 -5927.24854 231.37573 296
1568.41675 -5925.60547 330.58899 451
1495.18860 -5784.68994 33.74131 445
1560.46130 -6056.41846 233.22522 289
1458.94214 -5789.26221 34.16122 390
1499.51147 -5959.78174 331.48587 446
1422.51599 -5792.49463 33.97000 391
1386.10352 -5795.36035 34.30759 391
1316.44312 -5826.24170 132.37874 494
1334.42273 -6092.04541 130.87802 475
1243.24475 -5830.66895 132.14709 476
1670.41833 -8260.36426 -1116.19946 1000
1220.57947 -5903.61182 132.23697 472
1180.95667 -5891.27441 130.83189 473
1141.80603 -5882.97363 131.47490 499
1109.61121 -5915.86230 132.15616 286
416.23938 -3334.59009 77.17268 302
389.73764 -3276.53247 78.19236 329
393.49203 -3318.84790 131.83197 436
365.42880 -3227.85962 78.81687 348
372.08783 -3306.57104 132.10454 478
342.41861 -3191.03833 80.04438 374
351.64169 -3309.13647 131.76472 478
320.79266 -3160.60376 80.19498 370
331.68967 -3312.21240 131.93547 478
299.57996 -3130.99243 80.71889 374
311.66043 -3313.94189 131.59735 478
278.25085 -3105.74097 81.50373 381
291.30710 -3316.86328 132.16522 478
258.33395 -3082.47461 81.61584 384
271.40363 -3319.13232 131.65565 478
239.19083 -3077.49683 81.77707 357
250.66165 -3321.77490 132.41667 477
221.75177 -3112.68823 81.43102 350
230.18283 -3324.46509 132.09615 478
203.73668 -3152.72925 80.13775 345
209.72531 -3327.25708 131.64288 477
185.92555 -3200.67578 79.48748 336
189.43221 -3329.14722 132.11453 477
167.50174 -3244.88525 78.59309 311
170.02429 -3346.13794 131.68474 411
-2983.70532 -24586.83008 -2717.00415 1000
-3000.78369 -24735.70312 949.73041 1000
-10550.83594 -38168.83594 -3766.37891 1000
-19937.39648 -47244.35156 -5764.18652 1000
-379.76489 -1085.04272 229.47536 325
-378.93631 -1082.78613 248.58369 394
-387.79880 -1085.38672 73.73711 325
-386.78851 -1083.13293 93.30522 395
-386.12982 -1081.83325 112.81352 451
-385.70422 -1080.62866 131.98985 451
-385.37387 -1079.86438 151.40779 487
-385.21439 -1079.00391 170.81772 487
-384.69452 -1078.68958 190.18137 499
-384.67282 -1077.97290 209.50311 499
-384.64694 -1077.70569 228.86296 487
-384.47925 -1077.43970 248.42682 487
-392.90219 -1078.87427 34.84045 498
-392.65414 -1078.47180 54.56284 499
-392.61215 -1078.24280 73.94532 487
-392.46829 -1078.07007 93.30640 487
-392.57352 -1077.91528 112.74400 452
-392.48657 -1078.14343 132.16997 452
-392.70651 -1078.47668 151.47459 396
-393.20413 -1079.29639 170.80504 326
-22422.66211 -44475.66797 -13217.78223 1000
-883.81641 -1605.25317 224.95764 278
-881.96246 -1602.50403 255.27074 354
-892.53888 -1597.45398 70.67373 497
-892.24969 -1597.11597 101.59404 476
-892.49115 -1596.82410 132.42041 476
-892.24658 -1596.60181 162.77913 432
-892.20239 -1596.96033 193.73189 432
-892.67920 -1597.22314 224.82063 371
-1368.20178 -2124.16309 90.38649 429
-1366.91724 -2122.62891 132.05153 474
-1365.70740 -2120.72461 174.82990 497
-1364.64026 -2119.36230 216.36487 497
-1363.67200 -2118.28052 258.93341 496
-1362.36438 -2116.85278 300.90259 496
-22655.32422 -16341.92480 -6396.19189 1000
-38509.67578 -22337.51562 -11814.19727 1000
-39426.87891 -18239.78906 -1288.24207 1000
90.14680 -2.96095 127.97355 369
90.14745 -2.96034 128.21956 370
89.83277 -3.04587 128.38751 306
88.72755 -3.34689 128.38559 302
90.25172 -2.85708 127.99283 371
90.25138 -2.85523 128.23816 371
89.86723 -2.95784 128.38564 306
88.76195 -3.25275 128.38692 302
90.35469 -2.75289 128.01204 372
90.35444 -2.75457 128.25485 372
89.90155 -2.87061 128.38606 306
88.79610 -3.15754 128.38544 302
90.45494 -2.65289 128.02977 373
90.45552 -2.65287 128.27081 374
89.93938 -2.78402 128.38628 306
88.82860 -3.06554 128.38649 302
90.55463 -2.55205 128.04771 374
90.55354 -2.55394 128.28860 375
89.97333 -2.69748 128.38536 306
88.86442 -2.97042 128.38693 302
87.57304 -3.28832 128.38583 298
90.65280 -2.45554 128.06355 376
90.65317 -2.45417 128.30301 376
90.01172 -2.60901 128.38647 306
88.89926 -2.87519 128.38643 302
87.60641 -3.18755 128.38533 298
90.75005 -2.35637 128.08127 377
90.74924 -2.35670 128.31992 377
90.04764 -2.52122 128.38559 306
88.93501 -2.78091 128.38808 302
87.64067 -3.08284 128.38802 298
90.84738 -2.26230 128.09676 378
90.84752 -2.26071 128.33374 379
90.08490 -2.43328 128.38719 306
88.97297 -2.68788 128.38734 302
87.67736 -2.98242 128.38576 298
90.94080 -2.16561 128.11382 379
90.94269 -2.16704 128.34711 380
90.12421 -2.34739 128.38762 306
89.00910 -2.59282 128.38602 302
87.71113 -2.88003 128.38670 298
91.03468 -2.07155 128.12778 381
91.03722 -2.07281 128.36244 381
90.16199 -2.26044 128.38748 306
89.04658 -2.49667 128.38574 302
87.74698 -2.77538 128.38805 298
91.12946 -1.97798 128.14299 382
91.12804 -1.97760 128.37575 382
90.20057 -2.17050 128.38771 306
89.08376 -2.40448 128.38783 302
87.78595 -2.67246 128.38557 298
91.22020 -1.88664 128.15573 383
91.21024 -1.88777 128.38759 310
90.23978 -2.08423 128.38690 306
89.12225 -2.30800 128.38657 302
87.82165 -2.57266 128.38556 298
91.31320 -1.79476 128.17029 384
91.25114 -1.80609 128.38690 310
90.28165 -1.99536 128.38785 306
89.16418 -2.21283 128.38530 302
87.86288 -2.46897 128.38615 298
86.32732 -2.76695 128.38649 294
91.36184 -1.71168 128.17232 467
91.29479 -1.72475 128.38655 310
90.32299 -1.90951 128.38615 306
89.20203 -2.11925 128.38686 302
87.89964 -2.36672 128.38693 298
86.36705 -2.65559 128.38724 294
91.38232 -1.63497 128.16783 468
91.33602 -1.64393 128.38612 310
90.36350 -1.82155 128.38730 306
88.05463 -2.24155 128.12674 354
87.93964 -2.26233 128.38512 298
86.40464 -2.54386 128.38599 294
91.40359 -1.55661 128.16121 468
91.37849 -1.56239 128.38779 310
90.40455 -1.73286 128.38531 306
87.84145 -2.18494 128.06804 353
87.84029 -2.18339 128.35680 353
86.44538 -2.43225 128.38489 294
91.42419 -1.48088 128.15601 469
91.42118 -1.48026 128.38538 310
90.44807 -1.64652 128.38675 306
87.62054 -2.12463 128.01215 351
87.61806 -2.12674 128.30594 352
86.48421 -2.31943 128.38651 294
91.44624 -1.40152 128.14909 470
91.44540 -1.40092 128.38190 471
90.48988 -1.55796 128.38654 306
87.39137 -2.06605 127.95478 350
87.39002 -2.06516 128.25140 350
86.52304 -2.20627 128.38737 294
91.46573 -1.32460 128.14412 470
91.46635 -1.32495 128.37582 471
90.53532 -1.47005 128.38773 306
87.15426 -2.00254 127.89169 349
87.15482 -2.00174 128.19357 349
86.56720 -2.09468 128.38467 294
91.48779 -1.24579 128.13589 471
91.48620 -1.24476 128.37071 472
90.57880 -1.38213 128.38649 306
87.06403 -1.91367 127.86484 446
87.06144 -1.91093 128.16829 447
86.60931 -1.98194 128.38498 294
91.50721 -1.16588 128.13168 471
91.50824 -1.16642 128.36464 472
90.62366 -1.29463 128.38687 306
86.97417 -1.82126 127.83546 445
86.97145 -1.82221 128.14207 446
86.64986 -1.86929 128.38689 294
91.52899 -1.08714 128.12407 472
91.52926 -1.08701 128.35849 473
90.66768 -1.20711 128.38651 306
86.88120 -1.73084 127.80559 444
86.88063 -1.72860 128.11575 445
86.69600 -1.75640 128.38535 294
91.55048 -1.00828 128.11617 473
91.55025 -1.00802 128.35219 474
90.71430 -1.11838 128.38722 306
86.83809 -1.62980 127.78923 302
86.78629 -1.63853 128.08823 444
86.74074 -1.64306 128.38614 294
91.57195 -0.92866 128.11130 473
91.57130 -0.93007 128.34590 474
90.75959 -1.03030 128.38780 306
86.88216 -1.51739 127.78659 302
86.69185 -1.54171 128.05791 443
86.69469 -1.54114 128.37067 444
91.59276 -0.84879 128.10388 474
91.59193 -0.85010 128.33757 475
90.80670 -0.94331 128.38771 306
86.92813 -1.40603 127.78932 302
86.59639 -1.44780 128.03262 442
86.59799 -1.44665 128.34438 443
91.61488 -0.76948 128.09665 474
91.61388 -0.76923 128.33176 475
90.85519 -0.85558 128.38730 306
86.97462 -1.29412 127.78876 302
86.49993 -1.34880 128.00206 441
86.49944 -1.34844 128.31657 442
91.63538 -0.69085 128.08997 475
91.63710 -0.69121 128.32585 476
90.90103 -0.76767 128.38763 306
87.01749 -1.18279 127.78631 302
86.40132 -1.25143 127.97497 440
86.40211 -1.25214 128.29010 441
91.65641 -0.60902 128.08238 475
91.65667 -0.60895 128.31943 476
90.95038 -0.68244 128.38550 306
87.06403 -1.07368 127.78757 302
86.30411 -1.14835 127.94631 492
86.30470 -1.15077 128.26279 492
91.67994 -0.52951 128.07478 476
91.68014 -0.52895 128.31194 477
91.00074 -0.59333 128.38593 306
87.11187 -0.95953 127.78942 302
86.27276 -1.04271 127.92855 491
86.27585 -1.03885 128.24910 492
85.17074 -1.14331 128.38829 290
91.70127 -0.44936 128.06848 476
91.70039 -0.44901 128.30382 477
91.04948 -0.50571 128.38647 306
87.16123 -0.84996 127.78833 302
86.24533 -0.92995 127.91434 491
86.24397 -0.93016 128.23579 492
85.21741 -1.02029 128.38831 290
91.72274 -0.36657 128.06148 477
91.72144 -0.36624 128.29793 478
91.09855 -0.41935 128.38654 306
87.21133 -0.73681 127.78798 302
86.21468 -0.81815 127.89912 491
86.21474 -0.81943 128.22054 491
85.26849 -0.89728 128.38451 290
91.74487 -0.28648 128.05246 477
91.74305 -0.28607 128.28926 478
91.14955 -0.33216 128.38588 306
87.25916 -0.62710 127.78667 302
86.18745 -0.70906 127.88369 490
86.18751 -0.70703 128.20808 491
85.31909 -0.77314 128.38809 290
91.76554 -0.20476 128.04620 478
91.76704 -0.20465 128.28349 479
91.20171 -0.24230 128.38632 306
87.30894 -0.51603 127.78890 302
86.15652 -0.59515 127.86735 490
86.15759 -0.59673 128.19304 491
85.37075 -0.65185 128.38554 290
91.78897 -0.12304 128.03671 478
91.78945 -0.12114 128.27591 479
91.25150 -0.15557 128.38544 306
87.35740 -0.40285 127.78632 302
86.12482 -0.48464 127.84990 490
86.12297 -0.48135 128.17590 491
85.42175 -0.52923 128.38626 290
91.80948 -0.03972 128.03058 479
91.81116 -0.03880 128.26686 480
91.30382 -0.06912 128.38582 306
87.41139 -0.29283 127.78828 302
86.09527 -0.36933 127.83317 490
86.09442 -0.37044 128.16156 490
85.47668 -0.40272 128.38591 290
91.81063 0.04275 128.01674 486
91.80979 0.04130 128.25587 487
91.35693 0.01958 128.38597 306
87.46177 -0.18170 127.78777 302
86.06200 -0.25572 127.81611 489
86.06568 -0.25551 128.14749 490
85.53075 -0.28209 128.38756 290
91.78835 0.12327 127.99506 485
91.78718 0.12305 128.23695 486
91.41034 0.10494 128.38562 306
87.51588 -0.07214 127.78870 302
86.03171 -0.13839 127.80248 489
86.03457 -0.13589 128.13171 490
85.58509 -0.15832 128.38727 290
91.76511 0.20461 127.97675 485
91.76721 0.20342 128.21696 486
91.46409 0.19214 128.38741 306
87.56805 0.03908 127.78677 302
86.02318 -0.02054 127.78906 298
86.00143 -0.01922 128.11771 489
85.63785 -0.03257 128.38707 290
91.74443 0.28789 127.95488 485
91.74343 0.28603 128.19814 486
91.51940 0.27870 128.38574 306
87.62440 0.15211 127.78943 302
86.07467 0.10186 127.78912 298
86.02290 0.09743 128.10835 485
85.69556 0.08861 128.38480 290
91.72083 0.37004 127.93535 484
91.72033 0.37032 128.17920 485
91.57529 0.36598 128.38591 306
87.67769 0.26140 127.78798 302
86.13313 0.22178 127.78640 298
86.05307 0.21984 128.10381 485
85.75051 0.20956 128.38557 290
91.69766 0.45624 127.91291 484
91.69946 0.45583 128.15932 485
91.62983 0.45406 128.38567 306
90.50632 0.43071 128.38678 302
86.18969 0.34047 127.78842 298
86.08854 0.33830 128.10126 486
85.80912 0.33520 128.38747 290
91.67528 0.53983 127.89265 484
91.67491 0.54041 128.14035 485
91.67648 0.54052 128.38495 486
90.56136 0.52363 128.38618 302
86.24420 0.46079 127.78548 298
86.11906 0.46021 128.09456 486
85.86794 0.45726 128.38583 290
91.65176 0.62597 127.87092 483
91.65298 0.62762 128.12112 484
91.65358 0.62557 128.36551 485
90.61971 0.61770 128.38646 302
86.30044 0.58449 127.78865 298
86.15022 0.58115 128.09294 487
85.92697 0.57870 128.38828 290
91.62997 0.71304 127.85114 483
91.62898 0.71322 128.09979 484
91.62833 0.71442 128.34656 485
90.67765 0.71304 128.38689 302
86.36131 0.70413 127.78782 298
86.18269 0.70098 128.08873 487
85.98720 0.70185 128.38478 290
