# .PCD v.7 - Point Cloud Data file format
VERSION .7
FIELDS x y z rgb
SIZE 4 4 4 4
TYPE F F F U
COUNT 1 1 1 1
WIDTH 1009
HEIGHT 1
VIEWPOINT 5533.258789 -4102.754883 137.150360 -0.053197 -0.144691 -0.000969 0.988045
POINTS 1009
DATA ascii
-196.19443 1.06560 53.30248 325
-196.21045 2.84603 53.34813 324
-196.26778 4.58558 53.32630 324
-196.21915 6.42756 53.30764 324
-196.24306 8.25724 53.30809 324
-196.25258 10.04438 53.35762 324
-196.18619 11.83633 53.32954 324
-283.86118 59.97590 35.48402 317
-277.74457 61.33943 36.93823 323
-293.92505 63.98846 39.75203 313
-259.52112 60.62348 35.23130 350
-274.09482 63.11103 37.82232 347
-290.10907 65.85183 40.50528 341
-257.55948 62.64206 35.70023 351
-272.09406 65.11213 38.23487 347
-288.22394 67.89663 40.92730 341
-255.67981 64.45652 36.13160 351
-270.22388 67.13078 38.61706 345
-289.21167 70.56640 40.55175 319
-253.76932 66.39983 36.52553 351
-269.60455 69.27615 38.73293 322
-251.98720 68.25473 36.86738 349
-271.51443 71.98530 38.12551 319
-253.56900 70.79873 36.34246 322
-273.84683 74.82228 37.40707 318
-255.55287 73.44866 35.65834 321
-257.59879 76.10194 35.01550 321
-1780.97205 1770.16760 47.84221 464
-1788.26062 1776.66028 89.79151 350
-1769.88098 1781.19604 47.79908 476
-1774.41797 1785.90271 89.63909 434
-36554.97266 36329.83984 -7521.61914 1000
-1218.70618 1317.77197 40.87837 424
-1225.12817 1324.51746 71.00659 360
-1208.05872 1323.23730 41.16523 495
-1211.82751 1326.78198 71.24060 494
-1216.09119 1331.84375 101.84782 483
-1203.19482 1334.56519 41.03023 425
-1207.36499 1338.47253 71.46425 424
-29539.40234 32418.69922 -10106.35156 1000
-685.73151 874.64874 17.03565 414
-693.06616 882.95624 35.30689 273
-676.25928 874.65558 17.48645 465
-678.32538 877.05573 36.65594 464
-680.99707 879.87238 55.60684 414
-685.10645 884.56775 74.53955 288
-669.35693 877.51727 17.99340 493
-670.95892 879.56873 36.85989 493
-672.96509 881.93005 55.78055 493
-675.09650 884.03326 74.71580 469
-676.69122 886.09290 93.82372 464
-679.64270 889.61511 113.13170 352
-664.11945 882.72559 17.72233 478
-666.05463 884.89478 36.87060 478
-668.05835 886.76849 55.80111 478
-669.89679 889.05444 74.76041 497
-671.62891 891.26764 93.95496 477
-674.33270 894.37170 112.95715 372
-661.61182 890.39130 17.43759 435
-663.64447 892.97156 36.33498 435
-666.44531 896.07404 55.36502 374
-21455.08789 38228.26172 139.85452 1000
-28092.60156 54601.84766 14471.74707 1000
-7679.51025 36084.27734 4387.39307 1000
-1569.05920 15374.85059 -117.30727 460
-1556.46973 15271.74609 137.95396 466
-1469.76489 15342.50781 -117.68320 461
-1458.52014 15243.75879 137.06813 466
-1462.35559 15267.65820 388.25528 460
-1373.16394 15313.70117 -114.75843 469
-1362.36499 15214.44727 137.92226 471
-1364.97534 15217.57910 386.40903 448
-1274.68323 15288.13379 -117.39522 470
-1267.89563 15189.13281 134.77007 471
-1179.46924 15262.07520 -113.92017 470
-1171.68774 15166.51074 135.06738 472
-1081.63354 15240.22070 -112.49088 471
-1077.05249 15144.03125 135.50748 472
-986.46008 15214.72949 -114.69208 471
-979.80402 15117.11621 137.33694 473
-892.63776 15189.33398 -113.42110 472
-882.96387 15094.54785 135.11121 473
-797.48993 15163.91895 -113.43356 472
-790.76001 15072.20312 136.33005 474
-792.94397 15104.76074 383.76862 413
-700.47278 15141.50098 -114.33567 473
-696.76935 15047.45312 136.40251 474
-697.20123 15084.33105 381.79395 398
-607.22638 15118.99902 -114.08644 473
-602.00085 15022.57031 135.45737 474
-510.99561 15094.51074 -109.98219 473
-506.99869 15000.77734 136.73268 475
-419.38657 15069.69727 -109.61092 474
-415.76505 14976.45410 136.94183 475
-324.22134 15047.10840 -110.62318 474
-325.08951 14952.22754 134.76819 476
-231.91261 15021.15820 -110.81407 475
-229.84045 14931.16309 133.86719 476
-137.98006 14996.66895 -108.53826 475
-140.01680 14904.25195 137.21790 476
-45.49228 14975.18750 -110.89932 475
-48.01610 14883.52051 135.09911 485
46.26962 14952.58398 -110.86493 476
44.04810 14861.26562 136.95329 485
135.43343 14927.63477 -108.01316 476
134.63329 14837.36621 136.81067 485
227.37979 14904.00000 -106.49395 476
227.74826 14814.94727 136.21671 486
317.90164 14880.35254 -109.82152 477
317.61960 14791.46875 136.60057 486
409.67972 14858.32812 -106.28016 477
408.86322 14768.65234 135.89899 486
502.80835 14835.71387 -106.63398 477
497.69617 14748.61621 134.19330 487
593.23871 14813.20801 -105.59629 478
589.68079 14725.21777 135.56734 487
682.95020 14788.45605 -106.51740 478
677.22351 14704.93262 134.42932 487
771.94324 14767.52832 -107.04416 478
768.54382 14679.90430 134.08194 488
859.85132 14744.58203 -104.18710 479
857.53442 14658.36816 136.91568 488
949.66852 14721.93848 -104.13544 479
944.34241 14636.87500 134.12595 488
1039.03882 14696.27539 -106.64047 479
1033.87732 14616.13184 135.31595 488
1131.27002 14674.60449 -105.23927 479
1124.21790 14592.05957 136.93471 492
1216.89319 14652.85645 -106.80914 480
1210.10583 14573.71875 135.30949 492
1308.18604 14630.45605 -105.85423 480
1298.59277 14550.21289 136.99179 492
1393.48425 14607.32227 -106.50348 480
1390.19556 14527.39258 136.83957 493
1484.13599 14586.40625 -102.57596 480
1475.60657 14508.60645 136.93130 493
1570.66882 14562.38574 -104.15907 481
1563.40833 14485.53906 135.16872 493
1658.41296 14539.26465 -105.77266 481
1651.24158 14464.92578 133.01331 493
1748.67688 14519.33203 -103.48291 481
1738.05994 14441.24902 133.92090 493
1823.33789 15177.61621 386.23755 488
1825.11816 15210.61621 634.37122 410
1834.91174 14497.03418 -102.97491 481
1826.16882 14422.97070 135.69313 494
1911.59717 15139.00879 385.38080 489
1918.19202 15170.33887 634.35376 410
1925.08179 14472.41113 -104.91277 481
1913.69873 14399.42285 136.90131 494
2003.22559 15099.21484 385.09610 489
2008.11462 15133.17969 633.43500 410
2011.92468 14451.19727 -103.34541 482
1999.25684 14377.77734 133.72966 494
2092.57861 15063.62402 382.68036 490
2094.44849 15097.35645 635.34424 410
2100.27612 14427.91992 -101.52421 482
2086.52832 14356.16602 135.15195 494
2182.54224 15023.29785 381.55786 490
2185.89795 15058.77734 630.66022 411
2187.08716 14406.17871 -102.20846 482
2176.41797 14337.93457 135.70689 494
2270.59912 14984.92578 382.25079 490
2274.60205 15019.94629 631.00098 411
2272.88867 14385.49805 -104.30673 482
2263.11353 14315.04492 133.00369 494
2356.88110 14946.50391 380.21481 491
2362.65186 14980.75488 632.78430 411
2359.33960 14362.50195 -104.05128 482
2349.63843 14291.99316 136.61052 494
2443.89062 14909.03516 382.57803 491
2452.65405 14944.93359 629.77881 411
2447.75854 14341.38574 -102.09000 482
2436.89111 14271.30566 136.61905 495
2532.89722 14871.28320 379.42044 492
2538.20410 14908.23633 628.46552 412
2534.01953 14318.35059 -102.59810 482
2522.68677 14250.21484 134.83839 495
2619.25269 14831.05078 381.26505 492
2628.49438 14870.99805 628.77869 412
2619.78613 14296.11426 -101.71052 482
2607.25586 14228.86914 133.87308 495
2712.36060 14809.83887 380.55109 499
2718.87720 14845.32031 630.13934 417
2707.28540 14275.43457 -103.30494 483
2695.57861 14209.75293 132.71892 495
2801.09155 14784.62207 382.56369 499
2807.11890 14823.69043 626.07623 417
2792.21362 14251.19531 -104.33649 483
2781.86157 14185.12402 133.23364 495
2890.62988 14762.08301 381.14273 499
2898.31006 14801.28125 627.65881 417
2880.53662 14230.91992 -104.28874 483
2867.82422 14166.69238 134.95816 495
2977.92236 14740.45312 381.93649 499
2988.00146 14780.91895 627.07733 417
2966.04468 14211.37305 -100.64419 483
2953.35181 14143.58008 136.62389 495
3067.90869 14715.99805 380.36008 499
3077.82324 14758.86328 627.94318 417
3053.70752 14187.72266 -101.51317 483
3039.16089 14125.16211 135.93071 495
3159.87354 14691.82910 381.71722 499
3167.85254 14739.16602 625.58856 417
3137.74731 14166.11914 -104.16965 483
3125.37964 14102.52539 132.72600 495
3246.09546 14671.17188 380.93262 499
3259.13184 14718.96387 626.09155 417
3224.47021 14143.79688 -101.82790 483
3209.91235 14083.00684 136.55853 495
3336.81128 14646.31348 381.92737 499
3346.28931 14697.36426 625.59241 417
3312.69531 14120.89258 -103.84675 483
3299.47681 14060.11914 133.50841 495
3402.65674 14520.50293 379.56155 498
3437.09473 14671.47852 626.74902 499
3399.25317 14102.21387 -103.55788 483
3385.71948 14040.93555 133.52461 495
3491.82617 14499.35645 376.30890 498
3528.98047 14651.22852 628.71838 499
3485.54834 14080.31934 -102.70406 483
3469.26831 14019.25000 133.21172 495
3578.65552 14474.78125 379.44690 498
3618.34180 14625.44727 625.81555 499
3570.94165 14056.79492 -103.02749 483
3554.63013 13997.25391 136.00433 495
3667.41748 14450.62695 378.79538 498
3705.85742 14602.76172 626.34418 499
3743.28931 14753.25195 881.17682 432
3756.90454 14802.15820 1134.65540 376
3657.38306 14035.28027 -101.98199 483
3642.92017 13975.02539 132.23189 495
3756.35181 14428.63086 376.94989 491
3798.01196 14579.99805 626.09662 499
3833.17847 14727.46191 882.05096 480
3834.00854 14726.22852 1128.38098 376
3743.24146 14013.96875 -103.29359 483
3728.70239 13953.78516 132.83241 495
3847.98120 14416.58594 378.86642 449
3885.16772 14557.47852 625.06445 458
3828.42236 13990.27148 -102.00886 483
3814.25562 13935.33105 135.24927 495
1804.78418 6751.05615 115.29091 459
3957.50244 14476.71484 625.83698 459
3962.09155 14480.72852 869.70679 459
3917.63208 13971.23535 -103.35804 483
3902.03247 13914.36621 133.64003 495
4030.01245 14385.03906 378.56821 460
4030.78223 14393.08691 624.49146 460
4035.70459 14401.87598 868.04883 460
4003.82031 13947.31250 -102.08935 483
3986.29785 13890.79102 133.85434 495
4104.34473 14307.48340 377.85434 461
4104.81201 14313.37598 620.56409 461
4106.65674 14321.46777 863.65027 461
4087.71777 13924.69043 -101.23998 483
4074.14526 13868.82520 134.37889 498
4176.30664 14228.51465 374.52826 462
4178.06543 14236.11426 620.62415 462
4181.16748 14240.03613 862.85303 461
4174.70117 13904.12500 -104.55094 483
4158.69189 13847.49902 135.80196 498
4259.89307 14192.79102 377.05899 499
4259.73438 14198.46582 619.53101 499
4263.93262 14203.23535 859.62006 499
4318.41309 14393.29492 1116.24414 455
4321.33887 14402.07617 1364.28760 455
4324.71680 14410.44531 1611.50415 454
4492.57422 14990.14258 1933.07043 491
4495.23633 14998.06250 2193.08838 490
4500.19580 15005.39160 2455.78247 490
4260.59521 13881.49023 -103.07169 483
4246.17627 13827.46582 134.11171 497
4348.10645 14169.45215 374.36407 499
4342.77881 14146.62695 617.99762 285
4351.02637 14177.52051 860.47626 499
4432.70215 14454.10938 1122.56360 452
4347.79688 13859.94141 -101.99718 483
4331.32080 13809.17383 133.26598 497
4436.13818 14146.82520 376.04095 499
4427.77979 14121.98242 617.89911 499
4438.84033 14157.27441 861.51727 499
4524.29834 14432.59082 1124.08740 452
4547.49170 14514.43457 1377.37500 485
4436.04346 13838.95898 -102.24279 483
4419.66504 13787.48242 135.06500 497
4525.46338 14127.12793 375.64905 499
4518.32129 14101.68555 618.94116 499
4528.10693 14132.33887 860.78491 499
4614.23926 14410.79688 1125.74219 470
4637.89648 14494.74902 1381.18860 485
4520.75049 13817.36426 -103.01171 483
4503.08105 13763.41406 134.32277 497
4614.96143 14104.01562 377.45947 499
4605.50439 14077.09766 616.86230 499
4613.88574 14112.07715 862.37579 498
4703.17480 14385.55176 1125.41760 470
4732.23291 14470.74707 1379.85620 485
4607.03809 13793.46387 -103.59557 483
4590.19141 13744.24023 133.68848 497
4703.29736 14079.99219 374.91708 499
4692.24121 14055.68652 618.36371 499
4702.19629 14090.06641 861.04248 498
4796.01172 14365.16016 1126.24976 470
4819.76221 14449.13379 1381.07898 484
4693.18799 13773.92480 -105.74596 482
4678.27148 13724.70215 133.95978 497
4788.86133 14058.13672 376.69299 499
4782.68066 14032.63086 617.15430 498
4791.91699 14067.70703 862.23187 498
4886.35645 14340.77734 1124.44067 470
4780.69775 13749.17773 -104.16460 490
4763.90381 13701.09766 133.14793 497
4878.82373 14035.18457 375.28320 499
4872.07324 14012.03125 618.63568 498
4882.06982 14042.97949 863.39001 498
4976.12695 14316.91797 1123.22034 470
4867.77051 13730.27051 -104.69450 490
4853.61426 13681.32031 133.41991 497
4967.54346 14014.35449 375.85312 498
4960.65576 13986.92090 619.86896 498
4969.61865 14021.37598 864.97375 498
5065.24219 14292.35449 1124.07288 470
4955.53369 13705.93750 -104.21634 490
4940.26660 13659.25684 134.26782 497
5055.71631 13990.42285 375.14972 498
5048.29004 13964.40723 617.89117 498
5002.32422 13840.28711 857.12738 373
5154.39697 14269.27539 1126.11084 471
5043.26172 13687.67383 -102.88431 490
5024.25977 13637.03711 134.35341 496
5142.70264 13968.87988 376.35471 498
5146.75635 13972.66797 618.47864 498
5032.98242 13661.39551 847.09406 374
5246.95996 14250.29785 1127.31909 470
5129.86426 13666.58496 -106.24780 490
5112.15283 13617.40137 132.50188 496
5232.48145 13942.80664 378.77179 498
5233.44238 13950.05176 618.72144 498
5118.44385 13637.85938 846.54492 498
5337.78760 14225.61816 1127.70508 470
5216.70215 13643.81055 -103.79099 489
5199.78320 13596.62305 132.12943 496
5322.38818 13922.47461 378.17780 498
5245.34912 13719.87012 613.02600 492
5207.46680 13614.76172 846.17975 497
5428.19824 14206.52344 1127.54773 470
5306.18896 13621.58398 -104.63818 489
5287.35010 13577.33008 133.98962 496
5409.85693 13898.92773 377.57791 498
5414.95996 13905.31250 619.45142 497
5295.10303 13593.39355 849.63611 497
5523.01660 14185.26074 1130.85193 470
5423.56641 13682.48145 -347.73099 478
5391.38965 13598.48730 -105.59001 489
5376.72900 13555.58594 131.71803 496
5503.11572 13876.93555 375.68063 497
5503.28516 13882.16602 623.20917 497
5383.50830 13569.60059 850.38666 497
5613.48975 14160.86426 1127.90161 466
5511.72021 13659.19824 -345.58044 478
5479.51025 13577.77051 -106.25460 489
5465.01807 13534.23926 131.69717 495
5590.39502 13851.63867 378.85214 497
5590.22461 13859.00293 622.30371 497
5495.44727 13607.66992 853.89252 314
5702.80713 14138.49512 1131.27124 466
5601.23242 13637.60254 -347.75455 478
5567.66016 13554.47266 -106.06012 489
5551.56445 13511.42578 134.84718 495
5693.26709 13866.22656 378.90347 441
5695.10059 13868.45801 623.83185 441
5712.63232 13911.71094 872.18805 437
5807.22607 14149.01172 1132.57263 446
5691.43555 13615.95508 -347.33319 478
5659.18311 13536.31836 -108.12812 488
5639.78857 13492.30469 132.15562 495
5800.74805 13888.05078 377.72131 466
5809.55957 13908.49902 627.76111 440
5826.19727 13952.61914 873.30005 436
5915.41211 14162.27930 1137.52917 438
5776.95898 13591.77637 -347.35147 478
5743.71631 13512.22266 -106.22972 488
5728.47754 13468.55762 131.44704 495
5906.75049 13895.43457 377.89090 465
5926.69434 13944.84668 627.99048 439
5946.79688 13988.29492 876.38672 435
5866.94727 13568.24121 -347.59958 477
5834.14795 13492.51855 -106.95910 488
5816.46094 13447.85352 133.48119 494
6009.39355 13907.72461 381.03232 464
6034.32031 13959.69727 629.21265 463
5956.40918 13545.57129 -350.55969 477
5922.17676 13468.41113 -105.87421 488
5905.12451 13426.05078 134.22095 494
6115.76514 13913.78809 382.37091 464
6138.35449 13970.55273 629.65942 463
6044.27051 13525.09961 -351.28134 477
6010.84570 13448.76855 -105.98935 488
5994.54492 13406.16211 134.33392 494
6220.91260 13926.21094 381.30194 463
6137.42578 13501.46973 -352.27567 477
6099.69287 13425.60352 -106.45654 487
6081.36084 13384.82910 132.95731 494
6357.59521 14003.97461 383.74094 441
6224.42285 13478.85547 -352.80988 476
6190.31104 13403.03418 -108.20383 487
6172.75732 13359.58496 134.66599 494
6315.46387 13456.33984 -351.05142 476
6279.57227 13382.80078 -107.62007 487
6260.71338 13338.29590 133.48242 493
6405.02979 13435.17676 -351.43265 476
6371.15430 13360.00000 -109.87000 486
6349.47510 13315.74414 134.21855 493
6493.80957 13411.15918 -351.54379 476
6458.88281 13335.89160 -107.87126 486
6441.47607 13296.54004 132.97221 493
6587.15820 13390.11621 -353.08954 475
6548.20361 13316.40527 -111.20228 486
6528.94678 13273.83594 134.87900 492
6677.57959 13366.81543 -353.53848 475
6640.70752 13291.12402 -109.19298 486
6622.17627 13251.49707 131.78905 492
6766.43506 13345.21387 -356.26822 475
6729.14795 13269.28027 -108.04584 485
6712.38232 13230.34668 133.53250 374
6857.55225 13319.91602 -355.59555 474
6821.26416 13248.18945 -111.42719 485
6803.91748 13212.55078 131.20911 373
6950.09473 13296.04980 -358.60974 474
6914.19775 13226.34668 -109.46953 485
6898.88623 13193.92188 130.97505 373
7043.24023 13277.02832 -358.57907 474
7003.32324 13203.60938 -113.10574 484
6991.76807 13175.21289 132.59460 373
7134.09424 13252.47461 -358.21402 473
7096.92041 13179.93555 -112.99187 484
7082.43848 13156.76953 133.08940 440
7225.75000 13230.72070 -360.91763 473
7188.16504 13155.90039 -112.63914 483
7174.95508 13132.67188 132.85831 440
7321.10156 13207.10059 -361.03256 473
7280.51025 13137.02148 -111.39621 483
7265.20703 13109.10059 132.51500 440
7413.22217 13184.70508 -360.29764 472
7374.80322 13113.35742 -111.47680 483
7361.18457 13086.48438 134.39531 439
7503.90479 13161.20020 -363.51324 472
7466.80859 13088.36719 -112.85596 482
7451.71484 13064.87891 134.11436 439
7597.46973 13137.17969 -361.42380 472
7561.10645 13065.66113 -113.86710 482
7546.07422 13040.78320 131.97563 439
7691.17920 13110.91699 -362.10306 471
7652.92529 13042.73926 -114.84190 481
7635.46582 13015.88379 131.87914 438
7727.27441 13119.29395 -354.09662 471
7685.80127 13051.50488 -103.83997 481
7671.12598 13023.29590 142.93254 438
7821.43311 13095.33887 -353.09085 470
7783.15771 13025.96191 -105.53997 481
7765.89307 13000.03613 142.04318 438
7919.55957 13072.09082 -356.55688 470
7877.30176 13006.15918 -103.40655 480
7862.12939 12976.53711 144.58549 437
8011.68311 13048.37598 -356.87051 470
7974.24219 12980.68848 -103.44827 480
7955.25391 12950.54590 144.31317 437
8110.08105 13027.04883 -356.34915 469
8069.88574 12959.67285 -106.47071 479
8047.82959 12929.87109 145.24161 437
8205.40527 13001.27930 -358.05261 469
8164.46973 12936.79590 -105.98427 479
8147.94824 12907.60840 141.57607 415
8302.52832 12979.48242 -359.41727 468
8262.07812 12909.98340 -106.41972 478
8246.50586 12893.21289 141.61143 294
8398.33398 12952.48047 -362.32718 468
8357.47461 12887.73242 -109.04532 478
8352.11621 12877.91016 144.59956 293
31878.43555 48846.50781 -8471.63672 1000
8498.65234 12932.30957 -363.50409 467
8453.39844 12863.98145 -109.00395 477
8452.32227 12867.13770 141.26518 293
8593.50781 12906.45410 -362.78931 467
8553.47949 12839.56152 -110.13773 477
8557.84863 12851.79395 143.84160 293
8691.42969 12880.70020 -361.87793 466
8651.36523 12817.00391 -110.60492 476
8790.21875 12859.66211 -366.16205 466
8747.72363 12795.44336 -108.54079 476
8889.07324 12833.99902 -364.73672 465
8847.42090 12771.08887 -108.03233 475
8989.09277 12809.37012 -368.78546 465
8944.51758 12747.97461 -110.51953 475
9097.84766 12795.68359 -368.40631 450
9044.77930 12720.44238 -109.48150 474
9953.14648 14009.52148 144.91518 470
9205.49707 12779.95410 -368.60101 451
9147.16504 12696.35449 -112.81161 474
10039.14648 13953.90625 146.89108 498
9316.20996 12769.05762 -371.65347 450
9250.20508 12679.81641 -111.90852 450
10157.58008 13932.56250 146.70903 370
9430.82910 12760.68457 -372.67407 449
9361.50195 12669.40918 -114.29909 450
10258.52246 13889.11426 142.50516 399
9541.32422 12750.56641 -375.94678 449
9473.72852 12656.95117 -115.79553 449
10358.46680 13850.32715 143.30522 399
9657.76562 12739.62500 -377.18204 448
9589.03711 12645.35938 -115.95110 448
9593.92480 12656.80371 145.53215 355
9772.90527 12727.35254 -378.16782 447
9703.78223 12635.51074 -114.92323 447
9676.21680 12601.96680 145.67520 469
9908.66504 12742.69043 -383.27185 402
9816.38477 12622.62891 -117.89885 447
10662.55371 13724.82520 143.40329 445
10052.92188 12766.54199 -388.67398 379
9932.36914 12614.25879 -117.70778 447
10200.26758 12794.74512 -390.88165 378
10046.29785 12601.09473 -118.89249 446
10352.31543 12822.47070 -393.04147 377
10186.96582 12618.36816 -120.09143 401
10522.75000 12871.24023 -398.31732 350
10325.85840 12629.89453 -122.49572 400
10471.07031 12647.13379 -122.85806 399
10616.75879 12665.57715 -123.78382 377
10540.06152 12574.29590 142.30606 370
10785.14453 12708.05566 -129.63539 349
10683.03613 12585.69434 141.82637 384
10971.44043 12769.70020 -129.66054 349
10825.66504 12601.43945 142.78308 383
10999.54297 12643.07617 144.05838 350
43878.69141 30782.62695 13576.21289 1000
2205.98340 1115.00085 -62.66668 386
2204.14429 1097.45557 -61.64287 499
2209.21631 1099.85217 -22.82115 498
2214.95508 1102.79810 15.65067 469
2216.47290 1086.61890 -62.41852 406
17324.02930 6990.31738 -1997.83508 1000
62361.32031 23920.98047 15723.22559 1000
63821.81250 21386.13281 -934.94458 1000
43327.40625 14215.20703 -5837.75049 1000
4565.88721 940.73871 813.29309 1000
16366.45801 2282.84058 2029.99927 1000
3601.80103 -71.02899 -39.36811 427
3587.39990 -92.88251 -38.46902 464
3625.56079 -115.12884 -98.36238 436
3576.69995 -114.30611 -38.31500 471
3605.34448 -136.13243 -97.09442 417
3565.11963 -134.83867 -37.74591 471
3588.66357 -156.91702 -95.84180 478
3557.44336 -156.05431 -37.57503 484
3579.85962 -178.90268 -95.50869 479
3550.74292 -177.37154 -36.77079 458
3570.60132 -199.73857 -94.80759 480
3543.96924 -197.80420 -36.49523 457
3564.13843 -220.23497 -94.76949 491
3539.72559 -219.32762 -36.20162 461
3558.81299 -241.74655 -94.94268 489
3534.94556 -240.00859 -36.02106 460
3553.66797 -262.45648 -94.08087 489
3531.30493 -260.73996 -36.08062 460
3549.92725 -284.00967 -94.00491 490
3527.69727 -282.04395 -36.69652 461
3545.98608 -304.93890 -93.76908 490
3524.62085 -302.54153 -36.37258 461
3542.04370 -325.69650 -93.69434 489
3521.63770 -323.81180 -35.95761 461
3589.01929 -330.68625 18.64830 416
3538.75586 -346.85028 -93.52571 489
3519.73145 -345.17548 -35.66977 384
3586.91382 -351.43484 18.49672 498
3536.35693 -367.88986 -94.23689 489
3517.53320 -366.29752 -35.69340 384
3535.10400 -389.70319 -94.31459 489
3516.62109 -387.44614 -35.93957 384
3534.00146 -410.31918 -94.08311 489
3515.74048 -408.32236 -36.06425 383
3531.94775 -432.20224 -94.26818 484
3515.12378 -430.20935 -36.34253 382
3530.96069 -453.36865 -94.76967 484
3514.57764 -451.75378 -36.85670 382
3532.01660 -475.01917 -94.89360 482
3514.46924 -472.96143 -37.12383 382
3649.54053 -491.56232 15.66239 497
3656.30420 -491.73392 73.77943 403
3532.43018 -496.25983 -95.12997 481
3512.65698 -493.55994 -36.93736 382
3533.32886 -518.46143 -95.22713 481
3512.18237 -514.87042 -36.96045 382
3637.29175 -534.27899 133.45166 496
3533.87134 -540.61945 -94.90614 481
3511.23608 -536.66467 -37.04422 459
3534.44580 -562.36877 -95.60892 481
3511.67871 -558.42615 -37.30157 458
3535.40576 -583.83417 -96.10286 480
3510.72485 -579.83130 -36.89590 458
3652.31030 -604.34216 14.56963 496
3535.87671 -605.80035 -96.66328 480
3510.49341 -601.14185 -37.23419 458
3558.70288 -610.00183 17.68139 495
3510.90820 -623.06189 -37.71952 458
3510.02319 -645.13147 -37.81879 458
3509.67310 -666.03247 -38.48279 457
3509.51733 -688.42700 -38.72286 457
3509.20020 -710.45728 -38.22854 457
3509.08496 -731.95667 -38.74224 457
3508.56812 -753.42029 -39.19594 456
3508.22925 -776.27710 -39.04781 456
3507.72339 -797.44031 -38.91375 456
3507.25000 -820.27191 -40.02879 456
3506.99683 -841.87433 -40.27205 455
3649.56055 -876.82971 12.97466 497
3507.19019 -864.03040 -40.13349 487
3506.67993 -886.97064 -39.96429 487
3507.12427 -909.08551 -40.71857 486
3510.51074 -932.40649 -41.47966 457
3518.53052 -957.63928 -42.17386 426
3526.85522 -982.97943 -42.83636 425
23810.55078 -9222.62988 -4494.63281 1000
2611.41870 -1692.91504 -16.55102 497
2618.85474 -1698.20410 33.00166 497
3900.51270 -4611.86279 34.70498 442
3856.69043 -4617.07471 34.49086 443
3814.45605 -4621.47119 34.53588 443
3772.17090 -4626.60693 35.67048 444
3730.06689 -4632.08057 36.64362 482
3712.55322 -4668.91406 35.17726 417
3713.86768 -4731.23926 34.11256 380
3890.52148 -5026.24902 29.65169 465
3733.69800 -4880.38477 31.95247 418
3792.99097 -5022.06152 29.83483 464
3753.39160 -5032.41699 31.08847 275
2590.79224 -3617.70264 -11.33518 445
2571.02271 -3636.86304 -11.63327 404
2367.69604 -4743.47900 47.42793 482
14559.88867 -32144.11133 8971.71680 1000
2315.40186 -5777.27783 32.95350 369
2302.84863 -5744.51367 132.92793 461
2266.69067 -5752.97266 32.70269 409
2309.03638 -5863.58740 134.19942 257
2207.39551 -5701.98633 34.73487 349
2114.00830 -5773.93750 133.79277 419
2081.81836 -5684.80225 232.17142 455
2038.45691 -5670.72266 36.05832 461
2044.22791 -5688.56836 232.40492 347
1998.68872 -5669.89160 36.42783 465
2011.24426 -5707.55713 134.28401 493
2010.62634 -5704.99756 231.28864 421
1961.37500 -5670.20605 35.87571 469
1974.45325 -5710.21729 134.12589 494
1973.04541 -5708.54004 232.57971 421
1922.74170 -5671.44385 35.50249 471
1934.50061 -5708.16553 133.68134 494
1936.19177 -5711.39062 232.45023 422
1885.93030 -5673.81836 35.36975 474
1897.58911 -5712.62158 133.25993 494
1898.35046 -5714.84131 230.81342 422
1848.35339 -5677.99707 36.89515 474
1861.65454 -5721.61133 133.49571 495
1859.46814 -5717.20410 232.11324 422
1811.29785 -5682.80615 35.86312 474
1824.81287 -5725.39062 134.03445 495
1823.56201 -5721.05664 231.78432 422
1773.90808 -5686.20557 36.58959 475
1787.40674 -5729.47852 132.87801 495
1784.83289 -5724.34180 230.98065 422
1737.69592 -5691.53174 36.35568 475
1750.17175 -5734.23340 133.03461 496
1747.36853 -5725.90234 231.64583 423
1753.06165 -5745.00342 329.64691 392
1701.62439 -5694.96777 36.45128 475
1750.75256 -5866.80859 132.42659 292
1729.55518 -5797.68896 232.63683 285
1742.84656 -5844.99219 331.63519 415
1664.65979 -5698.96826 35.97876 475
1710.33557 -5863.40430 332.21335 462
1628.08093 -5703.60059 36.39218 476
1673.62720 -5874.35303 332.90384 457
1592.14502 -5707.84082 36.73811 441
7594.27979 -29249.75781 -6904.28418 1000
1555.47449 -5711.23438 37.34135 441
1518.95374 -5717.22607 36.30483 445
1482.50354 -5721.09766 36.65004 445
1491.03967 -5753.05615 132.49121 376
1447.70752 -5724.12451 37.55677 446
1515.72375 -6017.67090 132.58710 492
1411.34778 -5729.52490 37.64111 446
1421.34265 -5777.47949 133.56760 498
1377.48889 -5743.32227 36.95739 376
1382.37183 -5764.29834 132.99318 494
1358.11902 -5824.22217 133.55122 475
1312.45337 -5784.38965 133.54379 467
1304.18616 -5925.31494 133.47313 341
517.97778 -3661.99780 72.19359 265
458.49341 -3332.36499 77.39826 284
466.34583 -3403.82422 132.79109 273
429.90204 -3256.61304 79.37254 335
435.06348 -3299.59521 132.54579 442
6104.90381 -57955.99219 9756.01465 1000
405.86542 -3210.94971 80.14562 358
413.08969 -3286.63818 132.74783 476
383.02533 -3176.79004 80.24572 383
393.29984 -3290.25488 132.81628 476
360.95712 -3148.74756 80.31326 349
373.33960 -3294.27417 132.02533 476
338.93307 -3124.82178 80.79087 259
352.74207 -3297.97168 132.38783 476
318.15933 -3100.83228 81.93900 387
333.25507 -3301.58691 132.08852 476
297.84119 -3079.04248 81.54412 390
312.75943 -3305.91138 132.57411 475
277.66580 -3058.31470 82.34853 391
292.47488 -3309.16357 132.01590 475
259.44101 -3071.57568 82.03964 345
272.75732 -3312.99854 132.73843 475
242.41751 -3113.14746 81.27623 339
252.50316 -3316.34009 132.33369 475
225.29036 -3156.01660 80.84560 328
231.65672 -3320.77661 132.84447 475
208.05276 -3217.29370 79.43015 289
211.80948 -3335.86353 132.82957 387
-627.27332 -36908.72266 1945.95276 1000
-16946.12500 -43163.21094 -632.65759 1000
-455.70758 -1108.65479 192.78670 348
-454.83865 -1106.48706 213.02692 414
-454.24026 -1105.20605 233.21939 414
-453.69739 -1104.05859 253.49557 464
-463.80685 -1107.74805 30.22269 413
-463.01981 -1106.42078 50.72593 464
-462.64594 -1105.58740 71.21722 464
-462.04272 -1104.61328 91.44894 464
-461.99213 -1103.58691 111.78266 493
-461.56995 -1102.95386 131.98430 493
-461.19827 -1102.43958 152.32445 498
-460.94595 -1101.81970 172.49229 498
-460.63397 -1101.41443 192.77135 479
-460.41049 -1101.04163 213.03311 478
-460.50937 -1101.05444 233.09427 478
-460.55219 -1100.86389 253.59578 436
-469.97592 -1102.87378 30.33705 477
-469.66330 -1102.84790 50.60032 435
-469.74686 -1102.89355 70.90306 436
-470.09894 -1103.20508 91.43842 375
-470.53961 -1104.34961 111.60407 302
-927.97626 -1655.89478 131.90836 293
-926.08160 -1653.15759 163.63643 367
-925.20166 -1651.18274 195.55455 429
-924.54395 -1650.18384 227.35524 429
-923.79224 -1648.83081 258.91113 474
-937.02289 -1647.83899 68.15222 422
-937.18866 -1647.99646 99.94579 422
-937.60449 -1648.27856 132.12505 358
-1396.27441 -2195.41870 88.59656 464
-1395.68823 -2194.66675 131.66945 465
-1395.02527 -2193.99268 175.33038 415
-1394.44067 -2193.06885 218.67497 415
-1394.72192 -2192.69385 262.08743 349
-43303.55078 -47070.51562 -5127.91699 1000
-33218.33594 -22718.16602 4765.70703 1000
-24578.30078 -12516.05762 581.57269 1000
90.16988 -2.93631 128.18779 367
89.98489 -2.99007 128.38631 310
88.95461 -3.28591 128.38791 306
90.27770 -2.83005 128.20569 368
90.01775 -2.90347 128.38614 310
88.98622 -3.19182 128.38637 306
90.38297 -2.72532 128.22765 369
90.05190 -2.81549 128.38667 310
89.01786 -3.09864 128.38788 306
90.48559 -2.62024 128.24545 371
90.08562 -2.72923 128.38629 310
89.04993 -3.00387 128.38779 306
87.85873 -3.31972 128.38695 302
90.59003 -2.51764 128.26445 372
90.11930 -2.63978 128.38641 310
89.08351 -2.91035 128.38741 306
87.89016 -3.21904 128.38603 302
90.68955 -2.41659 128.28206 373
90.15379 -2.55291 128.38521 310
89.11666 -2.81444 128.38617 306
87.92307 -3.11882 128.38783 302
90.78917 -2.31619 128.29944 374
90.19090 -2.46571 128.38733 310
89.15115 -2.72040 128.38730 306
87.95568 -3.01674 128.38802 302
-3097.92407 -789.08600 787.79816 1000
90.89039 -2.21794 128.31831 376
90.22604 -2.37694 128.38673 310
89.18715 -2.62739 128.38521 306
87.99136 -2.91565 128.38786 302
90.98685 -2.12006 128.33328 377
90.26277 -2.29031 128.38564 310
89.22340 -2.53188 128.38522 306
88.02426 -2.81275 128.38559 302
91.08318 -2.02451 128.35010 378
90.30132 -2.20197 128.38597 310
89.25842 -2.43709 128.38715 306
88.05893 -2.71278 128.38637 302
86.66344 -3.02687 128.38560 298
91.18055 -1.92875 128.36639 379
90.33840 -2.11302 128.38586 310
89.29644 -2.34253 128.38620 306
88.09580 -2.60966 128.38760 302
86.69805 -2.91888 128.38565 298
91.27476 -1.83342 128.38235 381
90.37669 -2.02548 128.38586 310
89.33476 -2.24870 128.38675 306
88.13234 -2.50764 128.38641 302
86.73163 -2.80853 128.38669 298
91.33440 -1.74649 128.38745 314
90.41772 -1.93853 128.38651 310
89.37060 -2.15596 128.38678 306
88.16913 -2.40367 128.38493 302
86.76845 -2.69436 128.38599 298
91.37498 -1.66401 128.38766 314
90.45551 -1.84816 128.38770 310
89.41074 -2.06103 128.38783 306
88.20594 -2.30194 128.38591 302
86.80640 -2.58384 128.38774 298
91.39702 -1.58593 128.38228 466
90.49574 -1.76189 128.38646 310
88.04560 -2.24115 128.05312 356
88.04530 -2.23862 128.34410 357
86.84119 -2.47336 128.38849 298
91.41679 -1.50804 128.37653 467
90.53738 -1.67407 128.38689 310
87.83574 -2.18463 127.99242 355
87.83262 -2.18294 128.28809 355
86.88037 -2.36466 128.38832 298
91.43787 -1.42831 128.36964 468
90.57738 -1.58579 128.38760 310
87.61852 -2.12395 127.93455 354
87.61656 -2.12522 128.23141 354
86.91833 -2.25145 128.38632 298
91.46033 -1.34910 128.36467 468
90.62078 -1.49683 128.38663 310
87.39327 -2.06412 127.87012 352
87.39055 -2.06341 128.17323 353
86.95509 -2.14044 128.38718 298
91.48044 -1.26861 128.35822 469
90.66192 -1.40915 128.38742 310
87.15907 -2.00338 127.80811 351
87.16159 -2.00115 128.11383 351
86.99719 -2.03076 128.38826 298
91.50256 -1.18908 128.35146 470
90.70481 -1.31895 128.38660 310
87.11926 -1.90754 127.78914 306
87.06617 -1.91307 128.08295 448
-14.87671 -2.43123 -2.99917 298
91.52488 -1.10999 128.34767 470
90.74703 -1.23081 128.38680 310
87.15796 -1.79736 127.78761 306
86.97690 -1.82508 128.05762 447
86.97631 -1.82285 128.36604 448
91.54404 -1.03069 128.34045 471
90.79330 -1.14210 128.38728 310
87.20026 -1.68602 127.78915 306
86.88345 -1.73095 128.02501 446
86.88182 -1.73301 128.33727 447
85.45668 -1.94931 128.38747 294
91.56666 -0.95043 128.33502 471
90.83636 -1.05567 128.38570 310
87.24199 -1.57372 127.78571 306
86.79082 -1.64037 127.99638 445
86.78825 -1.63957 128.31114 446
85.49977 -1.82439 128.38528 294
91.58907 -0.86917 128.32719 472
90.88261 -0.96599 128.38686 310
87.28300 -1.46216 127.78641 306
86.69705 -1.54462 127.96653 444
86.69483 -1.54450 128.28342 445
85.54145 -1.70320 128.38658 294
91.61069 -0.78736 128.31996 473
90.92847 -0.87803 128.38727 310
87.32607 -1.35270 127.78888 306
86.60133 -1.45072 127.93538 443
86.59871 -1.45060 128.25784 444
85.58377 -1.58508 128.38586 294
91.63052 -0.70647 128.31427 473
90.97342 -0.78873 128.38718 310
87.36920 -1.24194 127.78609 306
86.50191 -1.35082 127.90771 443
86.50060 -1.35057 128.22725 443
85.63011 -1.46251 128.38672 294
91.65455 -0.62428 128.30785 474
91.01958 -0.70198 128.38618 310
87.41350 -1.13228 127.78767 306
86.40423 -1.25263 127.87617 442
86.40214 -1.25354 128.20047 442
85.67390 -1.33796 128.38454 294
91.67613 -0.54263 128.30162 474
91.06752 -0.61379 128.38716 310
87.46106 -1.02118 127.78620 306
86.30378 -1.15418 127.84291 491
86.30516 -1.15012 128.17076 492
85.72031 -1.21680 128.38751 294
91.69676 -0.46069 128.29500 475
91.11471 -0.52479 128.38625 310
87.50736 -0.91113 127.78883 306
86.27368 -1.04059 127.82890 491
86.27529 -1.04239 128.15338 492
85.76323 -1.09565 128.38489 294
91.71798 -0.38050 128.28697 475
91.16299 -0.43594 128.38570 310
87.55257 -0.79881 127.78731 306
86.24507 -0.93350 127.81192 491
86.24372 -0.93263 128.13818 492
85.81039 -0.97538 128.38770 294
91.74163 -0.29815 128.28036 476
91.21180 -0.34762 128.38545 310
87.59951 -0.68856 127.78673 306
86.21722 -0.82072 127.79622 490
86.21553 -0.82207 128.12585 491
85.85834 -0.85276 128.38858 294
91.76405 -0.21343 128.27328 476
91.26181 -0.26003 128.38666 310
87.64511 -0.57798 127.78703 306
86.22784 -0.70380 127.78615 302
86.18646 -0.70597 128.10965 491
85.90607 -0.73226 128.38869 294
-49522.71484 -4388.70459 5037.60205 1000
91.78567 -0.13140 128.26485 477
91.31239 -0.17172 128.38609 310
87.69388 -0.46866 127.78598 306
86.27393 -0.58328 127.78681 302
86.15346 -0.59422 128.09258 491
85.95700 -0.61233 128.38506 294
91.80900 -0.04788 128.25671 477
91.36329 -0.08255 128.38649 310
87.74312 -0.35565 127.78882 306
86.32684 -0.46440 127.78680 302
86.12371 -0.47891 128.07649 490
86.00727 -0.49095 128.38828 294
91.81266 0.03365 128.24471 487
91.41416 0.00701 128.38686 310
87.79357 -0.24799 127.78810 306
86.37468 -0.34564 127.78742 302
86.09340 -0.36429 128.06241 490
86.05524 -0.36936 128.38763 294
91.78915 0.11553 128.22591 486
91.46448 0.09354 128.38663 310
87.84485 -0.13715 127.78938 306
86.42301 -0.22631 127.78912 302
86.06357 -0.25089 128.04474 490
86.06200 -0.24874 128.38036 491
91.76768 0.19749 128.20518 486
91.51644 0.18407 128.38716 310
87.89641 -0.02635 127.78658 306
86.47633 -0.10678 127.78620 302
86.03218 -0.13416 128.02763 490
86.03329 -0.13483 128.36400 490
91.74455 0.27989 128.18533 486
91.56973 0.27224 128.38702 310
87.94788 0.08447 127.78739 306
86.52798 0.01218 127.78957 302
86.00048 -0.01623 128.01282 489
86.00003 -0.01511 128.34660 490
91.72446 0.36478 128.16638 485
91.62290 0.36054 128.38666 310
90.56487 0.31190 128.38739 306
86.57887 0.13258 127.78967 302
86.02265 0.10635 128.00766 483
86.02596 0.10741 128.34416 484
91.70205 0.44805 128.14401 485
91.67574 0.44714 128.38657 310
90.61853 0.40713 128.38585 306
86.63371 0.25047 127.78964 302
86.05737 0.22658 128.00308 484
86.05791 0.22583 128.33821 484
91.67835 0.53324 128.12405 485
91.67767 0.53234 128.37378 486
90.67503 0.49996 128.38602 306
86.68595 0.36908 127.78758 302
86.09099 0.34820 127.99655 484
86.09100 0.34940 128.33597 485
91.65597 0.62086 128.10376 484
91.65496 0.62129 128.35356 485
90.72971 0.59445 128.38768 306
86.74035 0.48956 127.78571 302
86.12255 0.46995 127.99468 485
86.12003 0.47385 128.33076 485
91.63210 0.70646 128.08144 484
91.63244 0.70876 128.33340 485
90.78493 0.68912 128.38573 306
86.79829 0.60578 127.78590 302
86.15397 0.59231 127.98801 485
86.15343 0.59427 128.32463 486
91.60895 0.79516 128.06071 484
91.60783 0.79544 128.31514 485
90.84230 0.78457 128.38654 306
86.85159 0.72613 127.78878 302
86.18761 0.71654 127.98228 485
86.18748 0.71576 128.32281 486
91.58311 0.88496 128.03954 483
91.58540 0.88358 128.29425 484
90.89697 0.87920 128.38559 306
86.91023 0.84766 127.78591 302
86.22250 0.83999 127.98078 486
86.22038 0.84188 128.31654 487
91.55946 0.97358 128.01685 483
91.56014 0.97519 128.27501 484
90.95395 0.97420 128.38686 306
86.96698 0.96264 127.78684 302
86.25587 0.96110 127.97539 486
86.25409 0.96227 128.31453 487
