# .PCD v.7 - Point Cloud Data file format
VERSION .7
FIELDS x y z rgb
SIZE 4 4 4 4
TYPE F F F U
COUNT 1 1 1 1
WIDTH 662
HEIGHT 1
VIEWPOINT 4171.601562 -4089.752930 127.912384 -0.002916 -0.121029 0.010188 0.992592
POINTS 662
DATA ascii
-3306.32153 75.45625 -488.03061 1000
-274.89795 58.26955 33.33648 319
-268.71317 59.56218 34.99929 326
-283.05719 61.99403 37.64637 323
-299.53336 64.65025 40.23693 315
-264.51486 61.10532 35.94996 350
-279.04443 63.65012 38.57567 347
-294.95749 66.37215 41.20166 341
-262.57709 63.01249 36.37792 351
-277.02155 65.60857 38.93846 345
-293.11423 68.40938 41.57848 319
-260.69305 64.90619 36.86695 351
-275.20752 67.52858 39.31018 345
-294.90182 71.24678 41.06155 319
-258.87466 66.78491 37.20964 352
-275.36774 69.84816 39.13620 322
-257.41040 68.71272 37.46634 325
-277.22745 72.60792 38.58953 319
-259.28781 71.23609 36.92101 322
-261.23132 73.89854 36.19682 321
-263.19452 76.60101 35.57254 321
-45126.67969 15134.57715 -1483.67786 1000
-17274.40430 6165.73828 -2931.81177 1000
-55736.70703 19825.72070 -7737.58252 1000
-29276.30664 15623.29395 5580.17041 1000
-24062.26758 17604.20312 581.76874 1000
-652.13446 1301.77039 -16.72843 1000
-278.24725 1947.64929 -31.30351 397
-264.57062 1940.94006 -30.95595 487
-265.33563 1946.55432 1.05683 487
-266.29950 1952.44043 33.55698 449
-252.62894 1944.63159 -31.11975 486
-253.99777 1950.55774 1.17874 449
-255.09560 1957.25427 33.37966 394
1198.14514 15473.06836 -128.16177 468
1190.71228 15370.24902 124.71140 473
1290.84290 15432.25195 -126.26431 469
1281.70557 15333.41699 124.92477 473
1381.61633 15392.37891 -125.67812 475
1374.92712 15298.49902 124.47629 477
1472.17871 15362.83203 -128.14156 476
1464.10168 15263.95996 125.77058 477
228.68936 1451.60620 -11.47063 438
229.29860 1457.08740 11.77470 378
1565.19019 15331.26758 -125.41700 476
1556.97375 15236.75488 124.84888 478
237.01039 1445.37671 -10.95055 498
237.47450 1449.55212 12.51266 479
238.04453 1453.67249 36.30934 479
238.31094 1458.19238 60.03227 476
1656.31519 15298.23438 -125.99151 476
1648.34827 15204.06641 123.71402 478
246.03358 1444.47266 -11.02475 492
246.57532 1448.82483 12.32965 492
247.06731 1453.38403 36.22211 462
247.72598 1460.63306 59.92977 425
1749.77563 15269.41016 -124.96214 477
1739.61096 15172.31250 127.21238 478
255.49370 1448.61060 -11.52042 411
256.13168 1455.70227 11.65460 344
1838.94666 15238.00977 -126.32772 477
1829.22717 15141.86035 127.99591 479
1930.53906 15207.50781 -124.75548 477
1922.11377 15114.53613 125.70701 479
2023.51709 15177.18848 -122.24487 478
2008.63538 15082.35840 127.09207 479
2111.72607 15144.01270 -125.61098 478
2099.49365 15053.30859 126.05498 479
2204.99634 15117.45312 -125.14188 478
2190.27124 15022.43555 128.05487 480
2293.12573 15085.10254 -120.79923 478
2279.17065 14991.13281 126.68953 480
2284.85571 15021.28809 373.99683 401
2385.46191 15052.38379 -120.68422 479
2367.60449 14960.36035 126.99573 480
2374.75562 14987.69043 374.95258 401
2473.88232 15023.94824 -121.80619 479
2457.65820 14932.30176 126.43757 480
2459.86401 14952.52246 372.74002 418
2563.04883 14993.41797 -122.38054 479
2549.25684 14901.72266 125.61435 481
2549.61548 14919.82520 375.28204 432
2654.06738 14965.35645 -121.15547 479
2637.50684 14873.13574 127.62108 481
2641.42310 14892.24512 376.22009 432
2742.39380 14933.44238 -121.02086 480
2726.78760 14842.45215 125.49979 481
2727.19019 14863.98926 376.00821 432
2828.74243 14901.67285 -122.53538 480
2814.48584 14809.18262 125.81416 481
2918.97510 14874.59473 -120.88038 479
2904.14429 14781.24805 127.34847 482
3008.05054 14842.39062 -118.37189 479
2988.37134 14753.67188 126.17181 482
3096.77539 14815.46387 -117.91896 479
3080.20166 14723.93555 128.57692 482
3184.56006 14784.61328 -120.73507 479
3168.14282 14691.53809 128.12247 482
3274.41821 14755.43945 -119.04794 479
3255.82275 14660.88965 128.91057 482
3362.34204 14722.77539 -118.91473 479
3340.70190 14635.18652 126.00951 482
3450.43970 14693.65234 -116.66487 480
3430.27466 14604.59961 129.26483 483
3539.77515 14665.18945 -119.42194 480
3515.64087 14574.67969 129.01147 483
3624.45312 14636.18457 -118.83802 480
3604.93945 14542.72168 126.39397 483
3713.18188 14605.43555 -118.57518 480
3693.21875 14515.47266 129.40320 483
3803.30298 14576.98828 -118.14284 480
3777.19287 14487.34863 128.92676 483
4207.99756 16172.25781 398.79227 433
15202.52344 59334.82812 7159.29297 1000
3891.02930 14545.77344 -118.01092 480
3867.02539 14455.35059 128.03777 483
4301.96240 16130.74219 399.52722 434
3978.49561 14517.96777 -115.22097 480
3951.50220 14425.55566 129.28242 483
4401.49268 16093.27930 398.83246 415
4064.47949 14486.61328 -118.24137 480
4039.57471 14398.55859 130.05530 483
4496.26123 16056.29785 400.78497 441
4150.45117 14456.51562 -118.79566 480
4126.57764 14366.78906 127.31303 483
4124.56885 14364.66699 372.54059 301
4241.12695 14426.16016 -115.65339 481
4212.14795 14337.79785 128.45763 483
4210.36621 14320.58105 372.61826 301
4326.50342 14396.84570 -115.80847 481
4299.11426 14308.94727 128.67125 484
4291.26953 14279.87793 372.38727 301
4414.50342 14368.72754 -117.26688 481
4386.21826 14279.03906 130.06287 484
4376.66406 14246.18457 372.91071 424
4587.03027 14948.14844 640.37042 494
4502.55078 14340.74805 -117.88007 481
4472.33398 14249.48535 129.70927 484
4460.65723 14213.56348 373.25858 424
4674.58203 14902.36133 640.04047 494
4590.00586 14308.79297 -114.10833 481
4563.05420 14220.83301 127.58253 484
4549.46875 14181.04492 372.01022 424
4761.26416 14854.54395 640.09412 494
4676.66211 14280.76465 -116.93851 481
4648.68994 14195.00781 129.34622 484
4633.90381 14148.50879 372.99637 424
4842.98486 14805.78516 638.06482 495
4764.38525 14253.39941 -117.45032 481
4733.35596 14163.15430 129.85420 484
4717.09912 14115.91309 372.98676 424
4928.31201 14759.11035 636.34515 495
4850.36865 14221.95410 -114.40900 481
4822.99414 14132.69336 128.04341 484
4803.18945 14085.29492 371.44327 464
5016.69531 14712.33691 636.29681 495
13322.54199 38735.11719 -3231.45801 1000
4938.72949 14192.96582 -117.02729 481
4909.39355 14103.58691 131.50104 484
4890.79199 14053.99121 373.08939 499
5100.91943 14667.58105 637.96442 495
5024.70459 14162.93945 -113.78291 481
4996.36035 14075.33203 132.10872 484
4976.04639 14023.46191 372.45764 499
5181.95020 14620.06152 637.34033 496
5114.30127 14134.67676 -115.50269 481
5079.74951 14046.10254 129.49214 484
5062.10303 13995.33984 373.45718 499
5269.02344 14571.70312 635.67560 496
5199.38623 14105.43848 -116.05624 481
5166.53125 14015.93750 132.05827 484
5150.25195 13966.92188 372.52893 499
5351.80762 14532.40918 637.79218 499
5288.75830 14074.79395 -113.74046 481
5256.20557 13987.16797 130.84196 484
5236.81787 13934.45898 374.31458 499
5441.71289 14498.01465 636.39746 499
5374.50195 14047.45996 -113.37817 481
5339.35400 13960.87891 128.60020 484
5322.05469 13906.32031 373.01834 498
5531.35205 14464.47559 635.87262 499
5459.35205 14016.66406 -114.27402 481
5426.93066 13931.97852 132.27109 484
5407.18066 13879.57910 374.09531 498
5622.37500 14436.24902 635.60681 499
5549.57324 13986.52344 -115.02298 481
5513.51611 13899.62012 131.93024 483
5493.31152 13850.38965 374.76624 498
5712.01367 14403.35352 635.13806 499
5635.86719 13956.16113 -115.43658 480
5600.83398 13870.34375 128.54681 483
5582.68750 13817.68652 372.61713 498
5799.20654 14370.25195 637.35895 499
5723.07617 13927.20898 -116.74514 480
5689.70898 13840.55371 130.59998 483
5669.25391 13791.32324 374.64157 498
5890.95605 14338.53809 637.48450 499
5809.45068 13901.22754 -113.75127 480
5777.15967 13814.66309 131.93045 483
5755.78906 13761.43555 376.35416 498
5978.26270 14305.62598 638.98254 499
5862.90527 13785.26074 130.89090 483
5839.28076 13730.56738 374.05188 497
6041.16455 14216.64258 637.41010 436
5951.90234 13753.29297 130.57367 483
5928.38916 13702.31445 375.34509 497
3807.68604 8935.43945 316.86139 490
6176.37158 14281.31836 892.52826 499
6037.30615 13725.84180 130.82405 483
6015.33740 13672.07715 373.24954 497
6209.35449 14115.26270 633.49121 490
6266.95654 14250.39355 892.55713 499
6123.77100 13695.78809 131.36855 483
6102.62207 13644.22461 376.73630 497
6296.55469 14087.68750 637.11005 490
6356.74658 14220.95996 892.34766 498
6419.63818 14367.01758 1160.71155 470
6213.23926 13666.50391 129.74419 483
6189.61133 13614.30664 376.61197 497
6387.12158 14054.84473 633.90863 490
6445.31543 14187.66309 892.88599 498
6503.74072 14322.49316 1161.88025 475
6299.68018 13637.74219 131.25876 483
6274.53174 13582.35840 374.50803 497
6477.86719 14026.20703 634.94800 431
6535.99561 14153.89844 896.64355 498
6535.93115 14156.85254 1151.61108 468
6387.27344 13604.90625 132.60260 482
6362.24268 13554.30371 374.82230 497
6601.95117 14072.64648 639.30823 469
6599.94336 14070.70898 891.34521 469
6600.40381 14069.47070 1146.57227 469
6475.67383 13577.84375 130.64462 482
6451.73438 13521.76465 378.14926 496
6668.79102 13988.35059 635.43591 470
6665.80811 13982.76270 891.15601 470
6667.19434 13983.68750 1142.42078 470
6564.46631 13545.59961 129.73781 482
6538.53760 13494.28223 377.98563 496
6732.72217 13901.46191 636.34210 471
6730.84668 13897.08203 887.46454 471
6728.34717 13896.15430 1141.79785 471
6649.27197 13518.32129 132.58371 482
6626.61572 13465.01855 376.95758 496
6793.95703 13815.72656 636.03333 472
6792.95850 13814.38770 884.41620 471
6794.77783 13810.19336 1139.49060 471
7031.50635 14296.18262 1434.84204 253
7139.88770 14526.64355 1720.41125 371
6739.07764 13486.41113 129.93608 482
6714.28516 13434.71875 374.79758 496
6870.85596 13757.14062 634.94641 498
6871.94434 13757.69727 886.32416 497
6873.58057 13763.23242 1136.50830 497
7010.07764 14039.64355 1415.65088 479
6827.77393 13459.18262 131.51022 481
6800.30811 13403.80957 376.66269 496
6961.03076 13725.44434 636.22528 498
6963.60205 13727.27246 884.87085 497
6964.91650 13730.06445 1136.27832 497
7054.86523 13911.20215 1406.19446 318
7053.09961 13909.34668 1663.63037 474
7057.86963 13913.79102 1920.24048 473
7062.74023 13927.45020 2181.88647 345
6915.19873 13429.59668 131.57454 481
6889.36865 13376.88086 376.85382 496
7049.53271 13691.43848 634.26324 497
7036.24219 13666.01074 883.26489 497
7054.68652 13697.20410 1140.04309 497
7193.26172 13970.01855 1415.10559 479
7003.03223 13396.86133 133.84843 481
6976.52930 13345.93164 377.29425 495
7140.38623 13658.98926 633.54431 497
7127.86133 13635.52344 887.30298 497
7142.60303 13667.66699 1139.64380 497
7283.22656 13938.89355 1417.66931 478
7094.64209 13368.68652 130.61644 481
7065.85400 13314.90234 379.54407 495
7229.30957 13626.95605 634.69617 497
7215.01172 13604.35547 887.60614 497
7232.88965 13632.20703 1141.76807 496
7373.14648 13903.34375 1420.23901 468
7183.26318 13338.96387 132.65800 481
7151.56445 13284.21680 379.63062 495
7320.03760 13598.57324 636.95764 497
7304.91113 13572.97461 886.00452 496
7322.43066 13599.43359 1143.98010 496
7464.83887 13869.56543 1419.33496 468
7271.05957 13309.28418 133.94440 480
7243.70996 13256.17871 377.51001 495
7410.12207 13566.26465 636.01001 496
7395.82324 13540.94922 888.97998 496
7411.85449 13567.22266 1142.21265 496
7555.61328 13833.15820 1420.64294 468
7358.55713 13279.93457 131.66597 480
7329.95801 13224.16016 377.73807 494
7498.77637 13532.71973 637.57587 496
7488.03857 13509.95020 890.25031 496
7502.56592 13536.61719 1142.62390 496
7643.78711 13797.53711 1423.84363 468
7449.05273 13250.52832 131.89963 480
7418.60645 13193.35059 377.44312 494
7588.97754 13498.64160 639.52740 496
7574.45752 13477.61426 891.36749 496
7592.45508 13505.45703 1145.73071 496
7736.35107 13763.79590 1423.40881 468
7538.11621 13216.48145 131.78397 480
7509.35205 13164.55664 378.87802 494
7682.17334 13467.42871 637.36829 496
7681.00195 13467.92188 892.56262 496
7578.54150 13290.19824 1130.47473 390
7829.41016 13729.60547 1425.13416 468
7630.29199 13189.29395 130.66354 479
7599.50537 13132.83203 381.65033 493
7768.51611 13436.40820 638.07288 495
7773.59863 13438.59180 891.89020 495
7603.50586 13143.65918 1126.57397 495
7922.26953 13694.96973 1425.03638 468
7720.06104 13158.50195 134.56595 479
7687.47314 13103.53418 380.96408 493
7861.14941 13400.91504 638.82025 495
7861.91455 13403.72559 893.16071 495
7691.98682 13111.92188 1127.46765 495
8013.96045 13661.50781 1426.92163 468
7809.78125 13129.96777 103.66634 479
7775.85938 13075.98242 350.27106 493
7951.95752 13373.26855 610.88977 495
7849.00879 13195.01270 854.86810 353
7783.08496 13082.89941 1096.21399 494
8106.54590 13635.34766 1399.66650 467
7900.80078 13099.75293 103.72825 478
7867.24316 13045.22363 353.40402 493
8041.15234 13339.70508 610.80042 495
8044.94775 13339.64844 864.03497 494
7871.26074 13051.52539 1099.64673 494
8198.31934 13600.97949 1398.76404 463
7991.92432 13065.81836 104.83924 478
7956.35010 13014.76953 354.14719 492
8135.14111 13306.34668 611.71729 494
8136.89111 13309.00391 866.39319 494
7961.47363 13020.83105 1100.76184 494
8291.93262 13565.45117 1400.30908 463
8083.80664 13034.91504 103.18321 478
8047.85010 12984.17773 350.74496 492
8230.29395 13277.44434 612.77051 429
8232.34668 13285.36230 870.44415 429
8260.54492 13330.16602 1128.03406 424
8403.54102 13566.13965 1408.69507 437
8171.53174 13004.37109 103.38396 477
8140.86035 12952.16699 351.39850 492
8352.03809 13291.36133 614.80048 457
8364.49219 13316.72656 873.00256 428
8393.22656 13360.84570 1131.60828 423
8520.18262 13564.32910 1412.37561 431
8266.06543 12972.99023 104.74825 477
8228.97266 12918.32617 355.05499 491
8464.94141 13289.64453 618.28363 456
8496.06445 13345.35938 876.17035 427
8523.68164 13391.71973 1137.86157 422
8358.13965 12942.66895 106.21642 477
8319.59375 12887.49219 353.70868 491
8576.36035 13288.09668 620.35242 456
8610.42969 13348.43164 882.31030 455
8447.50488 12913.01855 104.05034 476
8415.42773 12856.71680 353.97485 490
8691.41016 13286.24121 621.64368 455
8726.40625 13344.96484 883.19531 454
8540.35547 12881.86523 104.72543 476
8505.34766 12825.20703 355.55231 490
8806.49316 13285.19043 621.69611 454
727.72626 961.09729 16.98146 431
730.45459 965.35205 35.37767 369
8634.21680 12850.16602 103.13061 476
8596.70508 12794.38281 357.55112 490
8923.37207 13283.88965 627.97064 453
730.92841 953.25897 17.37187 475
732.85596 956.12549 36.00095 475
735.13208 959.50281 54.66982 468
736.77991 962.11743 73.57988 431
8726.45996 12818.70605 102.78341 475
8689.13184 12764.67578 355.75677 489
9036.84570 13281.29297 625.80145 438
736.46332 948.99969 17.31013 494
738.46442 951.70551 35.94502 494
740.34729 954.74207 54.84307 497
741.86670 957.24689 73.74423 494
744.48035 960.89056 92.44664 422
8821.22754 12789.77832 105.88606 475
8783.10449 12730.34863 356.29895 489
743.91400 947.25555 17.16219 467
746.10663 950.64661 35.80804 419
748.94501 954.88776 54.44755 411
8913.02441 12757.03125 105.23158 475
8877.01562 12701.93945 359.72928 489
1152.69055 1517.21643 -270.93103 1000
9006.64551 12726.20508 103.16751 474
8971.18066 12670.23926 360.30670 488
9103.32227 12691.23926 104.17774 474
9061.52246 12637.51367 360.81787 488
9199.55762 12661.60645 106.88682 473
9155.43848 12604.50195 361.24396 487
9292.57910 12629.79980 105.92384 473
9250.54102 12571.93066 359.26999 487
9387.50000 12596.93555 106.44956 472
9347.49121 12539.56250 360.54813 486
9482.98633 12562.23926 106.07426 472
9441.46582 12508.23340 362.35089 486
9581.11133 12532.06348 108.09081 472
9539.31348 12473.77051 362.81531 485
9675.48047 12497.26465 106.71236 471
9633.49316 12443.93359 365.22607 483
9774.93262 12467.62793 106.71370 471
9731.72559 12409.24707 363.36856 482
9870.82227 12433.56738 105.90449 470
9825.24609 12378.50781 366.84344 482
9968.12695 12402.84277 106.07765 470
9922.00098 12343.21973 364.77692 481
10067.01465 12369.25586 106.19384 469
10022.23926 12311.11426 368.41150 481
10166.39746 12336.63281 109.28686 469
10120.93848 12277.84277 366.26376 480
10264.76660 12300.64258 106.16949 468
10216.38965 12243.68945 368.46661 480
10366.76172 12268.28613 105.89458 468
10317.07910 12209.02441 367.25797 479
10463.66016 12231.90039 109.18178 467
10415.50293 12178.60938 371.29153 478
10566.74414 12199.87988 110.51541 467
10516.53516 12141.73242 372.51929 478
10666.37305 12167.07715 107.69123 465
10616.57617 12110.07812 369.40240 477
10766.30859 12129.66797 109.79631 464
10717.68652 12075.76074 370.63589 477
10872.86035 12099.23047 106.66534 464
10819.57227 12039.26562 371.26434 476
10971.67676 12064.41797 109.36303 463
10920.24512 12004.25098 372.96768 476
11076.63379 12028.58301 109.23611 462
11022.08984 11969.13281 373.99646 475
11180.02051 11992.05273 109.44165 462
11125.25781 11935.60742 375.24451 474
11287.03809 11957.58105 111.83051 461
11229.65039 11901.53516 377.44809 474
11392.31641 11922.33008 111.13470 461
11333.48340 11863.15527 377.11990 473
4993.71094 5179.14551 1785.18665 1000
11496.95996 11889.45898 108.32218 460
11440.46973 11829.14844 379.57788 470
11607.01367 11853.64551 108.58263 444
11544.14844 11795.79102 381.50043 469
11721.53027 11831.62109 108.52115 444
11649.54590 11758.86328 380.16110 468
11843.95898 11806.48438 110.07227 443
11757.10156 11721.12598 380.92325 468
11968.58594 11783.35840 110.63000 443
11878.90234 11698.83594 383.55371 443
12089.78125 11760.60645 111.54115 442
12000.60352 11675.79688 386.10211 442
12212.95605 11736.86523 110.57646 441
12123.95508 11653.54492 382.96735 441
12135.40820 11663.54785 661.37274 366
12340.11328 11714.74805 111.36874 394
12247.32715 11631.07031 386.26019 440
12225.20312 11605.67188 658.80682 460
12499.93652 11723.22754 109.24979 393
12374.47949 11606.53418 385.94104 439
12669.90039 11737.03223 112.72335 371
12500.43750 11581.05273 387.85266 440
12846.23340 11756.66699 111.94427 370
12639.81836 11567.33691 388.98309 393
12632.11426 11559.96875 672.32404 421
13037.52246 11788.16699 110.04067 342
12798.34668 11568.33594 391.76279 392
12753.98730 11532.03809 671.13641 339
12958.35449 11574.24023 396.21228 391
12893.74316 11518.16016 676.59161 338
13127.16211 11582.42480 395.25400 369
13043.53125 11506.88672 681.41541 416
13325.42090 11615.33301 399.84442 341
13198.92578 11500.62695 684.24133 411
13549.65723 11664.80664 405.94849 340
13366.59766 11507.20117 686.97992 324
13568.21484 11534.55859 693.20544 342
51149.38281 22749.72266 -9124.71973 1000
32514.33203 13764.14062 8939.01465 1000
3641.65796 898.36865 71.39190 475
3650.78027 901.33911 131.82402 362
3650.10498 878.01044 72.12540 417
4950.39453 -407.98776 133.72285 432
4928.14990 -434.87814 133.41138 432
4905.28955 -463.42603 134.29546 413
4877.17529 -490.57147 133.98341 326
4855.90283 -518.16669 133.84924 436
4845.32666 -545.45709 134.19244 436
4833.55273 -574.81396 134.11279 436
4825.55176 -602.08289 133.96678 439
4816.50049 -631.74866 133.93735 439
4982.55811 -653.79303 215.31384 267
4808.98486 -660.08252 133.23058 496
4884.22559 -670.58093 212.52144 499
4803.18506 -688.26697 134.37451 498
4799.27539 -717.02319 133.45789 498
4795.85645 -746.56708 133.78059 498
4793.37646 -776.14978 133.63620 497
4897.36914 -792.92542 213.71913 274
4790.92529 -804.33197 133.78049 497
4916.45459 -826.04755 294.66257 484
4789.75928 -833.74292 133.56140 496
4787.23389 -863.73676 134.08990 496
4785.65723 -893.78741 134.18903 438
4833.48877 -902.20001 213.23657 498
4785.08887 -923.43848 134.64034 438
4783.88428 -952.38965 133.89052 438
4782.67920 -981.90070 134.41924 438
4780.47461 -1011.86700 134.27274 437
4779.81543 -1041.87720 134.43362 437
4778.21826 -1072.64380 133.75804 437
4777.35010 -1102.34497 134.01811 437
4775.40088 -1132.72571 133.76591 437
4774.17920 -1162.85181 134.65829 436
4908.43066 -1195.64819 215.18808 411
4772.53223 -1193.03748 133.79669 436
6313.03223 -1627.05017 -1365.28564 1000
4770.91211 -1222.30188 133.54813 436
63092.71484 -23252.40625 15819.11426 1000
49804.02344 -20102.67773 11736.67578 1000
3768.73877 -1926.75879 133.82147 498
3773.73926 -1930.48291 201.76009 498
49331.12109 -28558.53906 -1709.15515 1000
25593.91406 -18116.55273 -2937.70190 1000
4668.03516 -4730.46338 241.51089 462
4645.09912 -4765.91309 241.62152 465
4625.86768 -4803.33887 242.19212 466
4606.16162 -4841.56689 242.51306 472
4587.63379 -4883.52490 242.27826 463
4573.14355 -4927.14648 243.32063 454
4560.58398 -4974.85010 243.46460 450
4553.61475 -5027.44775 244.42192 420
4554.15283 -5090.90430 244.92499 411
4551.69189 -5152.16455 245.79860 362
4553.92236 -5217.76318 246.01218 409
4554.34863 -5283.92285 247.56480 408
4557.23633 -5351.95703 248.22061 406
4561.26904 -5427.82568 248.33170 382
761.77448 -1029.54614 51.84538 476
761.37610 -1029.23157 72.06767 477
761.19159 -1028.75964 92.04314 477
760.61029 -1028.04443 112.43726 477
760.41815 -1027.63818 132.25598 498
760.06567 -1027.13074 152.45010 498
759.95251 -1026.65771 172.48758 498
759.55841 -1026.06274 192.48442 498
759.35931 -1025.74756 212.67105 498
758.87024 -1025.23328 232.77713 498
758.85004 -1024.91492 253.06297 494
758.65216 -1024.72400 273.20966 433
756.39478 -1035.07275 51.77376 416
756.39410 -1034.94507 71.67471 416
756.52319 -1035.15930 91.98218 351
756.67932 -1035.55566 112.20753 351
757.27429 -1036.29272 132.38724 275
3144.85522 -5944.54199 253.45332 265
3068.06445 -5885.83252 252.86011 427
3015.99292 -5872.36523 250.46994 428
2963.56079 -5855.13232 250.57684 439
2913.88208 -5844.99463 250.94691 432
2865.82300 -5837.97559 249.14630 410
2819.85938 -5833.59473 248.81441 414
2774.95581 -5831.48047 249.19891 394
2789.80737 -5861.51123 355.80988 477
3383.50928 -7268.92529 15.88114 1000
2731.91113 -5829.13379 248.27483 397
2746.19287 -5862.62695 354.76340 478
2688.02100 -5827.64355 247.20932 399
2699.93555 -5857.62061 353.28748 478
2644.24756 -5829.15527 247.95920 401
2657.83008 -5856.93555 353.85428 479
2603.24878 -5829.10303 247.74734 401
2617.35205 -5861.30859 353.31543 474
2560.84424 -5828.89111 246.84370 402
2574.52856 -5862.56152 352.36334 480
1415.48242 -3182.46704 138.73260 261
2518.04077 -5828.86963 247.33794 402
2531.44482 -5861.22363 351.25159 486
1352.88452 -3086.82373 138.02263 308
1445.22754 -3312.06567 197.27470 366
2493.67944 -5868.71924 351.18835 499
1320.59766 -3061.46533 138.07883 423
1418.43799 -3304.65356 197.01599 466
2503.64600 -5997.77686 355.16754 342
2501.30664 -5993.14600 461.84058 342
1307.51123 -3084.01050 138.53734 424
1396.26465 -3305.73560 196.23820 466
2504.14282 -6106.54980 359.25830 340
1295.23096 -3107.26294 138.21596 424
1372.48401 -3307.11865 196.18326 465
2404.58398 -5962.45410 457.35291 288
1283.06543 -3131.36572 137.77097 420
1350.12158 -3308.58496 196.39362 467
1270.84937 -3158.25244 138.06677 414
1328.05872 -3310.56812 196.69199 467
1258.34033 -3184.54224 138.04997 419
1305.14197 -3311.61792 195.94269 467
1245.76697 -3212.02417 138.27455 411
1282.17261 -3313.24292 196.57944 468
1234.99622 -3243.85327 138.19623 399
1260.59119 -3315.12671 196.35426 468
1225.27161 -3279.41455 138.17432 380
1237.96118 -3317.31836 195.88446 459
1216.14209 -3319.11694 137.93538 369
1221.82922 -3335.88550 195.96875 466
1209.35669 -3368.17554 138.48293 347
1215.44678 -3386.54126 197.00180 319
1210.49097 -3441.07495 138.35832 262
2050.44141 -6016.03223 247.30527 377
2023.11963 -5931.62598 348.23203 325
1213.42102 -3522.69873 138.82344 313
2022.83801 -6061.12842 352.03537 318
1221.33728 -3623.38965 139.37978 287
1225.05811 -3717.99341 139.10432 341
733.16614 -4668.31885 839.47778 1000
242.39500 -1527.58887 59.20017 490
242.35368 -1527.00867 84.35201 491
242.16045 -1526.11084 109.69550 491
242.21919 -1525.37939 134.81606 491
242.29616 -1524.97156 159.82213 491
241.95148 -1524.21021 184.84575 491
241.83075 -1523.49854 209.79987 491
241.89049 -1522.44043 235.16370 491
241.62686 -1521.86877 260.24545 491
570.79486 -23429.54492 -214.20016 1000
-260.17484 -2036.05505 67.26080 399
-260.70908 -2036.47913 101.19967 330
-272.74930 -2033.77539 135.25647 322
-272.20190 -2031.04883 168.73264 393
-271.74503 -2028.64795 202.66974 393
-271.70792 -2027.49915 236.57916 449
-271.23843 -2025.52039 270.21872 449
-1029.66223 -5337.68457 586.82513 1000
-6013.75146 -24587.48242 -249.71867 1000
-8593.95020 -28215.48633 2103.24854 1000
-31850.88086 -22009.41406 7204.25781 1000
-50760.09375 -14523.44141 7981.24609 1000
-263.47165 -75.07434 36.14238 321
-261.48590 -72.41300 36.72939 321
-259.52219 -69.72411 37.40970 322
-279.76913 -73.83179 38.46960 318
-259.48410 -67.57336 37.59578 349
-277.68573 -71.02262 39.15428 321
-261.35614 -65.69520 37.11802 351
-275.97736 -68.44901 39.61906 321
-263.23221 -63.80600 36.78350 351
-277.79584 -66.41429 39.29953 345
-295.55850 -69.66130 41.50709 319
-265.12180 -61.87286 36.37247 350
-279.66406 -64.49451 38.94562 347
-295.85324 -67.26344 41.61542 340
-268.34149 -60.19972 35.57326 326
-282.45993 -62.62024 38.27781 324
-298.95862 -65.34486 40.91096 315
-274.05698 -58.93246 34.14112 320
-288.23053 -61.19060 36.94774 323
