# .PCD v.7 - Point Cloud Data file format
VERSION .7
FIELDS x y z rgb
SIZE 4 4 4 4
TYPE F F F U
COUNT 1 1 1 1
WIDTH 1212
HEIGHT 1
VIEWPOINT 6533.714355 -3544.281494 133.047943 -0.448678 -0.135634 -0.048850 0.881989
POINTS 1212
DATA ascii
-196.94945 1.42759 53.36439 324
-196.97231 3.20061 53.38461 324
-196.94087 5.02511 53.35543 324
-196.93733 6.75827 53.32375 324
-196.94337 8.64542 53.31147 324
-196.89322 10.46068 53.32120 324
-196.87869 12.26340 53.35803 324
-284.32321 60.13490 35.65013 316
-263.53763 59.26003 34.50421 325
-278.19986 61.51080 37.18283 322
-294.61441 64.22505 39.81696 312
-259.92047 60.84434 35.32437 350
-274.63174 63.31690 37.97448 346
-290.83618 66.08323 40.68817 340
-257.95911 62.81564 35.81767 350
-272.56512 65.34271 38.37312 346
-288.92685 68.10316 41.00303 341
-256.10995 64.70892 36.16434 350
-270.71109 67.36946 38.77501 345
-290.26529 70.77398 40.62428 319
-254.20877 66.60854 36.61152 351
-270.49670 69.56681 38.74450 322
-252.44962 68.48605 36.94967 325
-272.46417 72.32362 38.14722 319
-254.41577 71.11145 36.40088 322
-277.05188 75.50099 36.88145 261
-256.44800 73.75732 35.73540 321
-258.47089 76.40321 34.99444 321
-11104.47949 4792.32617 2149.39307 1000
-9105.38477 5589.33545 2645.23730 1000
-13327.13574 8608.66016 398.06357 459
-13326.73535 8723.62500 137.24361 455
-13234.27832 8664.52344 395.77945 460
-13226.29785 8778.08203 134.30429 459
-13141.60938 8720.01953 397.07150 474
-13137.66895 8833.93945 134.75116 465
-13051.82520 8778.78711 396.22293 476
-13046.69824 8892.23828 136.36707 465
-12962.67480 8835.49414 394.44495 477
-12957.19629 8950.35254 133.46994 466
-12877.92969 8892.09668 392.51166 477
-12871.45605 9005.28320 133.95677 466
-12791.36719 8953.20801 393.43732 478
-12784.19824 9063.75098 134.78244 467
-12702.31055 9008.84766 389.18597 479
-12695.77832 9117.83984 133.79881 467
-12618.88965 9064.80762 388.62659 479
-12608.51074 9178.04199 135.19466 468
-12533.86914 9122.78516 391.22369 480
-12521.17285 9232.78516 133.44812 468
-12446.49707 9176.11816 391.01263 480
-12673.98730 9461.74219 -2488.77881 1000
-12433.54980 9288.23926 132.58902 469
-12359.65723 9234.32812 387.95749 481
-12346.71875 9342.90723 134.71346 470
-12277.44922 9291.44727 386.76175 481
-12261.56738 9398.95117 134.81281 470
-12192.55078 9345.77441 387.43719 482
-12180.18848 9454.60059 135.56094 470
-12111.16992 9400.94336 387.52603 482
-12092.30273 9509.12598 132.76378 471
-12024.55078 9455.69629 383.92532 483
-12007.38965 9564.63574 136.05292 471
-11942.45508 9511.72559 383.64474 483
-11925.67383 9619.03027 135.90680 472
-11861.72168 9566.34277 383.66180 484
-11842.70996 9669.90527 135.35739 472
-11778.66016 9619.85645 382.56027 484
-11756.04199 9724.20117 135.36269 473
-11696.42480 9676.56934 381.99515 485
-11674.05664 9778.09277 133.48511 473
-11613.00195 9730.25000 382.20154 485
-11593.60645 9833.29102 134.86099 474
-11531.96875 9781.76172 381.11084 485
-11510.18945 9885.05762 131.78589 474
-11450.80762 9834.53516 381.96451 486
-11427.27344 9936.41895 135.01132 474
-11371.52734 9888.71387 379.70010 486
-11348.40137 9990.83887 134.13484 475
-11288.98340 9942.62402 381.17191 487
-11263.53418 10043.08398 132.52013 475
-11208.48926 9993.27246 379.59799 487
-11183.22070 10099.33105 132.88855 476
-11129.39941 10050.16602 379.73508 488
-11103.55859 10150.48340 131.52499 476
-11047.24512 10100.72168 378.90222 488
-11022.27441 10201.65332 134.13087 476
-10968.97168 10153.80176 376.97897 488
-10942.82129 10252.26758 132.82018 477
-10890.39160 10206.31836 376.23337 489
-10859.90234 10305.51172 132.69739 477
-10810.51758 10260.27148 375.54675 489
-10781.48438 10357.21582 130.43707 477
-10731.00586 10308.80176 376.31894 489
-10699.92969 10407.22559 131.39796 478
-10653.94141 10365.01367 375.05643 490
-10622.93652 10459.23242 132.77145 478
-10576.00000 10413.31738 376.08438 491
-10543.37598 10512.83887 130.79073 478
-10498.45020 10465.61035 376.20825 494
-10463.14453 10558.91797 134.39586 479
-10417.76855 10518.68750 375.22491 494
-10967.06836 11066.55859 643.94342 482
-10385.33496 10611.22949 130.21577 479
-10343.00684 10568.40918 375.17511 494
-10874.21582 11109.79102 642.56793 483
-10373.86523 10730.95801 -114.57517 476
-10305.67676 10662.54492 130.77530 479
-10265.57129 10621.80566 376.38568 495
-10780.98730 11150.37012 642.90820 483
-10292.99902 10779.22754 -111.12544 477
-10227.35938 10713.62012 131.97285 480
-10189.14941 10672.65527 373.56741 495
-10688.13086 11190.34863 641.43036 484
-10215.71191 10831.29297 -113.95615 477
-10149.57324 10763.08105 132.17549 480
-10109.81641 10725.68457 374.50333 495
-10594.99707 11230.86719 639.22430 484
-10133.90918 10881.66699 -113.59152 477
-10071.41406 10813.13574 130.57710 480
-10033.82129 10773.52344 372.31744 495
-10500.47363 11274.92480 639.84088 485
-10057.24512 10931.18066 -111.02977 477
-9991.95801 10864.01953 133.46428 480
-9955.78809 10827.82812 373.86856 496
-10409.44434 11314.80566 636.59955 485
-2635.09253 2941.74536 929.88422 1000
-9977.48145 10982.88477 -112.22511 478
-9914.08398 10916.19824 129.71350 481
-9881.17969 10877.68066 374.67416 496
-10317.59766 11353.97168 637.50909 486
-9900.75977 11036.59473 -110.55151 478
-9838.52051 10968.39746 130.57498 481
-9801.87891 10928.45312 371.10669 462
-10225.75586 11396.52148 636.27362 486
-9823.76270 11083.65723 -110.86582 478
-9761.53320 11015.54883 130.94035 481
-9729.31738 10980.62891 372.19299 423
-10137.12988 11433.52441 634.22693 487
-9746.33105 11134.05664 -110.48641 478
-9681.74902 11065.42773 129.66159 481
-9655.92285 11034.88965 370.67688 423
-10052.00586 11482.82617 634.96570 497
-9669.09961 11184.17090 -110.78230 479
-9606.94629 11117.85254 129.75890 489
-9580.44727 11088.18750 372.55823 423
-9972.76367 11534.84375 631.51007 497
-9589.87891 11234.08105 -110.15649 479
-9531.14062 11167.37305 132.16096 490
-9507.63477 11140.77734 373.24463 423
-9895.27832 11588.90430 632.80981 497
-9512.72754 11282.05859 -110.26089 479
-9452.99707 11217.00586 132.31836 490
-9433.11523 11192.60059 369.72046 423
-9813.02051 11639.78906 631.34662 497
-9434.13379 11333.36426 -112.05988 479
-9377.14746 11265.11426 131.09102 490
-9363.50684 11251.92773 373.36444 301
-9733.92578 11691.38086 630.21204 497
-9355.96582 11384.81738 -111.07587 479
-9300.83789 11314.49609 131.38393 490
-9296.45898 11311.24707 369.84555 301
-9653.89844 11742.47363 632.00647 498
-9281.40625 11433.97461 -109.37929 480
-9225.14355 11364.59180 132.85591 490
-9227.16406 11371.75391 372.58466 296
-9576.72168 11793.85449 628.35272 498
-9203.82520 11481.94922 -109.06916 480
-9148.46582 11414.69922 130.12489 491
-9394.42285 11715.97266 375.42419 467
-9495.51270 11844.41504 631.42078 498
-9129.23438 11531.57617 -112.80331 480
-9073.38281 11467.84082 130.53770 491
-9288.51074 11732.60840 377.43964 468
-9349.53516 11815.33594 624.05017 496
-9050.56543 11582.90234 -109.14970 480
-8996.57520 11512.68359 131.60921 491
-9185.81836 11752.43848 376.31683 468
-9273.40820 11867.77832 625.36224 496
-9367.89258 11983.92969 880.46466 498
-8974.29004 11630.29785 -112.49978 480
-8922.77930 11565.75195 129.58588 491
-9096.21094 11787.76855 374.76486 498
-9195.45898 11917.57910 624.12830 492
-9286.86621 12036.61816 879.19135 498
-8897.90820 11680.19141 -110.24137 480
-8845.34180 11615.76367 131.65704 491
-9019.76855 11842.96973 376.40048 499
-9115.85938 11967.28516 622.82922 492
-9206.85938 12088.14648 879.87860 498
-9312.70605 12219.67676 1142.59106 467
-8819.04590 11728.92578 -112.40285 480
-8772.46582 11664.38965 129.53191 491
-8941.63086 11890.16309 376.65997 499
-9038.10352 12014.93555 625.15448 492
-9131.94629 12140.91797 878.32599 498
-9214.39453 12249.43262 1138.64258 489
-8742.65918 11777.58691 -112.56731 480
-8693.43457 11714.88184 130.41264 491
-8864.82910 11942.80859 375.46896 499
-9022.16309 12152.96680 626.90729 499
-9043.43066 12179.62109 880.25830 448
-8665.89648 11827.87500 -108.81050 481
-8619.56348 11761.39551 130.27266 491
-8788.10547 11990.17578 373.88489 499
-8920.69043 12172.34180 627.88452 449
-8925.01855 12176.55371 874.36066 449
-8956.41895 12221.90039 1125.21228 359
-8590.61523 11877.37598 -111.87585 481
-8542.35547 11813.20801 129.27759 491
-8710.98926 12043.68848 375.44693 499
-8807.31641 12169.61621 623.38654 450
-8809.46094 12177.73633 871.28857 449
-8839.27832 12217.43066 1120.56433 360
-17797.74805 24473.85352 5133.11084 1000
-8514.21191 11923.95996 -96.25343 482
-8468.08691 11862.92578 128.45091 492
-8635.82324 12091.03320 373.29379 499
-8689.51660 12170.75000 620.67334 451
-8693.93652 12177.32324 868.78534 450
-8722.77148 12211.49805 1119.11951 360
-8438.37109 11976.54297 -112.28793 481
-8393.22461 11910.02539 130.52168 492
-8558.02637 12141.09961 374.08624 499
-8587.37500 12182.37012 621.82831 499
-8587.30762 12185.66406 865.84460 499
-8603.57520 12209.66113 1112.73901 391
-8364.32520 12023.02637 -110.37735 482
-8320.09082 11960.24609 131.53181 492
-8482.05273 12190.46875 374.17325 499
-8509.55566 12231.59180 618.96698 499
-8511.25195 12235.64062 863.15491 499
-8530.14648 12260.42676 1112.10632 391
-8707.20898 12515.34668 1382.47656 479
-8633.52344 12410.27930 1623.88672 434
-8632.83691 12407.05371 1874.83423 434
-8633.19238 12409.94434 2125.76123 473
-8636.55273 12419.03125 2379.73999 442
-8287.39844 12075.44922 -110.17764 482
-8243.83105 12011.54688 131.35454 492
-8401.04688 12241.86230 374.20590 499
-8413.53516 12256.14258 616.96643 499
-8417.59766 12261.00879 863.39447 499
-8453.43457 12316.93457 1113.85315 391
-8629.61719 12566.88086 1386.11072 479
-8210.18750 12122.00977 -111.58923 482
-8166.26123 12060.34863 127.74582 492
-8327.37012 12291.75879 373.19138 499
-8337.71777 12308.01172 619.61884 499
-8340.26074 12311.49805 862.35547 499
-8377.52051 12368.94434 1111.13916 391
-8547.56934 12619.13086 1385.64880 471
-8133.42334 12171.76465 -112.51675 482
-8093.89893 12109.58301 128.34769 492
-8247.70020 12339.62500 373.46088 499
-8260.74902 12356.95996 618.95935 499
-8261.72168 12359.26465 864.10614 499
-8301.95605 12423.66895 1112.63708 391
-8439.10547 12620.83887 1377.55042 453
-8057.94141 12220.33301 -108.96465 483
-8019.09814 12158.21973 129.58682 492
-8029.06299 12178.51270 368.22375 431
-8183.08057 12408.30859 616.48163 499
-8185.43848 12413.36133 864.03253 499
-8226.69141 12476.71191 1111.00195 391
-8366.04883 12681.89746 1381.64612 476
-7981.85498 12269.29883 -110.66346 483
-7940.68604 12208.15527 130.58528 492
-7955.04102 12226.92480 368.29382 431
-8106.95996 12460.85742 615.99414 499
-8108.64746 12459.44629 862.69019 499
-8153.51416 12528.41992 1113.52979 391
-8314.55273 12775.54590 1383.27441 471
-7906.56592 12317.06250 -111.58736 483
-7867.62158 12254.71973 128.53369 492
-7877.73389 12272.21191 369.75735 431
-8029.46777 12509.11133 618.54297 499
-8030.72461 12508.76270 862.33746 499
-8078.25684 12584.48828 1113.09863 391
-8234.18555 12828.17480 1384.96838 471
-7832.08252 12367.06250 -110.32436 483
-7790.55029 12307.44434 129.14709 492
-7800.75342 12323.22461 369.84473 438
-7952.67188 12559.46973 618.66058 499
-7955.16650 12559.70508 863.07611 499
-8002.18213 12639.03223 1115.02600 391
-8158.65576 12880.50586 1382.46606 486
-7756.69336 12415.64746 -110.03629 483
-7716.97803 12353.81934 130.61139 492
-7727.75391 12374.16406 368.72931 438
-7878.35889 12609.06641 617.25665 499
-7877.75684 12610.08301 860.44904 499
-7927.50977 12692.12305 1113.50110 391
-7680.23096 12468.20508 -111.57133 483
-7638.58936 12404.93457 130.67574 492
-7657.43506 12429.85254 368.37698 387
-7816.41748 12685.46875 617.48419 499
-7816.61914 12687.09570 864.30853 499
-7851.03223 12744.01074 1112.79663 391
-7603.64746 12516.46777 -111.92467 482
-7567.99365 12453.63379 131.32004 492
-7711.69580 12689.90039 371.19659 499
-7740.50293 12733.42383 617.60773 499
-7741.63086 12737.26660 862.81854 499
-7779.05225 12798.01074 1112.76025 390
-7528.67529 12564.18457 -110.57129 482
-7489.36621 12502.20410 131.25212 492
-7632.23779 12739.03320 372.88870 499
-7586.72021 12661.24316 614.72693 420
-7559.75879 12622.27637 852.68610 274
-7702.84961 12852.72461 1116.38269 390
-7450.04590 12611.99707 -112.53181 482
-7414.97021 12552.11426 128.67529 495
-7556.85303 12791.35059 372.78384 499
-7583.29346 12836.34375 619.18506 499
-7482.09570 12663.59863 856.00555 458
-7626.33398 12905.74121 1115.72253 382
-7376.19434 12661.26367 -109.28874 482
-7339.92529 12599.61816 130.18188 495
-7480.81055 12838.55176 374.52939 499
-7505.65576 12886.14160 619.19696 499
-7509.62939 12886.95508 862.19061 499
-7549.11572 12956.60254 1116.40686 382
-7301.06689 12712.39160 -109.82572 482
-7265.97754 12652.39844 127.81631 495
-7404.69678 12889.64258 373.86325 499
-7427.20508 12935.38867 619.57727 499
-7428.57959 12937.66016 863.19910 499
-7473.13867 13010.91016 1117.14990 382
-7225.07227 12761.75195 -110.30946 482
-7188.79102 12703.05078 127.22785 495
-7326.61768 12941.27051 372.20688 499
-7358.78955 12993.77539 620.73602 453
-7357.62695 12995.26855 863.13361 453
-7412.31104 13088.67676 1116.10413 357
-7149.14746 12810.63184 -112.01868 482
-7116.29980 12750.75586 127.15485 494
-7249.74316 12989.93066 373.81445 499
-7311.00586 13099.64551 620.70129 453
-7309.52734 13098.88281 868.65723 452
-7375.44238 13210.63379 1124.83411 357
-7068.73779 12858.92676 -111.94429 482
-7035.99609 12800.79004 129.22719 494
-7172.33789 13041.79297 374.84448 499
-7262.21289 13199.73340 621.80060 473
-7260.38770 13199.18262 869.45831 451
-7333.25977 13333.81543 1129.30017 357
-6996.82666 12907.20801 -113.08651 482
-6964.83301 12849.04883 129.02576 494
-7094.72119 13092.51465 372.92822 416
-7198.42090 13284.06641 624.22302 472
-7213.90088 13305.74707 874.96936 451
-6919.65039 12956.85742 -112.20398 482
-6886.41357 12900.51758 130.92319 494
-7045.90479 13194.45020 376.33200 415
-7138.86328 13364.59961 626.63251 472
-7165.52490 13411.98438 878.96729 450
-6843.59766 13007.31543 -112.35361 482
-6811.48389 12948.00684 130.80865 494
-7051.96924 13395.75000 376.19861 472
-7076.71338 13446.95508 626.27100 471
-6765.84082 13053.72754 -111.86005 482
-6737.47656 13000.82324 127.06173 494
-6987.18896 13480.46680 379.61810 471
-6688.19287 13105.13086 -112.23521 481
-6660.25049 13051.66797 126.82304 494
-6924.94727 13562.03223 377.57242 471
-6612.00098 13155.81738 -111.82941 481
-6582.94775 13100.15332 128.69353 494
-6850.20312 13619.58301 378.67508 444
-6536.50342 13203.21289 -113.33272 481
-6507.98486 13149.23730 128.92143 496
-6458.37939 13256.25000 -112.25093 481
-6434.20117 13199.66211 130.05403 496
-6380.43848 13305.32227 -113.61349 481
-6355.91797 13251.52930 128.36137 495
-6305.50488 13353.72559 -113.46121 481
-6281.32617 13301.06152 126.49982 495
-6227.14844 13405.08398 -115.96852 488
-6202.75098 13350.42773 126.91220 495
-6148.69824 13455.52344 -112.68218 488
-6127.50488 13405.48047 127.93111 495
-6074.06006 13506.80566 -112.87956 488
-6052.51221 13454.47559 128.80511 495
-5994.52881 13555.72168 -116.67189 488
-5973.85059 13507.31152 128.92580 494
-5918.82129 13604.53418 -115.09534 487
-5895.69482 13557.29883 129.01947 494
-5841.59521 13657.81250 -117.21978 487
-5818.90186 13608.10449 130.11282 494
-5763.97754 13708.90234 -116.01838 487
-5739.61230 13659.27051 129.59804 494
-5686.40527 13761.92969 -117.12745 487
-5665.08984 13710.43262 129.82512 493
-5607.12598 13809.83789 -117.14491 486
-5588.27002 13762.90625 129.91713 493
-5527.09424 13863.15234 -114.67610 486
-5508.68457 13811.78711 126.93460 493
-5451.45996 13914.00586 -117.63362 486
-5429.65967 13867.17871 126.26823 492
-5370.20068 13966.84961 -115.46993 486
-5351.75537 13918.56543 129.37042 492
-5293.92188 14017.22363 -116.10917 485
-5274.71289 13968.75586 127.52571 492
-5212.47412 14069.78125 -116.20290 485
-5196.61035 14023.21973 126.35098 491
-5133.99072 14123.23926 -117.83841 485
-5117.19141 14074.57910 126.59717 491
-5054.95020 14176.97559 -118.31935 484
-5035.85400 14127.50098 125.78053 491
-4974.45410 14227.11035 -117.89249 484
-4958.10107 14180.60547 129.08182 490
-4894.16455 14281.13574 -117.93398 484
-4878.64062 14230.52441 127.14175 490
-4815.72900 14330.87402 -119.71752 483
-4797.40576 14286.15918 128.43523 490
-4734.19775 14387.50098 -120.50902 483
-4717.52393 14336.44824 129.98543 489
-4677.39795 14520.10547 -371.26016 472
-4654.27979 14436.92969 -119.35904 482
-4636.70459 14390.52637 128.68942 489
-4597.88477 14572.07227 -372.15387 472
-4573.09863 14493.08594 -119.43447 482
-4558.38867 14444.62793 125.71348 488
-4516.30566 14628.12305 -372.82739 471
-4490.63721 14547.06055 -122.61992 482
-4476.05859 14500.04297 128.70764 488
-4434.13330 14676.82617 -373.98022 471
-4407.42676 14598.58789 -120.89082 481
-4397.69824 14553.60840 129.13507 488
-4349.93945 14733.15430 -374.82208 470
-4327.03809 14650.09863 -123.75469 481
-4316.01807 14607.78320 127.91232 487
-4271.83691 14790.83984 -377.31003 457
-4243.76318 14706.55957 -122.06360 480
-4233.66699 14661.68359 128.76254 487
-4190.31934 14857.91895 -379.85577 457
-4162.95215 14763.70215 -124.92799 480
-4151.08105 14718.99219 128.88962 371
-4109.70068 14921.41406 -381.09402 456
-4079.42603 14819.17773 -122.89615 459
-4071.52393 14780.98828 129.71127 371
-4029.58911 14988.47070 -381.32666 458
-4001.62354 14889.24805 -125.98467 458
-3989.07568 14840.15820 127.48312 370
-3947.18384 15060.63379 -384.57401 457
-3921.56128 14954.26855 -123.85412 457
-3907.58643 14904.32324 126.78964 370
-3868.20752 15128.67871 -382.77811 457
-3842.86499 15027.78320 -128.74039 457
-3826.53076 14965.92871 125.44719 436
-3787.44653 15204.24414 -384.37613 456
-3758.59106 15096.64355 -127.21682 456
-3742.28564 15020.62891 127.06340 403
-3705.24072 15279.67969 -389.71005 413
-3680.81885 15167.14355 -128.22433 457
-3659.31006 15084.61035 126.61674 403
-3633.02930 15383.58789 -391.24313 390
-3597.50781 15239.83203 -129.26947 456
-3580.35010 15160.90332 128.04663 455
-3561.32544 15495.52832 -394.52374 389
-3516.18384 15310.03320 -131.21619 455
-3501.18799 15239.24219 125.89960 454
-3484.72705 15612.87207 -397.98331 388
-3432.48950 15386.65527 -130.35809 412
-3418.08228 15323.17090 128.33272 453
-3409.34912 15730.99609 -399.30820 388
-3355.30469 15486.16406 -132.24573 411
-3337.15454 15400.78125 128.26527 455
-301.32236 1818.26294 -51.29412 486
-302.70807 1824.48071 -21.13242 449
-304.74667 1832.55920 8.65074 331
-3337.65601 15862.81934 -404.19556 361
-3279.46313 15590.60645 -131.56714 411
-3256.29736 15481.75098 128.27351 454
-290.11124 1820.40906 -51.32742 487
-291.03595 1825.20374 -21.12286 487
-292.40329 1830.11353 9.12918 485
-292.98615 1834.35034 39.75960 487
-3201.16821 15695.38281 -136.42778 410
-3177.19556 15574.29492 127.43063 324
-280.45871 1831.03662 -52.25482 397
-282.11584 1839.24243 -22.03392 328
-3121.41577 15803.63672 -137.66115 388
-3095.63623 15681.20508 125.76377 288
-3045.64990 15925.52246 -139.41182 361
-2974.38184 16080.13477 -139.27577 360
-2899.98291 16234.13184 -141.91794 359
2009.52148 10873.84668 -1323.89990 1000
4285.62207 10029.68164 -1481.47778 1000
25709.19531 53649.12500 128.57307 1000
2507.06641 3959.11084 -718.13690 1000
1486.36511 2058.12061 -34.07167 408
1516.33728 2075.21899 -77.01228 415
1492.12500 2039.14343 -32.96178 451
1520.77087 2054.20605 -75.74953 416
1498.11658 2021.91455 -32.48528 442
1525.14465 2033.49866 -74.73855 410
1505.08411 2005.24097 -31.47008 442
1526.48511 2008.73755 -73.42751 291
1512.41455 1989.34912 -30.76538 440
1524.22498 1979.88123 -71.21181 311
1521.08533 1975.33765 -30.65415 451
1528.06799 1959.54541 -70.19043 410
1529.52930 1961.78735 -30.43980 392
1534.14648 1942.87488 -69.20159 411
1539.18579 1949.86255 -29.90341 389
1540.63599 1926.72937 -68.54999 422
1549.26294 1937.30359 -29.80785 389
1549.03149 1912.63000 -67.82600 422
1559.02856 1926.09888 -29.31592 391
1556.64417 1898.50659 -67.24765 484
1569.74036 1915.40283 -29.19494 303
1565.55554 1885.34851 -66.94102 484
1580.22986 1903.88391 -29.21434 422
1573.79578 1872.71667 -66.36821 485
1590.84131 1894.12085 -29.07593 443
1583.09546 1859.86792 -66.04604 490
1713.85999 2022.41870 -41.03033 377
1592.19812 1847.71082 -65.79910 490
1729.96484 2016.11511 -41.04588 379
1601.40869 1836.20056 -65.44498 491
1744.17993 2009.10730 -41.17624 379
1610.59326 1824.13525 -65.75102 491
1759.77612 2002.10742 -41.99070 322
1619.49548 1812.26575 -64.87688 491
1670.22168 1871.30505 -31.52405 499
1688.82117 1893.51379 7.64002 499
1628.78235 1800.40161 -64.83077 495
1681.17725 1861.55969 -30.94650 499
1699.11816 1882.68347 7.95331 255
1638.40442 1789.18127 -64.43185 496
1692.26697 1851.16675 -30.96256 499
1648.63416 1778.72986 -64.83485 496
1703.40466 1840.93909 -31.43814 499
1658.37244 1768.08069 -64.49309 496
1747.39905 1867.14868 -34.74889 257
1668.52173 1757.14600 -64.64931 497
1678.92859 1746.61353 -64.28307 497
1689.60425 1736.28467 -64.17310 497
1699.75366 1726.53821 -64.43517 497
1762.13843 1792.54346 -31.63636 499
1710.66077 1716.63635 -64.33125 497
1769.12451 1778.25769 -31.30478 390
1721.62183 1706.45312 -64.57138 497
1780.52209 1768.66272 -31.19592 499
1810.82458 1800.00830 88.71613 430
1731.87622 1696.91394 -64.29240 497
1837.02588 1804.60083 47.44955 367
1819.57581 1787.04297 88.66217 487
1743.17749 1686.79736 -64.64959 497
1836.10730 1781.01343 88.37354 418
1753.69507 1677.10669 -64.20489 497
1875.24438 1799.08655 87.71645 384
1876.20312 1799.58289 129.45012 499
1876.52905 1800.29297 171.15596 499
95.67440 14.08297 135.15129 1000
1764.85815 1667.43347 -64.66554 497
1775.65015 1657.39136 -64.76316 497
1785.85303 1647.32629 -64.30272 497
1903.06909 1760.68274 -36.16938 265
1796.97351 1637.21106 -64.76503 497
1835.33508 1673.82556 -28.88256 499
1937.67908 1771.49426 3.36996 499
1807.94128 1627.92834 -64.49353 496
1845.94873 1663.60022 -28.90360 499
1847.10681 1664.64771 10.22334 374
1818.49011 1617.86755 -64.85785 496
1868.92310 1664.74939 -30.68554 498
1829.52747 1607.73120 -64.69944 496
1840.29492 1597.83069 -64.78111 496
2044.42407 1783.27905 -44.05079 455
1851.08008 1587.61023 -65.04173 496
2053.68359 1769.35718 -43.87124 441
1862.07910 1578.05481 -65.37206 496
2063.57373 1756.94177 -43.83792 445
1964.70837 1669.16467 6.21578 270
1997.94714 1698.36377 87.25708 493
2014.50781 1713.28162 171.42944 498
1872.84192 1567.64722 -65.06151 496
2071.87183 1742.71582 -43.58574 438
1945.54517 1631.57751 88.82463 493
1883.50415 1558.13782 -65.69510 495
2081.46313 1728.52954 -44.03732 445
1894.54346 1547.84705 -65.86191 495
2093.11279 1717.63867 -43.85973 455
1905.41992 1537.77661 -65.70167 495
2105.08740 1705.88586 -43.97733 455
1916.68652 1528.31396 -66.28731 495
2116.50098 1694.20337 -43.96311 435
1927.12317 1517.98547 -65.87061 495
2134.59595 1688.05774 -44.78186 325
4456.98291 3598.33008 1348.66760 1000
1938.64490 1508.30627 -66.38158 494
2146.16235 1676.94800 -44.65214 324
1949.54443 1498.33777 -66.24770 494
2158.05640 1664.79919 -45.20969 324
1961.06067 1487.93115 -66.88843 494
2169.31958 1652.68579 -45.10321 324
1972.07886 1477.88037 -66.56741 494
2180.39600 1641.51404 -44.91209 324
1983.27869 1467.85107 -67.17525 493
2192.06836 1629.11304 -45.35526 324
1994.39221 1457.68848 -67.60503 493
2110.17944 1546.55432 -37.40565 411
2005.07678 1447.42102 -67.72579 493
2215.20166 1605.65198 -45.35060 324
2016.46082 1437.31494 -67.92602 493
2027.66064 1426.80371 -68.11394 492
2038.74670 1417.08691 -68.44708 492
2052.28198 1407.80200 -68.50458 466
2067.29639 1400.73145 -69.50621 465
2083.06543 1393.42102 -70.25887 407
2101.01367 1387.71582 -71.28012 406
2003.54272 248.15538 -27.63465 352
1997.81702 235.12286 -26.92944 494
2003.65710 236.33253 4.34245 491
2008.72595 236.53624 35.80003 497
2003.73230 223.81488 -27.53001 433
40950.46875 2738.54688 10358.99414 1000
47546.85938 2008.54761 11172.62695 1000
4798.41895 -733.54474 -26.32687 427
4807.29492 -764.37659 -27.39561 423
4819.99658 -796.31073 -27.02741 434
4833.35596 -829.10187 -28.03091 440
4848.44385 -861.97253 -29.17715 440
4868.32666 -895.84302 -29.81772 425
4891.89160 -930.55096 -30.01720 416
4920.57666 -967.21472 -31.41508 401
4960.39160 -1006.36444 -33.44075 363
5013.40576 -1049.60779 -35.39078 321
5074.80615 -1093.94666 -37.15129 350
5146.12158 -1142.49414 -39.87462 342
5214.94873 -1191.79797 -42.03915 340
5290.82324 -1242.18323 -45.31709 320
45710.49219 -12710.71484 -11750.89453 1000
3400.41431 -1076.99524 -40.34263 436
3410.84888 -1080.08484 16.17977 385
3393.33423 -1096.78296 -40.20062 464
2553.88892 -1132.86084 716.64069 1000
4076.64648 -2015.91223 -14.99106 498
4087.44482 -2020.94556 57.02906 493
4792.85352 -2715.12231 41.39335 464
4760.28271 -2733.79077 41.92321 467
4728.49805 -2755.11865 42.73146 473
4702.48242 -2777.70850 43.30093 482
4671.40967 -2797.49194 42.57152 482
4645.93311 -2820.72607 42.81308 486
4617.22900 -2840.93652 44.24013 487
4592.73291 -2864.86548 44.30693 489
4565.28711 -2886.03442 44.11060 492
4688.35693 -2964.53564 131.09407 490
4599.52686 -2908.70850 218.40387 427
4540.52246 -2909.18726 44.61791 494
4571.35938 -2929.43530 130.41153 499
4579.75537 -2934.30957 219.06520 427
4517.23730 -2933.25928 44.35185 494
4552.07812 -2955.14160 131.73659 499
4558.70166 -2959.09888 218.78220 427
4495.51953 -2957.58423 45.03248 496
4531.79688 -2981.09717 130.50394 499
4536.66016 -2985.17236 219.42883 427
4474.20410 -2981.87573 44.22723 497
4506.56006 -3004.34351 130.58966 498
4514.90967 -3009.42456 219.25272 427
4453.20947 -3007.85791 45.03252 497
4486.42627 -3029.56396 131.77713 499
4493.83740 -3035.10889 218.70502 428
4432.20557 -3032.34839 44.37449 498
4467.05713 -3056.20874 131.43626 479
4458.31104 -3050.26562 217.53859 480
4412.00146 -3058.18213 45.06978 498
4451.31689 -3084.88306 131.46637 499
4436.44580 -3075.52441 218.02434 480
4393.87305 -3084.87573 44.37304 499
4431.47803 -3111.01953 131.49901 499
4416.21289 -3101.16089 218.21825 480
4375.39502 -3112.58081 44.66833 499
4410.66553 -3137.45923 131.24628 499
4396.80273 -3127.11621 218.51556 480
4495.72754 -3199.52661 309.39941 390
4353.05615 -3135.40186 44.46942 499
4390.57324 -3162.82397 131.79405 499
4377.37939 -3154.27295 218.22638 345
4469.67188 -3222.10571 308.43201 465
4335.33398 -3163.61353 44.33745 499
4316.16162 -3189.08130 45.20917 499
4456.21973 -3294.40698 310.85797 490
4293.91797 -3212.47876 45.28458 499
4275.92871 -3239.66626 44.47560 499
4253.86035 -3264.43677 44.80894 499
4235.01416 -3291.56152 44.82160 499
4215.82227 -3317.99048 45.24414 499
4193.50586 -3340.73486 44.06884 499
4427.83789 -3532.44043 132.04567 489
4172.91943 -3366.18970 45.41528 497
4407.65479 -3559.74902 131.33357 486
4153.16846 -3392.23755 44.36087 497
4182.96533 -3417.06812 132.02519 400
4134.07324 -3418.98975 45.07013 464
4213.15430 -3485.92554 131.45088 489
4197.90137 -3516.59741 43.62307 334
4184.90479 -3504.12842 131.51024 489
4177.54346 -3542.01294 42.17310 427
4159.37012 -3525.72461 131.50833 492
19169.56641 -17609.58008 2258.58643 1000
2875.77148 -3086.89062 63.78163 470
2097.08691 -2682.30054 77.29919 340
2049.12646 -2652.28516 78.11262 341
2004.42773 -2625.60034 79.06035 339
2026.26135 -2655.66431 131.67036 430
1961.24561 -2599.02051 79.17669 340
2015.76294 -2674.81445 131.79591 458
1918.94641 -2573.68213 80.43799 342
2004.35852 -2693.42505 131.86070 475
1878.16895 -2548.93970 80.38616 342
1989.50684 -2708.40747 131.73160 447
1840.87708 -2527.96704 81.23027 344
1839.04163 -2525.67041 131.43547 358
1801.07581 -2504.02368 82.43380 336
1801.66870 -2504.95532 131.42722 358
1764.07642 -2481.97437 82.92559 340
1765.71655 -2483.36279 131.80948 359
1730.43103 -2465.11743 83.35143 356
1732.16675 -2466.36890 131.30589 399
1702.13904 -2453.67407 84.14521 372
1704.12830 -2456.51929 131.82921 397
1675.14966 -2445.98413 83.74239 383
1684.84814 -2460.24585 132.10402 473
1650.38501 -2439.12549 84.46922 385
788.35822 -1238.64282 -0.00531 295
1626.14099 -2434.35254 84.97700 393
1657.62927 -2485.41724 131.59666 295
1603.01624 -2430.53784 85.31674 399
1642.01550 -2494.26929 132.01816 314
1580.71399 -2428.09741 84.89663 411
1715.35168 -2648.69751 132.16928 442
1559.48975 -2426.01758 85.32095 416
1707.69128 -2673.01660 131.29457 467
1538.62427 -2425.04248 85.91472 417
1696.16455 -2691.59839 131.65633 466
1518.05225 -2424.18042 85.71706 418
1607.61096 -2577.47534 131.55356 357
1497.44885 -2423.51318 85.71399 418
1590.72217 -2584.80176 131.44717 497
1483.19421 -2413.45923 87.60587 424
1583.52527 -2587.01709 133.30630 497
1463.14478 -2412.31812 87.96870 434
1568.85925 -2597.72144 133.23444 497
1443.78052 -2412.62231 87.78690 447
1531.90649 -2569.63867 133.05821 319
1427.03894 -2418.23364 88.10114 304
-3206.80200 -49078.46094 -5478.73730 1000
-318.82263 -3044.56104 336.51031 316
-11852.91309 -62094.53516 2265.20215 1000
-416.91843 -2343.62769 94.78712 455
-416.44330 -2340.67456 134.48343 456
-415.51404 -2338.15405 173.67795 489
-415.17444 -2335.68091 212.27490 489
-414.38998 -2332.76245 251.82336 499
-413.79388 -2331.18945 290.40115 499
-413.27994 -2329.37866 329.74365 448
-499.10413 -1628.47217 275.79068 367
-498.19992 -1625.88782 304.14120 367
-511.63617 -1630.99707 76.62462 495
-510.97379 -1629.49341 104.92259 495
-510.63504 -1628.53723 133.25308 495
-510.36334 -1627.01221 162.00119 469
-509.61514 -1625.76318 190.22806 469
-509.30246 -1625.05579 218.90350 469
-508.72305 -1623.85327 246.87233 422
-508.61368 -1622.78979 275.79010 421
-508.28790 -1622.63123 304.35135 357
-17463.26367 -28836.25391 8036.69434 1000
-11858.38086 -16500.32617 3514.06567 1000
-32024.91211 -44334.35938 11071.05664 1000
-45266.12500 -37549.89062 -15607.20410 1000
90.15411 -2.95279 127.65937 349
90.15356 -2.95451 127.89708 350
90.15302 -2.95416 128.12944 350
90.15457 -2.95472 128.36102 351
90.26774 -2.84052 127.68285 351
90.26854 -2.83972 127.91857 351
90.26709 -2.83976 128.14944 352
90.26663 -2.84033 128.38129 352
89.21729 -3.22825 128.38625 298
90.37798 -2.72807 127.70648 352
90.37875 -2.72874 127.93765 352
90.37872 -2.72861 128.16875 353
90.33171 -2.74457 128.38557 302
89.25171 -3.13554 128.38548 298
90.48838 -2.61867 127.72648 353
90.48820 -2.61829 127.95695 354
90.49014 -2.61880 128.18571 354
90.36882 -2.66136 128.38577 302
89.28879 -3.04340 128.38664 298
90.59532 -2.51108 127.74841 355
90.59582 -2.51082 127.97833 355
90.59746 -2.51142 128.20538 356
90.40597 -2.57633 128.38724 302
89.32449 -2.95222 128.38644 298
88.05099 -3.39650 128.38525 294
90.70147 -2.40618 127.76710 356
90.70266 -2.40633 127.99559 357
90.70282 -2.40466 128.22195 357
90.44418 -2.49474 128.38741 302
89.36145 -2.86217 128.38635 298
88.08597 -3.29794 128.38673 294
90.80677 -2.30234 127.78708 357
90.80794 -2.30073 128.01254 358
90.80739 -2.30110 128.23865 358
90.48231 -2.40893 128.38667 302
89.39803 -2.77205 128.38625 298
88.12138 -3.19640 128.38550 294
90.90881 -2.19786 127.80721 359
90.90881 -2.19818 128.03156 359
90.91041 -2.19802 128.25417 360
90.52085 -2.32623 128.38777 302
89.43665 -2.67959 128.38530 298
88.15665 -3.09815 128.38562 294
91.01129 -2.09667 127.82420 360
91.01110 -2.09711 128.04817 361
91.01128 -2.09802 128.26888 361
90.55872 -2.24181 128.38603 302
89.47600 -2.58826 128.38524 298
88.19571 -2.99921 128.38605 294
91.11075 -1.99729 127.84042 361
91.11051 -1.99735 128.06245 362
91.11030 -1.99903 128.28276 362
90.59971 -2.15715 128.38626 302
89.51389 -2.49824 128.38580 298
88.23462 -2.90003 128.38525 294
91.20921 -1.89879 127.85723 363
91.20874 -1.90050 128.07921 363
91.20786 -1.89975 128.29778 364
90.64093 -2.07273 128.38664 302
89.55419 -2.40711 128.38582 298
88.27184 -2.80088 128.38635 294
91.30466 -1.80363 127.87494 364
91.30559 -1.80163 128.09384 364
91.30535 -1.80369 128.31221 365
90.68220 -1.98878 128.38605 302
89.59253 -2.31571 128.38538 298
88.31060 -2.69927 128.38763 294
91.36012 -1.71920 127.87783 456
91.35910 -1.71902 128.09740 457
91.36049 -1.71930 128.31453 457
90.72309 -1.90662 128.38664 302
89.63579 -2.22425 128.38663 298
88.35072 -2.60218 128.38704 294
86.81169 -3.05248 128.38603 290
91.38021 -1.64495 127.87311 457
91.38094 -1.64505 128.09221 457
91.38046 -1.64582 128.30807 458
90.76510 -1.82161 128.38750 302
89.67630 -2.13304 128.38722 298
88.39359 -2.50123 128.38637 294
86.85239 -2.94394 128.38712 290
91.39996 -1.57240 127.86617 457
91.39957 -1.57183 128.08656 458
91.39838 -1.57272 128.30377 459
90.80608 -1.73848 128.38655 302
89.71906 -2.04206 128.38731 298
88.43182 -2.40269 128.38651 294
86.89433 -2.83206 128.38800 290
91.41828 -1.49984 127.85998 458
91.41841 -1.49890 128.07957 459
91.41994 -1.49948 128.29803 460
90.85058 -1.65453 128.38586 302
89.76083 -1.95337 128.38626 298
88.47464 -2.30372 128.38698 294
86.93608 -2.72497 128.38683 290
91.43748 -1.42584 127.85383 459
91.43919 -1.42513 128.07477 460
91.43843 -1.42550 128.29236 460
90.89356 -1.57116 128.38565 302
89.80302 -1.86191 128.38669 298
88.21468 -2.28397 128.32939 372
86.97585 -2.61627 128.38774 290
91.45812 -1.35150 127.84867 460
91.45760 -1.35145 128.06831 460
91.45791 -1.35163 128.28709 461
90.93836 -1.48633 128.38773 302
89.84691 -1.77159 128.38759 298
88.04585 -2.23867 128.28960 371
87.01985 -2.50587 128.38696 290
91.47850 -1.27701 127.84229 460
91.47916 -1.27870 128.06241 461
91.47945 -1.27762 128.28099 462
90.98346 -1.40487 128.38622 302
89.89126 -1.68052 128.38596 298
87.87063 -2.19191 128.25035 370
87.06239 -2.39606 128.38600 290
91.49707 -1.20451 127.83524 461
91.49708 -1.20419 128.05511 462
91.49795 -1.20387 128.27432 463
91.02835 -1.31909 128.38564 302
89.93795 -1.58940 128.38730 298
87.68983 -2.14463 128.20752 368
87.10670 -2.28851 128.38756 290
91.51848 -1.12989 127.82997 462
91.51765 -1.12908 128.04951 463
91.51751 -1.12955 128.26781 463
91.07392 -1.23792 128.38695 302
89.98206 -1.49982 128.38689 298
87.50583 -2.09644 128.16356 367
87.15251 -2.17947 128.38635 290
91.53666 -1.05562 127.82378 462
91.53830 -1.05457 128.04269 463
91.53790 -1.05472 128.26089 464
91.12167 -1.15308 128.38721 302
87.31509 -2.04386 127.83315 365
87.31419 -2.04220 128.12096 366
87.19607 -2.07095 128.38618 290
91.55837 -0.98260 127.81554 463
91.55672 -0.98101 128.03587 464
91.55801 -0.98057 128.25507 465
91.16762 -1.07039 128.38730 302
87.13728 -1.98521 127.78849 457
87.13675 -1.98638 128.08060 458
87.13655 -1.98662 128.36865 458
91.57748 -0.90609 127.80846 464
91.57682 -0.90665 128.03102 465
91.57723 -0.90616 128.24922 466
91.21423 -0.98617 128.38701 302
87.17887 -1.88113 127.78632 298
87.05767 -1.90551 128.05650 457
87.05659 -1.90429 128.34818 457
91.59792 -0.83028 127.80107 464
91.59887 -0.83162 128.02426 465
91.59845 -0.83209 128.24399 466
91.26233 -0.90310 128.38586 302
87.22362 -1.77131 127.78762 298
86.97368 -1.82451 128.03304 456
86.97410 -1.82158 128.32715 457
91.61901 -0.75634 127.79498 465
91.61889 -0.75700 128.01599 466
91.61958 -0.75659 128.23557 467
91.31116 -0.82080 128.38588 302
87.26617 -1.66083 127.78672 298
86.89085 -1.73926 128.00659 455
86.89178 -1.74182 128.30305 456
-2120.49536 -461.06671 94.60618 499
-2125.28760 -462.08783 131.54987 475
91.63804 -0.68010 127.78722 466
91.63900 -0.68170 128.00920 467
91.63792 -0.68085 128.22978 468
91.35981 -0.73866 128.38562 302
87.31147 -1.55519 127.78648 298
86.80624 -1.65502 127.98481 454
86.80593 -1.65805 128.27980 455
85.54999 -1.90961 128.38786 286
-2129.85400 -449.09406 94.26656 395
91.65835 -0.60651 127.78061 466
91.65746 -0.60634 128.00299 467
91.65788 -0.60666 128.22357 468
91.40958 -0.65489 128.38681 302
87.35829 -1.44819 127.78822 298
86.71989 -1.57126 127.95959 454
86.72132 -1.57097 128.25700 454
85.60030 -1.78983 128.38841 286
-2813.71069 -568.35022 131.98048 483
91.67952 -0.53026 127.77268 467
91.67796 -0.53119 127.99691 468
91.67891 -0.52910 128.21683 469
91.45918 -0.57314 128.38661 302
87.40565 -1.33896 127.78826 298
86.63305 -1.48307 127.93620 453
86.63181 -1.48415 128.23653 453
85.64747 -1.67028 128.38757 286
-2821.69604 -550.82648 131.78423 404
-3538.87061 -686.62915 192.24265 495
91.69907 -0.45416 127.76514 468
91.69859 -0.45484 127.98765 469
91.70026 -0.45437 128.20934 470
91.50822 -0.48898 128.38667 302
87.45052 -1.23151 127.78686 298
86.54633 -1.39657 127.90926 452
86.54723 -1.39703 128.21339 452
85.70103 -1.54879 128.38686 286
91.71999 -0.37853 127.75760 468
91.71882 -0.37868 127.98051 469
91.71938 -0.38003 128.20183 470
91.55894 -0.40693 128.38625 302
90.46736 -0.59965 128.38585 298
86.45871 -1.30639 127.88548 451
86.45640 -1.30417 128.18939 452
85.75018 -1.42905 128.38791 286
91.74134 -0.30244 127.75153 469
91.74015 -0.30131 127.97422 470
91.74020 -0.30303 128.19484 471
91.61099 -0.32319 128.38663 302
90.51995 -0.51031 128.38640 298
86.36604 -1.21363 127.85993 450
86.36710 -1.21497 128.16728 451
85.80466 -1.31130 128.38545 286
91.76106 -0.22632 127.74194 470
91.76021 -0.22474 127.96580 471
91.76029 -0.22727 128.18848 471
91.66265 -0.24275 128.38741 302
90.57012 -0.42008 128.38741 298
86.29757 -1.11990 127.83538 494
86.29779 -1.12012 128.14528 495
85.85612 -1.19073 128.38486 286
91.78073 -0.14925 127.73480 470
91.78071 -0.14846 127.95951 471
91.78010 -0.15011 128.18057 472
91.71657 -0.15911 128.38576 302
90.62354 -0.32990 128.38599 298
86.26765 -1.01511 127.82095 494
86.26620 -1.01748 128.13319 495
85.91251 -1.07381 128.38596 286
91.80213 -0.07334 127.72805 471
91.80269 -0.07278 127.95136 472
91.80141 -0.07141 128.17368 473
91.77020 -0.07723 128.38667 302
90.67784 -0.24226 128.38750 298
86.23892 -0.91160 127.80680 494
86.24046 -0.91339 128.12010 495
85.96648 -0.95471 128.38487 286
91.82001 0.00505 127.71909 489
91.82093 0.00447 127.94247 490
91.81998 0.00311 128.16640 491
91.81939 0.00538 128.38608 492
90.73085 -0.15221 128.38521 298
86.21230 -0.80530 127.79225 494
86.21203 -0.80710 128.10403 494
86.01995 -0.83375 128.38457 286
91.80024 0.07610 127.69859 489
91.80027 0.07726 127.92411 490
91.80081 0.07676 128.14706 491
91.80021 0.07664 128.36967 492
90.78481 -0.06323 128.38777 298
86.23527 -0.69541 127.78687 294
86.18332 -0.69952 128.09113 494
86.07796 -0.71779 128.38855 286
91.78080 0.14900 127.68055 489
91.78024 0.14843 127.90772 490
91.77982 0.14821 128.13031 491
91.78157 0.14718 128.35312 492
90.83874 0.02403 128.38721 298
86.28815 -0.57794 127.78836 294
86.15446 -0.59353 128.07898 494
86.13385 -0.59951 128.38524 286
91.76215 0.22217 127.66016 489
91.76248 0.22176 127.88778 490
91.76216 0.22144 128.11513 491
91.76149 0.22243 128.33842 492
90.89468 0.11299 128.38528 298
86.34204 -0.45898 127.78802 294
86.12648 -0.48665 128.06158 494
86.12784 -0.48694 128.37584 494
91.74212 0.29655 127.64121 489
91.74113 0.29488 127.86976 490
91.74294 0.29562 128.09621 491
91.74088 0.29628 128.32095 491
90.95091 0.20157 128.38673 298
86.39547 -0.34541 127.78912 294
86.09859 -0.37857 128.05049 494
86.09659 -0.37925 128.36369 494
91.72026 0.37025 127.62247 488
91.72284 0.37012 127.85243 489
91.72245 0.37057 128.08023 490
91.72159 0.36940 128.30563 491
91.00758 0.28859 128.38780 298
86.45067 -0.22951 127.78662 294
86.06703 -0.27004 128.03424 493
86.06781 -0.27053 128.34966 494
91.70126 0.44494 127.60090 488
91.70221 0.44472 127.83276 489
91.70202 0.44657 128.06090 490
91.70143 0.44626 128.28836 491
91.06535 0.37788 128.38684 298
86.50681 -0.10875 127.78845 294
86.03908 -0.16246 128.02184 493
86.03821 -0.16093 128.33661 494
91.68014 0.52159 127.58298 488
91.68000 0.52157 127.81361 489
91.68166 0.52131 128.04349 490
91.68131 0.52273 128.27281 491
91.12354 0.46579 128.38736 298
86.56107 0.00508 127.78943 294
86.00982 -0.04981 128.00557 493
86.00854 -0.05051 128.32246 494
91.65965 0.59790 127.56086 488
91.66140 0.59922 127.79557 489
91.65983 0.59851 128.02524 490
91.66061 0.59864 128.25525 490
91.18202 0.55254 128.38774 298
86.62099 0.12062 127.78796 294
86.01355 0.06499 127.99517 481
86.01419 0.06302 128.31424 481
91.63875 0.67576 127.54279 487
91.63879 0.67569 127.77593 488
91.63956 0.67801 128.00807 489
91.63923 0.67772 128.23785 490
91.24072 0.64025 128.38629 298
86.67706 0.23723 127.78900 294
86.04237 0.18059 127.99196 481
86.04174 0.18074 128.30969 482
91.61742 0.75417 127.52140 487
91.61771 0.75496 127.75655 488
91.61958 0.75480 127.98884 489
91.61842 0.75638 128.22169 490
91.30067 0.72874 128.38612 298
86.73563 0.35175 127.78612 294
86.07404 0.29747 127.98759 482
86.07776 0.29807 128.30461 482
91.59634 0.83339 127.50156 487
91.59753 0.83332 127.73568 488
91.59774 0.83470 127.97142 489
91.59801 0.83450 128.20270 490
91.35878 0.81457 128.38652 298
86.79671 0.46816 127.78883 294
86.10461 0.41544 127.98106 482
86.10649 0.41546 128.30185 483
91.57603 0.91311 127.47985 487
91.57570 0.91309 127.71650 488
91.57582 0.91427 127.95309 489
91.57659 0.91336 128.18503 489
91.41875 0.90337 128.38545 298
86.85537 0.58458 127.78673 294
86.13768 0.53219 127.97672 483
86.13794 0.53480 128.29781 483
91.55420 0.99407 127.45930 486
91.55527 0.99413 127.69686 487
91.55463 0.99332 127.93466 488
91.55477 0.99591 128.16855 489
91.47845 0.99000 128.38722 298
86.91558 0.69917 127.78794 294
86.17038 0.65067 127.97135 483
86.17307 0.65176 128.29358 484
91.53284 1.07567 127.43837 486
91.53329 1.07600 127.67652 487
91.53263 1.07710 127.91383 488
91.53246 1.07584 128.15134 489
91.53276 1.07486 128.38536 490
86.97626 0.81500 127.78703 294
86.20171 0.76779 127.96645 484
86.20123 0.77120 128.28859 484
91.50980 1.15799 127.41652 486
91.51130 1.15780 127.65584 487
91.50896 1.15874 127.89696 488
91.50906 1.15865 128.13385 488
91.51018 1.15842 128.36720 489
90.32919 1.09712 128.38525 294
86.23268 0.88932 127.96419 484
86.23235 0.88672 128.28029 485
91.48759 1.24284 127.39536 485
91.48895 1.24258 127.63618 486
91.48940 1.24194 127.87608 487
91.48851 1.24242 128.11530 488
91.48866 1.24164 128.35236 489
90.39234 1.19250 128.38567 294
86.26400 1.00703 127.95742 485
86.26318 1.00609 128.27867 485
91.46507 1.32618 127.37298 485
91.46603 1.32681 127.61729 486
91.46458 1.32559 127.85716 487
91.46439 1.32603 128.09618 488
91.46549 1.32787 128.33502 489
90.45468 1.28705 128.38530 294
86.29688 1.12352 127.95315 485
86.29726 1.12436 128.27060 486
91.44431 1.41110 127.35062 485
91.44359 1.41102 127.59556 486
91.44398 1.41142 127.83694 487
91.42863 1.46795 128.35757 487
91.44169 1.41147 128.31602 488
90.51999 1.38032 128.38635 294
86.39551 1.24342 127.95542 418
86.39345 1.24452 128.27411 419
91.42058 1.49739 127.32893 484
91.42007 1.49738 127.57410 485
91.41932 1.49747 127.81768 486
91.41981 1.49534 128.05962 487
91.41988 1.49625 128.29857 488
90.58575 1.47288 128.38631 294
86.51559 1.36679 127.96568 419
86.51817 1.36567 128.28281 420
91.39663 1.58251 127.30782 484
91.39697 1.58157 127.55256 485
91.39555 1.58329 127.79719 486
91.39633 1.58450 128.04021 487
91.39626 1.58244 128.28137 488
90.65118 1.56932 128.38663 294
86.63498 1.48424 127.97491 420
86.63583 1.48685 128.29222 421
91.37186 1.67097 127.28279 484
91.37360 1.67152 127.53293 485
91.37347 1.67234 127.77888 486
91.37397 1.67003 128.02226 486
91.37254 1.66985 128.26500 487
90.71841 1.66304 128.38513 294
86.75524 1.60452 127.98119 421
86.75542 1.60380 128.29884 422
91.34898 1.76043 127.26051 422
91.34850 1.76019 127.51052 422
91.34858 1.75785 127.75806 423
91.34879 1.76017 128.00330 424
91.34917 1.75950 128.24808 424
90.78544 1.75605 128.38571 294
86.87370 1.72149 127.99250 422
86.87380 1.72113 128.30676 423
91.25951 1.84834 127.22100 421
91.26064 1.84806 127.47312 421
91.25965 1.84806 127.72164 422
91.25831 1.84798 127.96955 423
91.25906 1.84913 128.21542 423
90.85235 1.84885 128.38646 294
86.99126 1.83938 127.99935 424
86.99113 1.83861 128.31120 424
