# .PCD v.7 - Point Cloud Data file format
VERSION .7
FIELDS x y z rgb
SIZE 4 4 4 4
TYPE F F F U
COUNT 1 1 1 1
WIDTH 1169
HEIGHT 1
VIEWPOINT 6621.380859 -3414.893799 132.041992 -0.494307 -0.134598 -0.058781 0.856790
POINTS 1169
DATA ascii
85.40395 1.42527 128.38640 314
85.36932 1.49644 128.38651 314
85.33650 1.56751 128.38583 314
85.30406 1.63831 128.38647 314
85.27304 1.70737 128.38594 314
-194.97888 10.11798 53.25140 324
-194.98048 11.90177 53.27737 324
-289.64038 65.61256 40.39086 341
-287.66687 67.69936 40.79741 341
-288.43320 70.31015 40.51742 318
-14917.62695 3069.67603 -617.14240 1000
-25956.73242 7360.18896 1470.99512 1000
-14381.60254 7170.22070 404.54755 454
-14289.06738 7124.01855 663.18024 474
-14284.80859 7231.99561 404.57828 459
-14201.65137 7192.90674 662.95526 474
-14195.88770 7302.02344 400.25385 464
-14115.23242 7256.67139 664.01190 474
-14114.03613 7369.30127 401.67056 465
-14030.09668 7326.54443 663.07715 476
-14028.85156 7435.66992 403.25653 465
-13947.07715 7394.06152 657.60168 477
-13944.25781 7503.78027 399.82471 466
-13866.76953 7462.06201 658.08789 478
-13866.05078 7569.40967 398.41254 467
-13789.26074 7528.54297 656.41125 479
-13782.05273 7634.46631 398.85464 467
-13705.12793 7593.58252 653.68134 479
-13697.85449 7702.54736 400.76715 468
-13627.35449 7658.69922 656.10663 480
-13620.94043 7766.36816 398.04984 468
-13547.12598 7725.93213 654.41211 480
-13538.42578 7833.80469 397.38065 469
-13466.79102 7792.16846 653.84479 481
-13457.38672 7899.49512 395.18362 469
-13389.43945 7857.39844 650.13324 481
-13376.67969 7963.97852 396.77341 470
-13311.05859 7922.67285 649.51294 482
-13297.09570 8028.05322 397.51120 470
-13232.23730 7985.38574 650.24005 482
-13218.64062 8089.17285 395.63962 471
-13155.32715 8051.36133 647.13940 485
-13141.08691 8155.15820 395.16550 471
-13076.02441 8114.85107 646.04089 486
-13059.96387 8218.02539 395.07217 472
-13000.68555 8183.29150 647.10370 416
-12980.83203 8282.48730 392.81494 472
-12927.57617 8245.14551 647.06067 416
-12994.12598 8405.24805 141.94379 451
-12903.08203 8343.10059 392.85452 473
-12852.81152 8309.64746 642.54199 416
-12916.69238 8465.59082 138.59492 452
-12826.76367 8408.13379 391.28058 473
-12778.18457 8376.11426 643.87250 416
-12835.84277 8527.51855 140.52507 452
-12749.69922 8468.50293 393.89471 474
-12705.86426 8442.37598 642.37756 417
-12758.24902 8590.56934 141.21400 453
-12670.80371 8531.42578 391.68884 474
-12633.68848 8504.74121 642.93787 417
-12677.27539 8650.83105 142.69487 453
-12593.63770 8595.87598 393.61716 474
-12570.22852 8575.37500 639.96259 299
-12600.35449 8713.65723 141.91064 472
-12518.13379 8654.57715 389.90952 475
-12505.39160 8648.95410 639.16187 299
-12524.76465 8777.63770 141.30377 472
-12441.91211 8715.46387 391.81439 475
-12444.39551 8717.54590 640.47729 294
-12447.52148 8835.51172 142.08484 473
-12365.07227 8776.98828 390.75928 476
-13831.93359 9812.02930 697.76935 409
-12370.35059 8898.39844 139.22984 473
-12291.50879 8840.13477 388.97424 476
-13751.83496 9882.28320 699.57739 409
-12295.60547 8960.34570 138.81590 474
-12213.62598 8902.03711 388.74728 476
-13666.75293 9950.91992 699.58185 428
-12217.90332 9018.96387 142.06020 474
-12139.39258 8959.07422 388.67908 477
-12141.55566 9079.85742 138.93011 474
-12063.02246 9022.86719 387.67627 477
-12068.12402 9140.29492 142.49399 475
-11992.31348 9081.49316 386.34070 478
-11994.97754 9201.12500 139.28784 475
-11915.60352 9142.61035 389.85489 478
-11916.81836 9260.00586 142.03404 475
-11843.01074 9204.10645 389.32825 486
-11844.51562 9322.69238 141.93138 476
-11766.95117 9262.79883 386.44244 486
-11766.77930 9380.04492 139.66946 476
-11695.29102 9323.80273 385.37299 487
-11694.69238 9439.08398 139.34436 476
-11620.39941 9384.01270 387.91010 487
-12190.46582 9836.59375 657.19177 482
-12190.79883 9840.79688 916.29633 482
-11618.79492 9500.94531 141.46268 477
-11548.87305 9440.54199 385.24670 487
-12096.97852 9887.36719 656.80963 483
-12100.64844 9887.43750 910.80823 482
-11544.05566 9561.11426 140.03262 478
-11477.25195 9502.77148 388.03302 488
-11493.87891 9516.88281 630.38660 428
-12009.80957 9940.07812 911.04669 483
-11474.66016 9618.64551 141.06375 479
-11403.24121 9562.95312 384.46106 488
-11416.30859 9573.61426 632.47607 428
-11920.12109 9993.13770 910.45502 483
-25217.86719 21044.08203 5587.55811 1000
-11396.32812 9679.28613 142.39323 479
-11329.15625 9621.95020 385.48001 488
-11341.37012 9632.43457 631.31348 428
-11834.18262 10045.86133 908.93408 484
-11325.87793 9736.75684 139.52138 479
-11259.29102 9682.08594 387.29684 488
-11270.80371 9692.06934 629.62616 429
-11744.04785 10095.29980 905.88373 484
-11253.58301 9798.06543 140.59441 479
-11185.19043 9738.32129 384.89755 489
-11200.29199 9748.59180 631.67682 385
-11655.78027 10144.26465 903.83038 485
-11178.99902 9854.01660 142.83456 480
-11116.31250 9798.48145 386.84540 489
-11134.73730 9813.87988 631.55292 385
-11569.11719 10196.10938 902.41571 486
-11105.29492 9914.19629 141.00333 480
-11042.22949 9856.81738 385.99182 489
-11479.50488 10245.16602 645.93597 486
-11483.49512 10245.59082 899.01257 486
-11033.50195 9973.06250 139.79109 480
-10969.77148 9916.69727 383.55750 489
-11400.66992 10300.83105 647.38055 496
-11402.15332 10302.76758 899.00403 496
-10963.15430 10031.16699 139.52257 480
-10897.03613 9974.25586 382.52441 490
-11323.04883 10361.08789 647.80060 496
-11327.67090 10359.88965 897.06171 496
-10889.77930 10090.82715 140.99641 481
-10827.14062 10032.82617 381.98331 490
-11251.14355 10422.35352 648.00354 497
-11254.32324 10420.30566 896.92761 497
-10818.24512 10146.90527 141.98036 481
-10758.30273 10089.56934 385.57236 490
-11178.35156 10481.73730 646.67511 497
-11178.31348 10483.07520 898.32397 497
-10746.07617 10206.25879 140.42830 481
-10686.31250 10147.04102 383.43860 490
-11092.27930 10532.02148 646.25494 463
-11102.25781 10543.22656 897.00952 497
-10674.47559 10263.34668 141.22560 481
-10616.40332 10208.25098 382.03708 494
-10986.70117 10560.11035 642.76477 464
-11029.74316 10603.79980 898.32214 416
-10603.10645 10320.24316 142.15222 481
-10542.74707 10265.18262 384.90900 494
-10955.29883 10662.38281 643.64459 498
-10958.70898 10664.75488 897.85468 416
-10531.35938 10377.69141 142.39789 482
-10475.82422 10323.36816 381.47781 494
-10881.36523 10723.84863 644.13824 498
-10888.54980 10727.89941 894.83826 416
-10456.02539 10434.08887 140.61435 482
-10401.65820 10380.01172 383.40741 494
-10767.73047 10742.00586 642.78729 394
-10819.40234 10791.56641 896.15613 416
-10384.91895 10492.16309 139.76837 482
-10333.60156 10439.02539 382.26276 494
-10691.96191 10796.50488 641.01508 390
-10744.84863 10853.38086 895.84265 416
-10314.87695 10552.71094 142.39903 482
-10263.43066 10498.52441 383.01349 494
-10613.57324 10855.37305 640.42096 390
-10675.32422 10913.75293 896.90051 416
-10242.80859 10607.00293 139.49417 482
-10191.85547 10556.41016 381.43768 495
-10541.22070 10911.58398 640.21832 390
-10604.48242 10978.64355 894.26788 416
-10620.07520 10991.22461 1146.09827 498
-10752.71875 11132.79199 1415.54846 465
-10170.57227 10666.39062 141.27843 482
-10121.30566 10610.63477 383.56250 495
-10464.27441 10969.32129 640.12952 390
-10536.24707 11039.86816 895.62030 416
-10548.80078 11053.30078 1147.21802 498
-10651.52637 11160.39551 1410.23828 466
-10102.67383 10722.67773 141.10577 482
-10050.81738 10671.07129 382.59470 495
-10388.23828 11027.30859 641.14502 454
-10465.47559 11101.68555 894.58032 416
-10607.00488 11250.85352 1157.70740 445
-10609.46680 11256.46289 1415.08411 384
-10031.21191 10780.17090 143.38225 483
-9980.44824 10726.81641 383.22943 495
-10348.73145 11120.86426 641.27625 447
-10357.12988 11127.56250 892.48242 447
-10362.94043 11131.54199 1140.82935 447
-9957.18555 10835.56641 140.82747 483
-9913.08203 10784.29492 381.84109 495
-10233.12207 11132.69727 638.88782 448
-10237.63281 11137.21094 888.78772 448
-10246.79199 11143.74609 1138.62109 448
-9885.50098 10893.44141 142.82390 483
-9843.02832 10843.37695 384.20834 495
-10117.22754 11141.85156 634.39990 449
-10122.00391 11146.68750 883.20459 449
-10129.67480 11154.83789 1133.85449 449
-9817.45410 10951.37109 142.09438 483
-9771.77637 10900.37988 383.84576 495
-10006.84961 11158.18359 632.81921 499
-10007.97070 11159.56543 882.05872 450
-10012.29004 11167.51660 1129.76135 450
-9747.19531 11007.41016 143.56444 483
-9700.57324 10958.62500 383.80478 495
-9933.20312 11217.31152 633.78943 499
-9937.64355 11218.24023 879.65161 499
-9934.54395 11217.33594 1128.66797 499
-10068.33789 11367.21777 1389.78064 443
-10075.53711 11373.99121 1644.03174 442
-9674.69043 11066.77832 143.15921 483
-9631.90527 11013.95898 380.42218 495
-9860.89062 11275.76172 632.65765 499
-9841.96387 11254.19531 877.96405 499
-9864.39453 11279.77539 1127.91443 499
-10049.62695 11485.59961 1399.88098 452
-10406.02051 11888.40137 2761.69067 318
-3273.87964 3754.19238 3.25761 483
-9560.83594 11073.96680 382.10809 495
-9791.34375 11334.97852 632.71484 499
-9772.97754 11313.90137 880.57697 499
-9790.58984 11336.67969 1125.85840 499
-9979.61133 11547.31641 1396.56030 452
-10032.10645 11613.22168 1657.83203 485
-10321.12695 11942.62793 1966.27002 489
-9933.93164 11500.58398 2152.56738 380
-9535.15723 11177.72461 141.84250 483
-9491.53223 11129.54395 380.62704 495
-9716.84766 11392.77832 634.85541 499
-9697.79004 11370.78613 880.55280 499
-9721.80957 11393.58691 1126.79089 499
-9906.61133 11611.44531 1396.31604 452
-9962.12402 11675.48828 1657.79614 485
-9462.70898 11234.20117 142.88947 483
-9423.37793 11188.83398 383.90475 498
-9645.21387 11451.36719 634.44403 499
-9628.90234 11427.82617 878.85083 499
-9647.52930 11454.75098 1126.08289 499
-9832.94824 11667.29102 1397.50232 470
-9888.77734 11733.49902 1659.99451 485
-9390.55859 11291.71973 140.92981 483
-9354.02637 11247.62598 380.79031 498
-9576.47949 11510.72266 634.58502 499
-9556.92871 11485.54102 876.92688 499
-9577.97754 11512.46289 1129.01062 499
-9760.88867 11728.84473 1396.89612 470
-9815.86621 11793.58105 1659.23425 485
-9320.56934 11348.02051 140.53189 483
-9283.87305 11305.44727 380.43829 498
-9503.85156 11567.76758 634.87079 499
-9485.27637 11547.05078 879.97064 499
-9504.39941 11567.52637 1128.03821 499
-9686.37598 11790.54883 1396.22131 470
-9744.40234 11854.65137 1657.58374 485
-9249.18066 11405.98438 142.11752 483
-9214.52344 11361.59668 380.72751 498
-9434.12109 11625.98340 633.50989 499
-9416.21094 11604.22266 879.22479 499
-9434.75000 11627.50977 1126.20044 499
-9614.59082 11850.30176 1396.52454 470
-9178.85547 11464.54297 141.23039 483
-9144.69336 11420.37695 382.14240 498
-9361.91211 11683.97754 632.10150 499
-9342.21973 11662.26172 876.62183 499
-9362.60059 11688.07422 1127.19385 499
-9541.57129 11907.99414 1399.25757 470
-9107.80078 11518.84082 140.13701 483
-9075.17188 11477.39746 383.84409 498
-9288.65234 11742.53613 634.56873 499
-9290.28223 11744.89062 881.24780 499
-9127.38867 11542.30078 1111.59375 354
-9468.33008 11969.48242 1397.28931 472
-9041.15625 11576.05664 141.48262 491
-9004.47363 11532.89355 383.69830 498
-9216.45996 11799.42383 635.25043 499
-9216.37793 11804.54395 878.63452 499
-9011.62988 11538.95898 1106.46533 499
-9397.69824 12030.17188 1399.54395 471
-8968.50000 11633.18262 141.45586 491
-8935.94629 11592.30664 381.02075 498
-9146.08887 11861.58594 635.00397 499
-9034.18262 11716.33105 871.79028 286
-8940.15234 11595.64746 1103.36792 499
-9325.20996 12090.35156 1398.28821 471
-8898.22754 11691.97266 142.33755 491
-8864.90918 11647.40820 380.36411 498
-9073.89160 11920.58301 632.31122 499
-8949.58301 11757.89355 871.62341 374
-8871.90430 11656.02148 1104.68701 499
-9251.71387 12151.41797 1398.16418 471
-8884.29297 11822.81836 -101.72025 480
-8829.44336 11751.32031 140.36281 491
-8796.30078 11707.79980 382.91733 498
-9003.81934 11977.47754 632.42114 499
-9001.16211 11979.31934 881.63422 499
-8800.60938 11712.14453 1106.64563 499
-9183.40918 12213.37988 1400.49365 471
-8813.01172 11880.70996 -101.54399 480
-8756.91309 11806.58691 139.43636 491
-8727.22949 11764.29102 381.24304 498
-8929.68457 12033.50000 633.88617 499
-8931.20117 12037.16211 879.63593 499
-8730.44824 11767.83008 1105.94202 499
-9109.96680 12273.11230 1398.67737 471
-8742.18359 11937.72266 -103.34602 480
-8687.29102 11865.79688 143.03250 491
-8656.10156 11823.00195 382.51642 498
-8862.59668 12100.61621 636.32526 455
-8860.53906 12096.65527 880.01038 499
-8783.39648 11991.11621 1117.99402 341
-9039.50879 12336.12695 1400.11755 467
-8670.31641 11996.74023 -100.87991 480
-8615.66504 11922.30664 142.04335 491
-8587.27930 11881.00781 382.70514 497
-8824.26758 12203.12207 634.65894 475
-8821.51270 12202.68164 882.30347 454
-8841.47070 12230.16016 1133.27490 450
-8981.33398 12422.28809 1402.12415 455
-8596.72461 12052.33105 -103.20617 480
-8548.75098 11978.22461 139.53963 491
-8515.52344 11939.33301 380.70615 497
-8775.24707 12292.01074 639.56580 474
-8784.41309 12311.19531 888.50494 453
-8809.00293 12341.63867 1138.23682 449
-8933.64551 12516.75684 1405.46448 454
-8526.62207 12109.45117 -102.16216 480
-8475.92578 12037.03711 141.96881 491
-8445.85352 11995.72754 380.62436 497
-8719.99707 12381.03906 639.42480 474
-8749.18750 12417.65723 889.15668 452
-8773.43555 12451.32715 1144.40210 448
-8454.34473 12164.74805 -101.29037 480
-8405.11426 12095.00391 140.52344 491
-8377.74902 12053.34863 383.38846 497
-8666.10352 12465.89355 642.56927 473
-8698.87598 12507.57715 891.65314 472
84.88702 12.93002 133.10629 1000
-8383.86719 12224.54004 -100.16364 480
-8335.81445 12151.60352 143.53427 491
-8305.64453 12112.00586 380.98450 497
-8615.16211 12555.58691 643.03912 472
-8643.15723 12598.19434 894.37091 471
-8314.08301 12281.96582 -100.53554 480
-8264.70215 12211.86133 141.22441 490
-8235.81934 12171.42188 380.90872 497
-8560.04395 12642.22070 641.38513 472
-8242.57227 12338.59766 -102.75566 480
-8196.13281 12267.49121 141.95197 490
-8168.88867 12233.15918 384.09857 376
-8551.69434 12795.50684 646.68469 443
-8168.53027 12394.98242 -100.93411 479
-8123.05371 12325.44922 139.41536 490
-8102.41992 12296.74316 383.85822 376
-8097.09180 12452.80078 -101.43333 479
-8052.47266 12383.47070 142.94383 490
-8034.43408 12355.22461 385.57404 446
-8026.80762 12511.82715 -104.27889 479
-7979.49170 12442.94141 142.99716 490
-7959.95459 12411.13574 382.98190 445
-7953.54004 12570.07031 -103.40603 479
-7911.20361 12498.97168 141.67188 490
-7891.08984 12468.64062 383.65479 445
-7881.79980 12625.60742 -101.36200 479
-7838.01270 12557.85449 139.84758 489
-7818.84033 12524.80566 382.68655 445
-7810.85986 12683.52637 -104.79028 479
-7768.08154 12616.48828 140.55447 489
-7745.69482 12585.42871 383.90750 422
-7738.17871 12745.42188 -103.67394 478
-7695.69727 12673.41992 141.79118 489
-7679.07666 12650.76562 386.34491 301
-7663.97314 12800.58301 -101.91025 478
-7623.43213 12731.44727 142.57294 489
-7622.14600 12725.24902 385.80264 295
-7590.94727 12859.46973 -101.70384 478
-7553.04932 12794.14258 142.37393 489
-7559.90332 12802.14258 387.04272 295
-7523.21240 12917.62402 -104.17532 478
-7480.41162 12851.28320 140.61935 488
-8285.07812 14215.51172 414.32526 423
-7448.35352 12977.19238 -104.06512 478
-7407.89014 12910.64453 140.02130 488
-8205.87305 14277.13672 412.41074 419
-7373.94287 13035.93164 -106.44753 477
-7337.02881 12969.77441 143.21735 488
-8125.16895 14345.88574 412.46625 418
-7302.14795 13093.73242 -103.64359 477
-7265.37451 13027.42969 139.28810 488
-8044.29443 14412.96484 413.72333 413
-7230.00732 13152.91211 -106.01781 477
-7192.50488 13085.49219 140.48917 487
-7155.71777 13213.06152 -103.21011 477
-7118.96826 13146.87500 140.06461 487
-7080.51904 13271.01172 -103.79591 477
-7048.13135 13205.88281 139.34447 487
-7006.47119 13330.50195 -104.14693 476
-6972.90234 13264.02344 141.62283 487
-6937.05029 13390.14551 -104.24100 476
-6900.80859 13325.52832 140.23190 486
-6860.11035 13450.31641 -104.71950 476
-6829.12744 13385.95703 141.24265 486
-6787.23096 13508.89941 -104.55081 475
-6753.91064 13446.24023 140.97864 486
-6764.44141 13463.82520 388.94278 427
-6712.07275 13569.36816 -108.26548 475
-6679.20264 13503.31934 139.29712 485
-6690.20166 13521.67188 388.40518 427
-6637.48926 13626.07617 -108.58501 475
-6605.91357 13562.54395 140.45076 485
-6616.03467 13585.52148 390.28079 433
-6562.00977 13687.33789 -107.95409 476
-6533.12158 13627.80957 139.37941 488
-6544.22754 13651.60938 387.56207 394
-6489.34277 13749.12598 -106.57526 476
-6457.18896 13685.55664 142.67706 488
-6413.23291 13808.35547 -106.97765 475
-6386.46191 13746.87500 141.26215 487
-6339.78760 13871.37109 -110.40047 475
-6311.29688 13809.32227 140.29005 489
-6262.65967 13928.75293 -109.93025 482
-6233.55811 13871.98242 139.22694 489
-6187.84668 13995.71094 -108.35007 482
-6160.66016 13935.29785 140.80298 488
-6112.01367 14056.84570 -109.59121 481
-6086.50586 13996.31445 141.26077 488
-6034.42041 14118.06055 -111.12695 481
-6007.25732 14058.21777 142.06703 488
-660.32379 1764.67896 -24.31322 375
-5960.36426 14179.05859 -110.60497 481
-5934.95703 14122.58984 143.25923 487
-647.19531 1763.87866 -23.49609 496
-649.97241 1769.78699 7.15537 496
-652.52820 1776.38428 38.51274 476
-5884.37598 14249.57715 -113.92062 460
-5858.09912 14183.27930 141.56673 487
-637.59564 1770.83435 -23.89607 462
-639.89386 1777.09387 7.04337 411
-643.50842 1786.18506 38.15942 480
-5812.54883 14324.17871 -112.06171 460
-5782.99609 14245.21680 142.47040 486
-5743.41260 14401.99609 -114.82381 460
-5706.90527 14311.36719 139.39896 483
-5669.80469 14478.98535 -112.48504 459
-5630.28076 14380.55566 142.81430 482
-5597.80957 14558.46484 -116.12483 459
-5556.85449 14457.75586 141.44856 465
-5525.97168 14634.18262 -113.63889 458
-5487.05078 14532.66406 141.51436 464
-5449.27539 14713.35938 -116.29907 457
-5413.00732 14613.24121 141.62428 463
-5380.00244 14791.31055 -118.07259 457
-5338.01758 14692.86914 139.44284 463
-5305.41064 14881.72656 -117.87183 414
-5267.40137 14773.27051 139.86011 462
-5241.03809 14989.61133 -119.93185 413
-5194.05908 14854.69824 142.15813 462
-5175.58545 15098.72852 -119.45380 412
-5122.52686 14941.82715 142.59673 461
-5111.43213 15216.29199 -120.40290 390
-5049.04980 15030.40332 139.31490 460
-5048.81445 15340.44336 -124.76472 389
-4977.52588 15121.26758 142.83630 459
-4988.02148 15474.79297 -123.14368 362
-4907.76074 15224.92090 139.30058 403
-4935.14160 15631.02734 -127.57590 361
-4839.41504 15334.08301 140.13817 402
-4772.32275 15447.67578 142.67297 401
-4710.81494 15583.22754 142.85562 399
-4649.26904 15727.43359 138.81200 398
-4586.61670 15881.71094 143.00435 361
-4536.85156 16081.16309 139.12694 311
-2556.59668 14908.63770 1380.94128 1000
-1508.81885 17798.01953 -1620.10986 1000
8313.27734 39424.88672 3443.36719 1000
1132.01135 2184.49219 -26.13458 389
1139.88855 2166.63208 -65.18962 386
1140.24658 2167.01807 -25.67487 428
1146.17676 2145.34619 -63.42641 387
1149.76550 2153.39746 -24.98862 386
1151.99475 2125.36670 -62.77938 388
1159.84033 2140.71118 -24.55494 377
1159.55164 2107.57446 -61.48067 461
1170.51917 2129.01538 -24.16419 377
1184.66016 2124.20337 -102.98424 454
1168.28772 2093.26758 -60.83080 462
1184.11646 2123.88721 -23.92558 300
1193.26123 2109.22290 -102.15766 454
1177.07336 2078.80884 -60.04419 463
1251.93347 2220.63867 -31.76173 299
1201.35095 2093.55469 -101.32700 455
1186.47632 2064.66577 -59.59356 464
1268.09253 2218.80420 -32.59534 399
1209.80542 2078.59912 -99.92691 475
1195.17554 2051.88086 -59.01497 479
1220.06665 2066.47437 -99.70915 475
1205.68640 2040.38342 -58.28974 480
1229.53040 2053.84351 -99.22661 476
1215.22668 2028.55457 -57.63392 480
1239.19604 2041.83960 -98.62565 476
1225.18787 2016.87329 -57.31052 481
1248.89258 2030.31226 -98.21301 476
1235.02820 2005.66089 -57.00155 481
1258.92920 2018.31506 -97.34911 479
1244.95923 1994.98096 -57.06227 487
1249.05359 2013.86523 -95.34779 480
1236.31824 1991.20691 -54.34531 487
1259.74121 2002.46448 -95.09389 480
1246.62573 1980.84692 -54.14973 488
1269.00842 1990.39539 -93.93247 329
1256.92664 1970.76306 -54.43184 460
1277.33081 1976.82800 -93.72803 330
1267.36206 1960.58960 -53.68526 460
1307.10547 2025.91174 -21.21275 499
1285.88757 1962.91125 -92.78290 333
1278.37170 1950.90088 -53.81131 462
1319.18665 2017.76538 -21.10715 499
1295.34583 1951.35596 -92.44039 333
1289.06213 1941.77698 -53.18261 462
1330.96082 2009.14050 -20.84672 499
1304.47693 1940.19275 -92.10652 334
1300.26013 1932.85217 -53.18038 462
1342.74268 1999.86951 -20.85506 499
1314.52930 1928.87427 -91.72041 334
1311.07910 1923.42517 -53.18724 463
1397.19910 2058.60132 -25.84407 499
1324.33252 1917.85193 -90.81844 336
1321.96680 1914.83130 -53.38582 464
1334.08630 1907.57666 -91.01290 336
1333.44727 1906.14551 -52.77251 464
13568.83105 20513.06836 3380.59229 1000
1344.19885 1897.08228 -90.84135 437
1344.66687 1897.61609 -53.21544 464
1354.76990 1888.19763 -90.12436 438
1355.94788 1889.20776 -53.06194 464
1366.04785 1879.72534 -90.10167 439
1367.30920 1880.52698 -52.61375 464
1415.35413 1951.65222 -20.86747 499
1377.67603 1870.83789 -90.12890 439
1378.48938 1872.88904 -52.94437 464
1424.31787 1938.35486 -20.68213 499
1463.04688 1994.15625 94.44926 307
1388.69177 1863.23547 -90.14491 439
1389.99976 1863.97437 -52.85790 464
1436.03992 1929.85291 -20.45497 499
1471.80017 1980.67090 15.44290 369
1463.23706 1968.13733 94.36716 487
1400.01331 1854.47644 -90.54765 439
1401.57812 1856.02795 -52.56709 464
1474.50195 1958.83435 94.30379 489
1411.83765 1846.22314 -90.19804 439
1412.63745 1847.31702 -53.06038 464
1491.63574 1957.84558 94.69214 425
1423.08203 1838.14099 -90.56512 439
1423.75476 1839.68860 -52.63049 464
1498.71729 1942.20093 94.34203 499
1498.37720 1941.68420 133.70782 476
1527.27808 1980.27283 173.78549 499
1434.07825 1829.97314 -90.56939 439
1435.37280 1831.09241 -52.69010 464
1445.42639 1821.65710 -90.39801 439
1446.63196 1822.79602 -53.17066 464
1457.11804 1813.18982 -90.24073 439
1458.02905 1814.26282 -52.73047 464
1600.15588 2001.80786 -30.59782 383
1468.32056 1804.80908 -90.21055 439
1468.97168 1805.93994 -53.19018 464
1498.05994 1843.10388 -18.67934 499
1479.51013 1796.96460 -90.43210 439
1480.27954 1798.01770 -53.09493 464
1509.50317 1835.20105 -18.63137 499
1490.87659 1788.65344 -90.40534 439
1491.68970 1789.42517 -52.85472 464
1502.51868 1780.42029 -90.66731 439
1503.20959 1781.22986 -53.40053 464
1514.09741 1772.12354 -90.39916 439
1514.50354 1773.14526 -53.12362 464
1525.20386 1764.01392 -90.44022 439
1525.70251 1764.75037 -53.51723 464
1536.47644 1755.39221 -90.84943 438
1537.02075 1756.17261 -53.39799 464
1676.17773 1924.11877 -29.83360 499
1670.50928 1916.42554 11.38572 499
1673.61377 1919.93628 51.89486 370
1547.99512 1747.01245 -90.85931 438
1548.23865 1747.72278 -53.57382 464
1609.17188 1819.70398 94.60831 495
1559.29456 1738.80396 -91.35434 438
1559.94080 1739.44824 -53.13341 464
1570.80139 1730.93506 -91.38057 438
1571.02600 1731.06897 -53.48395 464
1582.41577 1722.16748 -91.52924 336
1582.69971 1722.61401 -53.43557 463
1594.41687 1714.29773 -91.61005 336
1593.60986 1714.04736 -53.97303 463
1605.88660 1706.12708 -91.32555 336
1605.18372 1705.55493 -53.73088 463
1617.68018 1697.99365 -91.64936 336
1617.06580 1697.32080 -54.09958 463
1629.66235 1690.28540 -92.14181 336
1628.12512 1688.99487 -54.15443 463
1641.33813 1682.24329 -92.11264 336
1639.31189 1680.25000 -54.17459 463
1652.88281 1674.42480 -92.78133 336
1650.64551 1671.90100 -54.40416 463
1665.11951 1665.99988 -92.43429 336
1662.48071 1663.21411 -54.43548 462
1676.96533 1657.86975 -93.11548 336
1673.69092 1654.85376 -54.41335 462
1688.39990 1649.62268 -93.38324 336
1685.35864 1646.57898 -54.51945 462
1782.87427 1746.76538 -26.24017 497
1700.56812 1641.45544 -93.52605 336
1696.88257 1637.79810 -55.07929 462
1712.77466 1633.51917 -93.51428 335
1708.48071 1629.26526 -54.93274 462
1784.21948 1704.83411 15.10724 497
1724.64746 1625.77368 -93.90934 335
1720.00464 1620.74915 -55.41227 462
1736.73303 1617.61426 -94.63488 335
1731.16614 1612.06042 -55.44633 461
1746.01379 1606.60059 -56.00541 440
1761.74243 1601.71240 -56.70237 368
1779.00452 1598.67664 -57.66034 368
29075.59375 26312.09961 790.07367 1000
8469.21680 7611.31787 508.12341 1000
22912.32031 20208.31641 5693.39307 1000
24031.76562 20681.58203 2740.17432 1000
52847.84766 33893.10938 -12322.05273 1000
305.77246 124.09025 86.29159 1000
1809.02722 442.46603 -42.47803 347
1803.11316 429.71484 -41.63219 493
1807.95911 430.57059 -12.92711 492
1812.24255 431.77460 15.63622 489
1806.55579 419.33539 -42.12977 479
1812.41199 420.50598 -13.40239 437
1820.37378 422.36337 15.74765 305
37969.60547 7259.86572 9128.15918 1000
65231.30859 10830.75293 13270.84766 1000
12713.99902 2020.18872 2243.97266 1000
49107.83594 7534.09033 5018.74902 1000
28729.48047 2613.14453 3441.02808 1000
35573.20312 609.06482 4214.04980 1000
4682.53223 -231.11563 -94.31158 438
4697.27148 -260.39191 -94.18646 438
4712.73926 -290.18146 -95.11673 436
4731.29248 -320.42984 -97.28860 435
4750.79736 -350.18051 -98.21449 441
4771.25781 -381.02722 -98.34327 423
4792.03711 -411.50116 -100.28233 422
4823.02490 -442.76917 -101.18169 405
4863.04834 -477.34543 -103.28248 354
4923.39648 -512.47821 -107.38531 334
4991.27246 -550.64868 -110.92290 341
5060.82178 -589.66199 -114.23383 340
5133.34473 -629.95624 -117.88238 338
5200.15625 -670.45288 -120.66950 339
3338.45435 -735.17883 -31.63849 477
3346.60400 -736.44983 22.94516 483
9636.04688 -3772.77368 -710.64343 1000
4119.97705 -1592.49500 -10.00500 498
4945.49902 -2235.57251 -43.19979 442
4888.09326 -2245.78662 -41.38902 329
4855.95801 -2266.03247 -40.75660 358
4881.38721 -2278.11792 44.61401 478
4822.01416 -2286.10864 -40.96582 362
4794.18262 -2309.11841 -40.72494 418
4767.70752 -2330.75293 -40.22457 425
2374.66040 -1202.64722 -87.46581 465
4718.59277 -2378.61157 -38.32693 468
4783.38379 -2411.57983 45.82434 305
4853.73877 -2447.34009 131.29903 306
4696.05029 -2401.85083 -39.12595 469
4737.54785 -2423.35449 45.20715 485
4735.95312 -2422.42725 131.19162 309
4674.30371 -2426.32495 -38.20245 473
4711.49561 -2446.38647 45.39145 486
4708.29248 -2444.26929 131.98216 498
4654.14307 -2451.93286 -38.31343 494
4690.18359 -2471.46240 45.89463 499
4690.71875 -2471.17261 131.42113 498
4634.69141 -2478.62598 -37.66579 496
4673.49609 -2498.88672 46.30533 499
4673.72314 -2500.05151 130.95309 498
4615.70068 -2504.41895 -38.32558 496
4651.25146 -2522.67505 45.71695 499
4652.96387 -2524.50635 131.93144 499
4666.85303 -2532.40088 302.48596 475
4598.27197 -2529.91724 -37.69745 478
4635.31152 -2550.83057 46.85794 499
4636.24561 -2551.52417 131.08385 499
4581.68457 -2557.80908 -38.29178 479
4617.88281 -2577.76099 46.58644 499
4620.15918 -2579.18262 131.66737 499
4564.93311 -2584.89014 -36.94042 479
4605.40381 -2607.11157 46.70256 499
4606.03418 -2607.61060 130.80270 499
4548.86133 -2611.16040 -38.12199 479
4589.10840 -2635.51807 45.77053 499
4590.57764 -2636.53516 131.11285 499
4531.95410 -2638.79688 -37.24552 479
4572.79932 -2662.31079 46.14588 499
4573.19092 -2663.84766 132.12540 499
4515.73438 -2665.89429 -37.28824 479
4555.46582 -2689.75049 46.59072 499
4556.15674 -2691.02100 132.06839 499
4631.44238 -2735.88354 218.48537 486
4500.29590 -2694.42700 -37.10124 444
4484.02637 -2721.58936 -38.19757 443
4592.73438 -2787.97656 218.74892 494
4467.85400 -2748.93774 -37.07832 448
4626.04785 -2847.39648 218.63499 415
4452.98975 -2776.39014 -38.42689 448
4437.45117 -2804.97900 -37.29428 392
4422.88184 -2831.94507 -37.38601 392
4406.91650 -2859.88989 -38.25198 392
4391.80469 -2888.55298 -38.06296 386
4413.51904 -2902.94287 46.10290 485
1789.20386 -1154.20178 -276.29196 1000
4376.96777 -2917.08496 -37.68754 311
4363.63770 -2947.24194 -37.99207 317
4382.49561 -2998.88843 46.51777 262
4397.90479 -3048.59106 44.48207 490
4371.08643 -3070.12329 46.04192 490
4351.90967 -3095.10376 44.74583 488
4308.28369 -3103.92139 132.03738 449
3032.89917 -2780.41699 -0.44622 471
3038.76685 -2785.57642 65.38707 499
3025.50488 -2807.36597 -1.40359 289
44444.24609 -47477.12109 5454.30859 1000
2209.86377 -2467.69531 25.40853 354
2191.98096 -2446.50781 79.01760 333
2167.90527 -2448.83276 26.49927 348
2150.15942 -2427.16260 79.42863 357
2126.61279 -2429.82324 28.21961 350
2108.73535 -2408.35278 80.01998 359
2085.20410 -2410.89673 29.55173 349
2069.00000 -2391.21704 81.42398 360
2048.15698 -2394.36572 30.37462 348
2030.71997 -2373.91821 81.43832 361
2010.52124 -2378.62085 31.41010 349
1992.98071 -2356.59351 82.14178 363
1974.77856 -2363.42749 33.35173 350
1956.02197 -2339.54468 83.20802 364
1938.79028 -2348.84448 33.98059 351
1919.85095 -2323.29761 83.25637 365
1903.85974 -2332.92651 35.41132 346
1884.57214 -2307.45361 84.42175 367
1869.91321 -2318.15747 36.31948 347
1850.28943 -2292.77100 84.40498 379
1837.11804 -2305.09790 37.19295 350
1820.58960 -2283.46631 85.24821 402
1825.57812 -2289.68896 131.99971 404
1807.63989 -2294.46997 38.25883 379
1795.11121 -2277.59912 85.24026 423
1803.05164 -2288.78979 131.56483 484
1781.86084 -2289.62378 38.68945 384
1770.47839 -2274.47754 85.32005 427
1786.60986 -2295.73950 131.65488 478
1758.01904 -2286.19971 39.04933 390
1747.11682 -2271.13916 86.00725 433
1776.05286 -2311.02393 131.47437 448
1734.63110 -2283.44409 39.82824 390
1724.21790 -2268.42700 85.88134 438
1767.09717 -2328.59155 132.01205 447
1711.85974 -2281.54150 40.13976 391
1702.42834 -2267.82275 86.26290 444
1758.41333 -2346.40796 132.13571 447
1689.84961 -2280.22803 40.89527 398
1681.11646 -2267.63818 86.56946 459
1749.67944 -2365.44287 131.79907 446
1669.28918 -2279.50537 40.94509 409
1661.48108 -2268.63135 87.08811 463
1740.39954 -2383.58960 131.79541 445
1649.01123 -2280.79248 41.91232 416
1641.90833 -2270.05591 86.89465 455
1731.79810 -2401.39795 131.48286 444
1629.86536 -2281.83154 41.54894 417
1622.38574 -2270.45728 86.73160 456
1722.53491 -2420.21582 131.50757 444
1610.60034 -2283.15869 42.00102 422
1603.10266 -2272.06738 87.12743 449
1713.40930 -2439.36792 132.11552 443
1590.92603 -2283.93530 42.61040 422
1583.60400 -2273.15918 87.57355 450
1704.50989 -2457.82520 131.48582 442
1571.37122 -2284.36108 42.78823 426
1565.45886 -2275.14966 87.53737 455
1700.62402 -2485.45947 131.79454 296
1565.90442 -2307.45728 42.65372 286
1546.71729 -2277.47534 87.97585 455
1563.68018 -2335.02148 41.30994 285
1528.87683 -2279.93066 87.49843 455
1511.96765 -2283.77588 87.67773 397
30626.41602 -53733.93359 -14282.23242 1000
14888.61133 -42049.76562 -11813.96387 1000
2041.45642 -8188.35010 -1399.83191 1000
10295.99805 -54636.13672 12136.22461 1000
465.07489 -5491.14941 1415.65454 1000
-153.60146 -3085.76318 132.17467 487
-153.73161 -3083.32446 182.33932 499
-153.32162 -3080.63379 232.92020 499
-153.41721 -3078.62866 283.83102 487
-152.98126 -3076.49487 334.08691 487
-4669.53271 -29540.21484 -846.89343 1000
-323.45438 -2401.91846 92.24953 348
-322.94724 -2399.53516 131.91086 414
-322.65167 -2397.21436 172.15936 464
-322.20651 -2395.25146 211.67029 464
-322.32541 -2393.18799 251.46765 464
-321.49496 -2391.96240 291.53806 493
-489.55328 -1695.73792 72.98856 482
-489.14682 -1694.29639 102.52805 483
-488.92642 -1693.19751 131.85249 499
-488.34088 -1691.98340 161.39417 499
-488.20062 -1690.91309 190.77591 499
-487.52728 -1690.10083 219.98074 491
-487.34705 -1689.12830 249.26158 491
-487.01801 -1688.07458 278.47336 491
-486.96204 -1687.34497 308.12408 458
-18583.35742 -48296.55078 2677.69629 1000
-18543.20898 -48193.04297 4370.66504 1000
-17931.21680 -41940.29688 -613.50482 1000
-20248.08984 -45772.09766 11813.38574 1000
90.15755 -2.95074 128.05762 353
90.15711 -2.95001 128.29535 354
89.55574 -3.16224 128.38554 306
90.26889 -2.83813 128.08147 355
90.26987 -2.83781 128.31993 355
89.58350 -3.07426 128.38728 306
88.50275 -3.45269 128.38770 302
90.38268 -2.72593 128.10303 356
90.38158 -2.72606 128.33994 357
89.61038 -2.98824 128.38599 306
88.52857 -3.35670 128.38620 302
90.49224 -2.61651 128.12743 357
90.49208 -2.61649 128.36143 358
89.64185 -2.89983 128.38783 306
88.55521 -3.26272 128.38716 302
90.59930 -2.50928 128.14822 359
90.59975 -2.50867 128.38126 359
89.66954 -2.81093 128.38545 306
88.58364 -3.16829 128.38776 302
90.70631 -2.40166 128.17046 360
90.64693 -2.42109 128.38676 310
89.69971 -2.72247 128.38724 306
88.61089 -3.07304 128.38573 302
90.81039 -2.29644 128.18924 361
90.67793 -2.33924 128.38628 310
89.72881 -2.63516 128.38530 306
88.63861 -2.97732 128.38631 302
90.91286 -2.19339 128.20976 363
90.70944 -2.25667 128.38576 310
89.76050 -2.54733 128.38524 306
88.66882 -2.88160 128.38565 302
87.39603 -3.27188 128.38704 298
-2222.77368 -711.73505 131.70538 486
-2228.77832 -713.64191 171.96127 449
91.01556 -2.09022 128.23006 364
90.74290 -2.17397 128.38725 310
89.79311 -2.45918 128.38524 306
88.69751 -2.78540 128.38567 302
87.42526 -3.16959 128.38551 298
-2230.25537 -698.23077 132.06340 447
91.11714 -1.99227 128.24942 365
90.77545 -2.09026 128.38737 310
89.82568 -2.37006 128.38696 306
88.72906 -2.69116 128.38777 302
87.45263 -3.06623 128.38765 298
-2893.47925 -876.94220 131.49252 489
-2898.28540 -878.11163 182.64328 488
91.21542 -1.89322 128.26683 367
90.81126 -2.00886 128.38739 310
89.85691 -2.28041 128.38640 306
88.75896 -2.59505 128.38565 302
87.48269 -2.96159 128.38718 298
91.31248 -1.79521 128.28374 368
90.84378 -1.92569 128.38585 310
89.88994 -2.19202 128.38766 306
88.79224 -2.50141 128.38663 302
87.51289 -2.85865 128.38615 298
91.36240 -1.70963 128.28766 458
90.87796 -1.84333 128.38660 310
89.92303 -2.10288 128.38695 306
88.82550 -2.40387 128.38554 302
87.54510 -2.75354 128.38644 298
91.38148 -1.63516 128.28455 459
90.91389 -1.75903 128.38614 310
89.95831 -2.01408 128.38676 306
88.85509 -2.30939 128.38770 302
87.57644 -2.65121 128.38640 298
91.40393 -1.55965 128.27895 460
90.95197 -1.67709 128.38530 310
89.99157 -1.92581 128.38699 306
88.88892 -2.21266 128.38814 302
87.60799 -2.54778 128.38550 298
91.42279 -1.48324 128.27505 460
90.98660 -1.59322 128.38594 310
90.02679 -1.83702 128.38586 306
88.23685 -2.29306 128.23407 369
87.63796 -2.44241 128.38570 298
91.44423 -1.40727 128.27094 461
91.02413 -1.51035 128.38683 310
90.06418 -1.74924 128.38550 306
88.05784 -2.24292 128.18620 367
87.67365 -2.33898 128.38687 298
91.46415 -1.32982 128.26540 462
91.06155 -1.42734 128.38612 310
90.09949 -1.66030 128.38588 306
87.87368 -2.19468 128.13841 366
87.70636 -2.23506 128.38757 298
86.18729 -2.59809 128.38660 294
91.48578 -1.25436 128.26112 462
91.09954 -1.34413 128.38585 310
90.13710 -1.57093 128.38637 306
87.68447 -2.14310 128.08887 365
87.68328 -2.14366 128.37372 365
86.21938 -2.48568 128.38687 294
91.50507 -1.17755 128.25571 463
91.13757 -1.26202 128.38634 310
90.17323 -1.47985 128.38634 306
87.49117 -2.09123 128.03761 364
87.48906 -2.09119 128.32938 364
86.25307 -2.37176 128.38618 294
91.52682 -1.10099 128.25076 464
91.17598 -1.17871 128.38597 310
90.21219 -1.39041 128.38571 306
87.28989 -2.03588 127.98438 362
87.28920 -2.03674 128.28197 363
86.28893 -2.25796 128.38515 294
91.54718 -1.02523 128.24625 464
91.21501 -1.09379 128.38574 310
90.25193 -1.30248 128.38596 306
87.12395 -1.97153 127.94108 455
87.12378 -1.97349 128.24084 455
86.32468 -2.14361 128.38660 294
91.56656 -0.94648 128.23882 465
91.25430 -1.01186 128.38687 310
90.28944 -1.21169 128.38672 306
87.03873 -1.88862 127.91349 454
87.03898 -1.88848 128.21355 455
86.35829 -2.03142 128.38525 294
91.58673 -0.86921 128.23384 466
91.29490 -0.92805 128.38692 310
90.32979 -1.12415 128.38744 306
86.95617 -1.80361 127.88852 453
86.95359 -1.80512 128.19127 454
86.39710 -1.91569 128.38628 294
91.60947 -0.79298 128.22813 466
91.33564 -0.84545 128.38632 310
90.36980 -1.03382 128.38600 306
86.86707 -1.71818 127.86299 452
86.86661 -1.71773 128.16576 453
86.43235 -1.80336 128.38666 294
91.63061 -0.71356 128.22362 467
91.37769 -0.76252 128.38628 310
90.41110 -0.94394 128.38667 306
86.78273 -1.62975 127.83445 451
86.77961 -1.63128 128.14050 452
86.47042 -1.69097 128.38751 294
91.64998 -0.63488 128.21793 468
91.41917 -0.67811 128.38560 310
90.45118 -0.85566 128.38580 306
86.69032 -1.54147 127.80445 451
86.69396 -1.54156 128.11433 451
86.50903 -1.57666 128.38594 294
91.67257 -0.55833 128.21280 468
91.46272 -0.59450 128.38576 310
90.49190 -0.76599 128.38557 306
86.64689 -1.44556 127.78640 302
86.60107 -1.45179 128.08752 450
86.54975 -1.46011 128.38562 294
91.69331 -0.47895 128.20488 469
91.50413 -0.51148 128.38699 310
90.53483 -0.67505 128.38588 306
86.68329 -1.33087 127.78608 302
86.51073 -1.36152 128.06317 449
86.50915 -1.35843 128.37366 450
91.71423 -0.40077 128.20100 470
91.54962 -0.42834 128.38742 310
90.57964 -0.58636 128.38593 306
86.72387 -1.21558 127.78860 302
86.41687 -1.26509 128.03416 449
86.41640 -1.26610 128.34805 449
-39153.46094 -6418.88770 8723.71289 1000
91.73502 -0.32141 128.19461 470
91.59418 -0.34458 128.38770 310
90.62193 -0.49612 128.38594 306
86.76324 -1.10447 127.78706 302
86.32367 -1.17106 128.00781 448
86.32384 -1.17404 128.32260 448
91.75572 -0.24357 128.18747 471
91.63794 -0.26174 128.38721 310
90.66452 -0.40756 128.38632 306
86.80588 -0.99073 127.78863 302
86.28432 -1.06841 127.99262 493
86.28239 -1.06949 128.30901 494
91.77624 -0.16316 128.18135 471
91.68140 -0.17660 128.38589 310
90.70969 -0.31805 128.38773 306
86.84792 -0.87634 127.78753 302
86.25350 -0.96153 127.97601 493
86.25537 -0.96153 128.29268 494
91.79733 -0.08485 128.17426 472
91.72675 -0.09417 128.38545 310
90.75443 -0.22909 128.38750 306
86.89008 -0.76473 127.78612 302
86.22401 -0.85544 127.96230 493
86.22629 -0.85471 128.28333 494
91.82037 -0.00423 128.16928 473
91.77384 -0.01165 128.38696 310
90.80122 -0.14064 128.38757 306
86.93180 -0.64845 127.78745 302
86.19501 -0.74714 127.94737 493
86.19698 -0.74911 128.26897 493
91.80177 0.06949 128.15128 489
91.80195 0.07093 128.38167 490
90.84703 -0.04887 128.38531 306
86.97600 -0.53797 127.78749 302
86.16496 -0.63854 127.93443 492
86.16626 -0.63633 128.25372 493
85.04364 -0.78116 128.38582 290
91.78196 0.14540 128.13399 489
91.78315 0.14620 128.36588 490
90.89439 0.03986 128.38701 306
87.01901 -0.42151 127.78713 302
86.13918 -0.52777 127.91870 492
86.13981 -0.52895 128.24240 493
85.08807 -0.65405 128.38477 290
91.76160 0.22303 128.11510 488
91.76130 0.22224 128.34737 489
90.94043 0.12843 128.38701 306
87.06426 -0.30926 127.78695 302
86.10771 -0.41878 127.90645 492
86.10820 -0.41682 128.22704 493
85.13745 -0.52746 128.38849 290
91.74004 0.30043 128.09573 488
91.74118 0.29892 128.33116 489
90.98856 0.22013 128.38690 306
87.11093 -0.19562 127.78917 302
86.07894 -0.30658 127.89086 492
86.07634 -0.30707 128.21300 493
85.18275 -0.40391 128.38641 290
91.72021 0.37609 128.07867 488
91.72010 0.37813 128.31360 489
91.03551 0.30860 128.38712 306
87.15477 -0.08329 127.78754 302
86.04932 -0.19395 127.87292 492
86.04781 -0.19719 128.20006 492
85.23019 -0.27916 128.38666 290
91.69804 0.45584 128.06026 488
91.69847 0.45515 128.29491 489
91.08752 0.39828 128.38747 306
87.20425 0.02827 127.78830 302
86.01763 -0.08444 127.85827 491
86.01685 -0.07986 128.18587 492
85.27785 -0.15281 128.38573 290
91.67729 0.53665 128.04123 487
91.67813 0.53429 128.27763 488
91.13683 0.48766 128.38742 306
87.24942 0.14400 127.78731 302
86.00723 0.03369 127.84797 480
86.00392 0.03159 128.17439 481
85.32536 -0.02436 128.38853 290
91.65777 0.61594 128.02127 487
91.65664 0.61614 128.25919 488
91.18497 0.57776 128.38727 306
87.29971 0.25661 127.78928 302
86.03742 0.15157 127.84327 480
86.03638 0.15257 128.17085 481
85.37608 0.09950 128.38513 290
91.63448 0.69565 128.00096 487
91.63334 0.69660 128.24199 488
91.23698 0.66598 128.38547 306
87.34796 0.37179 127.78622 302
86.07128 0.27361 127.84186 481
86.06830 0.27247 128.16617 482
85.42474 0.22407 128.38860 290
91.61238 0.77778 127.98329 487
91.61256 0.77944 128.22244 488
91.28573 0.75525 128.38574 306
87.39905 0.48165 127.78862 302
86.10015 0.39086 127.83524 481
86.10061 0.39092 128.16548 482
85.47537 0.34712 128.38576 290
91.59046 0.85984 127.96394 486
91.58948 0.86007 128.20543 487
91.33697 0.84416 128.38712 306
87.44843 0.59726 127.78720 302
86.13382 0.51383 127.83491 482
86.13258 0.51248 128.16281 483
85.52711 0.47551 128.38666 290
91.56826 0.94451 127.94357 486
91.56808 0.94504 128.18539 487
91.38894 0.93404 128.38574 306
87.50003 0.71112 127.78568 302
86.16470 0.63161 127.83105 482
86.16516 0.63377 128.15649 483
85.58138 0.60058 128.38499 290
91.54475 1.02849 127.92471 486
91.54531 1.02986 128.16869 487
91.44201 1.02440 128.38757 306
87.55122 0.82495 127.78651 302
86.19962 0.75328 127.82359 483
86.19781 0.75311 128.15549 483
85.63332 0.72392 128.38448 290
91.52294 1.11168 127.90289 485
91.52376 1.11321 128.14851 486
91.49618 1.11175 128.38701 306
90.37437 1.06263 128.38730 302
86.23199 0.87455 127.82143 483
86.23121 0.87216 128.14810 484
85.68708 0.85178 128.38600 290
91.50031 1.19990 127.88249 485
91.49841 1.19966 128.13043 486
91.49935 1.19892 128.37437 487
90.42822 1.15669 128.38608 302
86.26184 0.99376 127.81512 484
86.26144 0.99584 128.14749 484
85.74269 0.97277 128.38783 290
91.47495 1.28542 127.86246 485
91.47791 1.28680 128.11168 486
91.47587 1.28593 128.35576 487
90.48355 1.25407 128.38783 302
86.29568 1.11591 127.81086 484
86.29636 1.11590 128.14085 485
85.79722 1.09942 128.38748 290
91.45319 1.37502 127.84059 484
91.45334 1.37360 128.09120 485
91.45422 1.37405 128.33827 486
90.53678 1.34913 128.38606 302
86.38895 1.24004 127.81919 418
86.38996 1.23794 128.14870 419
85.85369 1.22245 128.38667 290
91.42859 1.46224 127.82104 484
91.42963 1.46064 128.07130 485
91.42957 1.46231 128.31995 486
90.59457 1.44623 128.38737 302
86.51050 1.36053 127.83528 419
86.51105 1.36068 128.16222 420
85.90956 1.34913 128.38472 290
91.40463 1.55060 127.80080 484
91.40449 1.55327 128.05066 485
91.40488 1.55157 128.30287 486
90.64870 1.54046 128.38799 302
86.63556 1.48360 127.84731 420
86.63405 1.48143 128.17215 421
85.96964 1.47083 128.38748 290
91.38000 1.64114 127.77765 483
91.38123 1.64091 128.03171 484
91.38165 1.64294 128.28229 485
90.70655 1.63646 128.38557 302
86.75211 1.60374 127.86032 421
86.75415 1.60362 128.18544 422
86.02809 1.59854 128.38791 290
91.35567 1.73344 127.75724 483
91.35734 1.73415 128.01019 484
91.35638 1.73285 128.26370 485
90.76424 1.73342 128.38722 302
86.87583 1.72264 127.87170 423
86.87606 1.72370 128.19662 423
86.08533 1.72374 128.38655 290
