# .PCD v.7 - Point Cloud Data file format
VERSION .7
FIELDS x y z rgb
SIZE 4 4 4 4
TYPE F F F U
COUNT 1 1 1 1
WIDTH 1002
HEIGHT 1
VIEWPOINT 5710.288086 -4070.982178 139.329926 -0.100930 -0.151554 -0.002790 0.983279
POINTS 1002
DATA ascii
-197.29376 1.27127 53.33491 324
-197.34625 3.09487 53.38517 324
-197.36264 4.83546 53.34311 324
-197.35947 6.68354 53.37437 324
-197.29936 8.48962 53.36848 324
-197.27615 10.31131 53.39309 324
-197.26038 12.12536 53.36076 324
-17004.98438 620.50903 3833.70752 1000
-63645.36328 9025.44336 6486.37598 1000
-295.97519 64.06632 39.78179 312
-274.79572 63.33858 37.95622 346
-290.93326 65.95738 40.68964 341
-272.79288 65.26744 38.44717 347
-288.99603 68.08840 41.02676 341
-256.29913 64.65890 36.21821 351
-270.84967 67.28188 38.79125 345
-290.31451 70.74930 40.61728 319
-254.40211 66.52953 36.64116 351
-270.62088 69.58351 38.76341 322
-252.59160 68.40608 36.97981 325
-272.57965 72.25807 38.12099 319
-254.46532 71.04893 36.43009 322
-276.89435 75.47871 36.95424 261
-2124.31274 1586.44348 86.83932 338
-2109.29785 1596.17834 87.17626 481
-2113.87427 1599.46936 131.95686 481
-1515.87207 1181.41040 33.87775 414
-1523.31189 1187.14514 66.35474 348
-1504.14868 1187.88574 34.29622 493
-1507.32373 1190.94043 66.58437 493
-1510.96155 1193.07092 99.46905 472
-1514.90149 1196.29883 132.05441 419
-1499.52991 1199.90881 34.08658 436
-1503.04626 1203.03918 66.48071 436
-1507.29700 1205.54968 99.14246 375
-935.55151 795.90674 25.17479 445
-940.38678 799.58411 46.47484 387
-927.49402 799.71887 25.85067 484
-929.89453 801.30865 46.83625 484
-932.98682 803.94232 67.77830 440
-936.46655 806.92871 89.05235 386
-922.74707 805.91376 25.75838 490
-924.39990 807.17505 46.74842 490
-926.35297 809.05353 68.08931 499
-927.86292 810.13086 89.31559 498
-932.34210 813.81201 110.44785 469
-920.85406 814.99304 25.12517 404
-922.70636 816.40594 46.67767 404
-925.67529 818.75250 67.62514 348
-927.70294 820.37769 89.16437 332
-4984.32178 4281.14844 566.38989 1000
-24307.62695 21614.22461 2262.87549 1000
-42945.24609 40046.70312 -5669.10205 1000
-3171.85889 15117.26758 -126.62372 460
-3147.56567 15022.81348 129.45010 465
-3067.04370 15093.23242 -124.79498 464
-3046.70679 15000.03516 129.21667 476
-2966.77075 15072.56055 -123.86220 469
-2949.45117 14982.45117 129.22586 481
-2865.67944 15058.97168 -122.91712 470
-2849.79590 14969.12695 128.00533 481
-2768.18799 15041.46582 -120.23938 470
-2753.22070 14955.02832 129.99281 482
-2669.76489 15024.55566 -119.31389 470
-2653.45312 14941.20020 128.95671 482
-2569.50732 15007.85547 -121.29218 471
-2555.51099 14926.33203 128.91231 483
-2473.94507 14992.87402 -121.96603 471
-2460.43457 14908.69629 130.08904 483
-2377.02148 14976.23926 -119.76062 472
-2363.87769 14892.98535 130.55887 484
-2280.02539 14961.98438 -117.29707 472
-2267.75659 14880.84375 128.50781 484
-2183.86816 14946.00977 -117.08518 473
-2170.02832 14865.52344 127.32524 485
-2087.59570 14931.26465 -120.15894 473
-2073.22607 14851.19043 128.21855 485
-1991.13867 14914.28711 -117.22614 474
-1980.04907 14836.05957 128.59818 485
-1895.81604 14900.34668 -118.41181 474
-1883.65259 14825.40820 129.76064 486
-1799.95386 14881.82520 -117.54204 475
-1789.77515 14809.69727 128.20126 486
-1703.82336 14870.74902 -117.49840 475
-1696.11841 14796.79688 128.72258 487
-1608.96851 14852.12988 -117.34653 475
-1602.88660 14778.54590 129.51320 487
-1515.07751 14837.77246 -114.10336 476
-1507.77173 14765.67188 126.73040 488
-1423.38171 14821.14551 -115.39157 476
-1415.24902 14752.13281 130.56427 488
-1329.18872 14809.92383 -115.37605 476
-1324.29395 14740.09473 127.05435 488
-1235.52209 14792.32324 -115.66254 477
-1228.32849 14724.65234 127.11364 489
-1142.36548 14777.95410 -112.70020 477
-1136.31445 14708.86523 129.04694 489
-1050.18982 14763.12988 -111.61634 477
-1046.14417 14697.94238 129.86508 489
-958.69312 14746.03711 -110.76678 478
-952.77173 14682.31445 128.18658 490
-864.88818 14731.11621 -113.94122 478
-861.98181 14667.27734 128.62091 490
-776.62457 14719.47461 -110.52979 478
-771.88843 14655.48730 127.23613 490
-684.31104 14703.26758 -109.81944 479
-680.46967 14639.29395 127.71770 491
-593.53821 14690.35547 -111.54416 479
-590.27222 14627.34082 130.93004 492
-505.49265 14763.38672 -354.82486 458
-500.38406 14671.90234 -111.67885 479
-497.98172 14614.88770 130.79657 492
-412.64182 14750.39648 -353.16809 458
-411.22412 14657.53906 -111.96210 480
-409.21411 14599.32422 130.46848 495
-321.48669 14732.97168 -355.37814 458
-317.78497 14643.42383 -109.63464 480
-317.21707 14589.01953 127.49612 495
-232.25798 14715.38770 -354.25171 477
-228.18202 14632.11035 -109.84962 480
-227.60176 14573.40820 127.87087 495
-139.40916 14702.20801 -350.79504 478
-136.88921 14613.68555 -111.60531 480
-137.84584 14561.84180 130.70212 496
-49.74178 14687.08203 -350.83484 478
-47.74300 14599.08496 -110.13867 481
-46.18163 14547.80664 128.96849 496
39.24048 14674.91016 -353.03662 478
40.49464 14587.17969 -110.54125 481
41.34993 14534.59082 129.75830 496
130.51494 14659.72949 -351.43909 478
129.77702 14570.81152 -110.44814 481
130.38843 14520.14746 129.62607 462
222.05157 14645.97266 -349.88135 478
222.77762 14556.20605 -108.88179 481
221.77350 14509.42773 129.52284 462
225.73198 15277.17578 378.80322 487
313.16187 14627.96191 -350.82620 479
309.54797 14542.71582 -107.46592 482
310.94202 14499.24707 130.43286 423
319.51434 15244.36719 380.73398 488
399.46555 14613.79297 -349.09784 479
398.48221 14530.78711 -110.34569 482
399.00177 14491.00488 130.60495 423
415.32486 15215.36816 377.26715 488
489.62186 14599.56738 -350.16000 479
489.04486 14516.83008 -109.18713 482
488.04163 14479.65723 129.35892 423
506.29315 15185.57031 378.76324 489
580.02454 14586.78418 -346.25009 479
577.00183 14499.68555 -107.73505 482
574.96967 14468.99023 129.43477 423
599.29889 15154.01172 376.60516 489
667.05359 14569.39941 -349.33640 479
664.28741 14487.50488 -109.76063 482
662.23456 14466.79688 128.89322 301
690.39862 15122.29688 378.66360 490
759.25006 14556.15332 -348.60840 480
753.90198 14471.84570 -107.69693 490
754.62183 14467.89746 127.49062 301
784.65057 15091.88281 377.15942 490
846.10760 14543.58301 -346.73291 480
843.47711 14460.54980 -106.78530 491
842.81549 14465.45312 128.74544 301
876.02283 15062.40527 375.62506 490
937.09741 14526.47949 -345.93860 480
930.29138 14445.11816 -106.11800 491
961.11578 14966.79199 129.20274 491
964.73669 15033.86133 375.18024 491
1024.85010 14511.70215 -347.60196 480
1021.10730 14432.08887 -106.13908 491
1052.76794 14935.58789 129.26750 498
1057.41504 15003.30859 374.62964 491
1113.11926 14498.83887 -345.27655 480
1106.45129 14417.73535 -107.18192 491
1142.96570 14921.67578 129.47978 498
1147.52686 14987.69434 374.52591 498
2826.09937 38775.85547 9188.50000 1000
1200.25378 14486.50000 -344.03122 480
1195.42932 14402.59668 -108.70170 491
1239.86707 14964.40332 128.74048 499
1240.47766 14973.54492 376.46951 498
1291.86194 14471.58203 -346.41742 480
1285.13025 14392.52734 -106.58869 491
1331.86987 14951.41406 131.24390 499
1332.68787 14958.22754 373.22086 499
1377.91626 14454.04980 -346.27094 481
1371.32092 14377.24805 -107.09382 491
1422.54468 14936.00781 131.48711 499
1420.38672 14942.58398 375.64859 499
1465.57996 14442.26367 -344.40103 481
1457.52490 14365.55664 -107.46420 491
1507.84607 14895.59570 128.57947 472
1511.76367 14931.24512 373.84213 499
1555.62769 14426.10449 -344.15527 481
1546.28992 14350.25684 -105.80749 491
1594.90125 14841.06348 130.76218 473
1604.03662 14916.80762 373.52264 499
1644.89966 14412.17773 -346.23178 482
1633.75757 14336.69141 -104.71948 492
1683.16003 14786.79395 127.74080 473
1693.79675 14903.12988 376.54440 499
1732.49194 14401.34570 -344.41153 482
1721.82898 14321.84277 -104.84157 492
1767.55920 14730.65918 129.71571 474
1786.10657 14887.57520 376.15826 499
1817.18481 14386.20703 -343.25671 482
1810.92590 14310.79297 -106.01511 492
1852.51257 14677.62305 130.46222 475
1863.89844 14768.55469 372.47134 498
1907.52222 14369.61816 -342.18881 482
1898.84863 14297.56934 -104.31522 492
1940.32092 14621.94629 128.19661 475
1957.49207 14757.24023 374.84976 497
1993.57629 14355.71777 -345.72946 483
1983.97607 14284.64062 -105.46787 492
2025.67700 14576.52734 128.47537 499
2045.29114 14743.34082 372.45703 497
2066.56421 14893.06250 620.75531 499
2081.36865 14341.21680 -345.55585 483
2074.81665 14268.19629 -104.20420 492
2114.87451 14564.47461 131.24171 499
2135.47339 14729.90234 373.79340 497
2159.67505 14880.33496 619.59644 499
2183.82202 15054.81152 874.54272 474
2169.13281 14327.88281 -344.79501 483
2161.20654 14257.45898 -107.09063 492
2164.07812 14286.56152 129.49059 431
2228.78223 14714.62402 372.78394 493
2248.43262 14863.91797 620.56689 499
2267.72803 14999.33398 873.23419 474
2257.41748 14313.85449 -343.36307 483
2249.71387 14241.60645 -104.73470 492
2251.36646 14272.62793 130.66093 431
2323.51440 14737.47070 374.90665 372
2339.45435 14852.29688 622.88751 499
2380.29541 15112.77344 881.15314 316
2347.02539 14301.15137 -343.77087 483
2334.67236 14228.35938 -107.59095 492
2340.37891 14257.89648 130.90050 432
2418.65527 14765.88379 372.85861 458
2421.25439 14776.05273 620.75116 457
2436.32129 14862.98730 868.58765 364
2434.01611 14284.73242 -342.12216 483
2422.33374 14216.96875 -105.27744 492
2426.34131 14241.34375 130.45299 432
2501.48511 14692.23438 373.98868 459
2501.28784 14703.91992 619.64178 458
2518.64575 14786.33496 864.80048 365
2521.10181 14271.57617 -341.95871 483
2508.96509 14203.18652 -106.31960 492
2514.05664 14230.36133 128.32796 438
2583.57422 14618.32715 374.69034 459
2583.45850 14628.89648 616.83893 459
2597.76172 14707.40332 864.10297 365
2609.19092 14256.01855 -344.04919 483
2596.75586 14190.59180 -104.90690 492
2602.92432 14219.03809 130.07039 387
2661.10596 14545.62500 372.45084 460
2661.87207 14557.31836 612.56830 460
2678.37622 14634.12012 860.57227 366
2697.45288 14244.19727 -345.09720 483
2685.34448 14174.64648 -104.64957 492
2693.56323 14212.21680 128.35912 387
2751.08911 14519.25586 371.34344 499
2748.30957 14527.58887 612.12689 499
2759.96680 14587.91016 860.48401 390
2791.00513 14740.52930 1113.32422 453
2901.29980 15339.63379 1407.51721 483
2903.58569 15357.99219 1667.45813 311
2788.06274 14229.36035 -344.56824 483
2772.05762 14163.34961 -105.79125 492
2826.87695 14452.73340 132.31409 499
2833.31323 14476.78418 370.21289 499
2837.59937 14505.31836 611.81970 284
2851.10254 14577.91992 860.80243 390
2905.03320 14861.24512 1119.74854 485
2874.47974 14216.17871 -345.41458 482
2863.04028 14147.87695 -103.93700 492
2916.03271 14436.45703 131.04907 499
2921.06982 14462.53027 370.72144 499
2922.14575 14467.61328 613.66815 499
2941.52588 14567.70020 859.69287 390
2996.65845 14851.27930 1122.57996 485
2961.40698 14202.27930 -342.77109 482
2949.13501 14133.92480 -104.64538 495
3005.91943 14422.84863 132.29294 499
3012.83569 14447.56641 370.60025 499
3013.28833 14452.41504 614.18365 499
3035.70386 14558.00781 859.17480 390
3088.45288 14836.51074 1121.00366 485
3048.59229 14187.80566 -344.49313 482
3036.80713 14124.00488 -106.60645 495
3094.99683 14409.97754 132.09557 499
3103.78296 14434.12793 373.21765 499
3105.24927 14440.05273 613.64478 499
3127.13013 14546.98438 862.46423 390
3173.28003 14769.53613 1120.43408 472
3136.86304 14172.15723 -345.68649 482
3125.73975 14110.17188 -103.78780 495
3187.84229 14394.22949 128.88593 499
3189.80737 14419.19824 370.02359 499
3192.27661 14426.17090 614.95862 499
3216.67529 14539.29102 860.33496 390
3273.26880 14808.45312 1122.27942 485
3225.62256 14158.24609 -344.18842 482
3210.69409 14097.70605 -104.94971 494
3274.08374 14381.01562 132.10698 499
3283.25903 14406.41797 372.47641 499
3282.41406 14414.41504 611.88226 499
3306.48486 14527.44238 861.32770 390
3367.81763 14797.50586 1121.49292 485
3315.94409 14144.53906 -344.95108 482
3301.15820 14083.54785 -105.87267 494
3366.58838 14366.76758 128.47459 499
3371.69824 14392.83984 371.98788 499
3371.50391 14398.81152 613.38776 498
3400.77734 14520.57520 861.59583 390
3461.52783 14783.66309 1125.03809 485
3404.01440 14133.72754 -345.02374 482
3389.00220 14069.98242 -107.82476 494
3456.93433 14351.42676 130.41881 499
3462.32568 14376.88477 373.73706 499
3461.37305 14384.13086 616.20520 498
3491.83203 14507.98340 862.25922 390
3493.59058 14116.80957 -344.43878 482
3474.73779 14057.89648 -106.51586 494
3546.78711 14338.05078 130.41455 499
3552.87793 14365.14355 370.78064 498
3553.05615 14368.93945 613.96423 498
3585.36108 14498.32617 861.92865 390
3578.96606 14104.18848 -343.22980 482
3567.15405 14042.31055 -105.48980 494
3635.47437 14322.91895 130.26244 499
3649.53467 14380.25879 373.90909 498
3650.97314 14387.28418 613.88397 498
3676.77173 14489.60254 864.85248 389
3669.02222 14090.21680 -346.09741 482
3653.02026 14030.52344 -107.89164 494
3738.21558 14356.80371 132.37669 498
3737.60791 14365.62109 372.73337 498
3741.03857 14373.38574 615.17615 498
3766.71387 14480.92383 865.32776 389
3755.44067 14074.64453 -346.30582 482
3740.32422 14016.47070 -104.81699 494
3827.09204 14343.70508 129.47481 498
3798.42285 14228.94824 372.72049 422
3788.11768 14189.01367 612.48816 388
3858.71533 14467.94727 865.18903 389
3848.75000 14059.52734 -343.83707 481
3831.02319 14004.56836 -106.88276 494
3918.77832 14328.96387 131.10487 498
3920.01538 14334.55469 373.19156 498
3922.71851 14345.44727 618.54108 498
3954.80103 14458.88086 865.85663 389
3934.73853 14046.36328 -345.13943 481
3919.41992 13991.37012 -106.96421 493
4008.90503 14313.41211 130.53664 498
4010.99219 14323.73242 375.15063 498
4012.02588 14327.42578 615.49597 497
4044.83228 14448.35547 868.43140 380
4022.50977 14033.56836 -344.48694 481
4008.73975 13974.79785 -107.73103 493
4100.74756 14300.67090 129.92917 498
4099.68604 14305.28711 374.54617 497
4103.51660 14314.67871 615.38373 497
4136.16992 14440.54102 866.84082 380
4114.72168 14016.89844 -344.68109 481
4095.92871 13962.92773 -106.35805 493
4199.30664 14318.47266 132.15407 468
4203.44189 14330.13867 372.99640 443
4202.94189 14332.20508 618.08282 443
4252.69727 14503.45801 871.98663 350
4204.10645 14003.26660 -345.01218 481
4184.76953 13948.40918 -107.89037 493
4300.23828 14338.68066 132.40158 467
4310.36670 14375.31250 374.61932 442
4311.93799 14375.91211 621.33765 442
4378.48193 14596.63574 879.79175 440
4291.58887 13990.52344 -345.52295 481
4277.44336 13934.29297 -105.49747 495
4400.78906 14358.77051 128.84294 467
4419.52148 14414.46484 376.07877 466
4422.43359 14425.94629 625.90186 441
4380.75830 13975.62305 -346.24841 480
4366.90088 13925.04980 -109.54601 495
4505.41064 14375.98730 130.31294 466
4520.99268 14435.50879 377.99619 465
4536.61914 14471.30273 625.29077 440
4471.93994 13961.51660 -346.94125 480
4453.89648 13909.26562 -105.57652 495
4608.24512 14395.71973 132.08177 465
4624.45459 14453.05371 379.02905 464
4563.26172 13946.74609 -350.66229 480
4543.21533 13896.35449 -106.49454 494
4711.60498 14417.14062 130.98070 464
4729.29297 14472.20703 380.01138 464
4653.03564 13932.79102 -350.73633 480
4634.68311 13884.94824 -109.61733 494
4814.77588 14435.44922 132.23756 464
4739.66406 13919.77734 -349.22653 487
4726.54590 13870.58301 -108.15707 494
4919.67188 14459.95996 130.37656 442
4830.74316 13905.82617 -350.43546 487
4817.40430 13858.89062 -109.66247 494
4924.99316 13892.33398 -352.10367 487
4905.46582 13844.86719 -110.39919 493
5015.17432 13879.45508 -350.17355 486
4998.40723 13832.26465 -108.42659 493
5106.98926 13865.15137 -353.07111 486
5090.08447 13816.39844 -109.96037 493
5196.77490 13848.33496 -352.47964 486
5180.87695 13804.62012 -109.38776 492
5287.54785 13835.12988 -353.38049 486
5269.46484 13791.09375 -109.54189 492
5382.59473 13823.73047 -352.83691 485
5361.43018 13775.78906 -108.19646 492
5475.18555 13809.12207 -351.85629 485
5455.03369 13763.27930 -112.20940 491
5566.44580 13795.82324 -355.46344 485
5549.69678 13749.71582 -109.67083 491
5658.49805 13779.55957 -355.54446 484
5639.65332 13736.89551 -112.13632 491
5752.99609 13765.67969 -354.73398 484
5734.64941 13721.23242 -111.00813 490
5844.52881 13751.81152 -357.27094 484
5824.70801 13708.34473 -110.43404 490
5936.88818 13735.78711 -358.36563 483
5921.26660 13693.33008 -111.86674 490
6032.74756 13722.99414 -356.67047 483
6013.62012 13679.25879 -111.27433 489
6126.15430 13710.60547 -360.45584 482
6109.38965 13667.42773 -113.27874 489
6256.66992 13770.14453 -610.44800 472
6218.74170 13695.48535 -358.93924 482
6204.42480 13652.06934 -114.17205 488
6351.48682 13755.59180 -611.99316 471
6317.15625 13683.27734 -359.37000 482
6297.84619 13639.83984 -112.84833 488
6443.70850 13740.54590 -612.32867 471
6408.53467 13667.74121 -362.59467 481
6390.02295 13624.53125 -115.19450 487
6541.64697 13726.95410 -614.33447 470
6506.40088 13650.63867 -360.16998 481
6486.49121 13610.58887 -113.75904 487
6638.89355 13711.23340 -613.95203 470
6600.53613 13636.00879 -363.96777 480
6584.97070 13595.76660 -113.53082 487
27165.15625 56690.16406 5281.31445 1000
6735.95215 13698.44922 -616.33154 470
6699.75879 13622.68457 -365.77121 480
6679.26172 13583.78125 -113.58790 486
6831.47217 13681.49609 -618.46124 469
6795.99854 13608.84375 -365.59540 479
6776.41602 13568.30371 -115.99684 486
6930.50830 13667.16211 -618.57355 469
6890.21631 13594.18555 -366.63690 479
6873.02783 13553.58203 -117.58325 485
7026.13965 13651.58105 -621.05029 468
6988.97217 13578.54492 -368.68536 479
6971.52637 13542.95508 -115.06824 485
7122.49854 13633.70605 -622.77155 468
7087.00879 13563.51367 -367.98764 478
7068.20703 13528.98145 -116.30477 370
7222.62598 13619.41504 -623.67554 467
7183.28174 13550.48730 -369.80862 478
7169.81689 13520.19336 -117.00718 369
7321.87451 13606.19531 -625.43219 467
7285.48975 13533.16504 -370.94656 477
7271.13232 13511.15137 -117.04321 369
7422.55127 13592.42188 -628.17975 467
7382.79102 13520.33887 -372.19449 477
7375.08545 13500.37988 -120.29695 369
7521.36572 13573.33496 -630.13922 466
7483.98828 13505.73145 -371.27484 476
7474.23926 13490.87207 -117.50219 369
7622.28027 13557.49902 -629.81830 466
7584.32861 13488.85840 -370.91229 476
7575.17432 13475.65039 -118.72679 434
7727.92432 13554.91602 -633.90887 451
7684.61133 13473.25293 -376.13562 475
7675.84912 13460.99902 -121.64745 433
7837.32617 13552.62305 -636.12347 450
7782.58838 13461.17773 -376.11392 475
7774.17725 13442.03809 -122.21890 433
7945.34668 13547.65039 -638.79132 451
7889.15967 13455.39844 -378.23642 451
7875.49414 13428.60352 -120.03730 432
7979.75098 13587.26367 -641.91815 451
7924.65771 13493.25098 -380.43817 451
7905.44678 13456.82129 -125.31026 400
8092.78369 13585.20898 -642.70331 450
8036.19824 13491.87598 -379.93088 450
8014.09473 13453.77441 -122.68117 399
8204.69238 13582.10645 -648.61353 449
8150.25049 13492.13867 -382.27148 449
8124.38135 13446.30762 -127.54901 399
8317.66406 13585.60742 -650.04474 404
8261.97754 13492.59473 -387.80753 448
8231.68945 13442.86816 -127.67649 398
8449.95410 13612.21094 -654.35455 403
8375.60742 13488.73242 -387.33765 449
8343.09863 13434.92871 -125.03136 398
8592.98047 13651.86133 -658.70654 381
8488.37695 13486.66016 -388.58337 448
8460.33594 13440.01367 -127.44004 322
8733.75098 13695.13770 -663.09204 380
8606.18555 13491.38770 -393.09354 403
8583.90723 13454.21582 -129.91713 321
8878.60840 13738.66797 -668.68152 379
8739.05371 13515.92676 -396.75043 403
8708.90039 13471.53418 -130.18317 321
9048.46875 13811.34082 -679.26459 285
8875.16797 13546.21582 -397.58594 402
9012.72070 13573.40430 -403.02509 401
9158.24219 13608.07324 -403.85672 379
9313.80273 13661.70898 -410.59497 351
9487.85938 13736.36328 -412.87378 350
9828.27637 14231.09570 -151.64023 410
9911.96777 14163.90820 -152.17618 410
40289.98047 47249.77344 -7012.52832 1000
1913.03455 1288.95520 -88.39780 497
1919.05054 1293.29688 -51.70982 472
1923.66223 1279.34314 -88.91879 416
1932.85132 1285.87512 -52.36208 332
32188.86328 18437.88281 -5364.99658 1000
3415.29370 262.30084 -86.73600 435
3402.24731 241.12965 -86.04510 471
3438.48242 222.56590 -143.74539 431
3393.29761 219.38614 -85.52746 472
3426.39600 200.87849 -142.30931 432
3385.73462 198.84610 -84.40118 458
3409.31665 179.31490 -140.81992 415
3379.58203 178.48367 -84.05183 462
3400.65063 159.14494 -140.49106 477
3375.53296 157.87665 -84.19578 462
3394.30249 137.67349 -139.37479 478
3371.13623 137.37120 -83.56431 461
3387.72437 117.31410 -139.26665 489
3367.95142 116.67463 -83.56153 464
3384.84521 97.20587 -138.56940 489
3365.88696 96.89897 -82.93764 392
3381.29126 76.72575 -138.39012 490
3365.45093 76.75424 -83.18449 392
3364.48364 56.24714 -82.60898 390
3364.12427 36.44292 -82.86317 391
67772.03906 731.30408 1231.22131 1000
3374.53906 16.12154 -137.89665 333
3363.92749 15.79830 -83.23779 391
3370.44141 -3.84634 -136.93649 333
3363.85840 -3.94408 -82.94453 391
3422.49219 -4.41870 -31.93130 330
3366.58667 -24.06498 -136.44853 334
3363.38501 -24.32113 -82.92879 391
3363.92944 -44.75343 -136.82309 334
3366.01221 -44.64468 -82.76711 297
3363.64380 -65.18610 -136.79710 334
3361.81714 -64.61160 -82.39507 429
3363.56201 -84.92838 -137.06088 334
3364.00146 -85.15968 -82.80038 429
3363.32959 -104.70512 -136.35741 334
3366.93311 -105.25726 -83.28918 418
3364.68726 -125.16138 -136.46561 335
3373.16504 -125.50663 -83.52559 295
3366.67090 -145.49515 -137.11411 333
3371.93799 -145.40239 -83.92249 296
3371.12402 -166.15927 -137.80429 333
3370.22314 -166.17342 -83.46233 296
3513.85278 -173.52803 -36.11435 342
3375.46338 -186.26965 -138.23862 332
3368.79810 -186.27704 -83.41973 427
3517.77588 -194.18190 19.36939 496
3528.77344 -194.97472 75.16657 407
3529.09375 -195.56444 131.65955 496
3371.47046 -206.45978 -83.47266 389
3372.02466 -227.09862 -83.56149 389
3372.95703 -247.15530 -84.14287 389
3554.79956 -260.89236 -38.46135 496
3373.52197 -267.07095 -83.65025 389
3462.51660 -274.94492 -34.24623 495
3374.74390 -288.14099 -84.35426 389
3375.29834 -308.23911 -84.39602 388
3376.31348 -328.67798 -84.62848 388
3583.66968 -349.51187 16.75546 494
3572.25879 -348.29025 74.47274 415
3377.31860 -349.56177 -85.18682 462
3473.12451 -359.49860 76.65133 494
3477.46167 -360.10764 131.96143 416
3378.87842 -369.87277 -85.19843 461
3379.99438 -391.09778 -85.64634 461
8267.52930 -971.89038 1352.95740 1000
3381.73804 -411.36862 -85.10902 461
3382.86426 -432.00800 -85.73711 461
3384.70215 -453.38965 -86.43748 460
3386.01782 -473.83026 -86.27037 460
3387.47632 -495.03949 -87.01611 460
3389.43140 -515.32892 -86.59128 459
3390.34082 -536.90363 -87.39790 459
3392.05298 -557.73431 -87.54627 459
3393.47949 -579.64062 -88.08407 458
3395.34521 -600.08936 -88.43873 487
3404.46875 -623.72620 -89.43530 429
3414.50024 -645.87866 -90.21368 429
3424.83423 -669.48224 -90.69474 428
15910.12695 -4204.66992 -405.20923 1000
11926.18262 -5367.90430 -1148.65918 1000
2590.02979 -1443.56689 -56.77403 390
2598.38281 -1448.32825 -10.08862 319
2576.21411 -1455.67688 -57.00246 488
2585.81128 -1461.60376 -10.02340 408
4019.38794 -4048.47241 -52.14415 304
3997.69116 -4076.36230 -52.62873 432
4158.12402 -4243.88379 35.96257 443
3989.45435 -4117.56201 -54.33881 420
4117.13379 -4251.67432 35.41014 444
3980.90186 -4159.07031 -54.40531 412
4075.42017 -4260.65332 35.77386 445
3974.22705 -4204.04443 -55.42352 402
4034.60449 -4268.46826 36.33647 446
3970.49341 -4251.35986 -55.74160 392
3992.66284 -4277.42871 37.41376 446
3969.79883 -4304.94971 -56.84334 376
3964.05225 -4297.98096 38.18829 484
3963.91577 -4350.21826 36.99564 375
4014.65381 -4574.16455 34.24632 367
4044.83936 -4668.79639 32.53582 413
2742.21118 -3371.96973 -8.88361 453
2727.22583 -3395.98291 -8.41907 322
2619.69751 -4521.70410 44.00161 317
2688.09863 -5481.65381 128.53616 410
2646.13647 -5482.24805 127.63136 387
2636.49829 -5547.38232 27.89403 383
2606.76978 -5482.20264 128.30099 340
2589.68091 -5537.56348 29.54316 394
2567.24170 -5486.65820 128.00026 344
2545.41235 -5527.30908 29.53977 449
2537.98071 -5510.37988 128.47720 263
2568.51929 -5676.17334 128.46262 499
2454.75220 -5504.53174 128.54405 472
2413.67285 -5501.90527 128.96803 473
2408.47339 -5491.04248 226.80827 492
2373.49072 -5502.13672 128.33734 495
2372.38403 -5500.58936 225.39880 495
2337.33960 -5508.31641 128.19521 495
2336.33154 -5506.19678 226.31868 495
2297.54199 -5510.64404 128.24521 495
2297.26196 -5508.64941 225.38115 492
2301.96387 -5518.06592 323.16580 459
2261.93237 -5517.99121 128.51678 496
2261.24634 -5517.30371 225.70593 496
2224.96143 -5524.16016 127.78848 496
2224.59839 -5523.77637 225.69794 496
2188.56055 -5532.26172 128.68550 496
2191.50024 -5536.59961 224.80969 496
2154.56055 -5543.78711 128.11496 496
2154.71948 -5543.43604 225.88591 496
2119.61108 -5552.37109 127.76227 497
2118.17188 -5549.67139 225.12602 497
2112.43774 -5638.05127 128.83676 497
2117.24072 -5655.14600 227.54260 300
2106.38647 -5626.25342 324.09290 418
2130.34473 -5803.94727 129.12401 497
2072.55273 -5640.89941 324.76920 490
2008.71814 -5566.53857 128.97389 274
2058.90747 -5709.43311 325.86221 467
2056.07739 -5819.61133 128.10934 497
1859.62280 -5574.29541 127.90221 395
1823.89624 -5578.54834 129.12917 395
1787.46521 -5584.61719 128.37242 395
1752.17310 -5590.04590 128.45505 395
1741.78674 -5681.43066 129.37086 478
1701.89209 -5675.39941 128.06743 477
1667.76172 -5687.62793 129.13130 492
1016.38422 -4500.69043 129.83102 451
656.19330 -3504.07812 130.68491 283
610.79272 -3353.00024 129.98729 284
575.65186 -3260.69043 130.45700 339
554.53558 -3252.01978 76.49815 324
549.27802 -3218.55566 130.14267 354
528.66760 -3210.63110 77.47356 332
524.71155 -3183.24854 130.59142 362
503.90988 -3176.14062 77.91770 344
501.26077 -3155.63062 130.78723 394
480.77823 -3148.33447 78.96122 359
478.34564 -3133.91479 130.22029 388
457.88846 -3124.97363 79.39355 367
456.21329 -3112.37061 130.55249 395
436.05276 -3101.90161 79.51695 368
435.29004 -3092.68335 130.12755 382
414.65112 -3078.13257 79.93972 374
414.31851 -3074.40405 130.83542 373
435.82880 -3284.61523 184.89920 473
395.07181 -3077.92114 79.58260 301
392.93063 -3057.98315 130.69298 400
415.80200 -3289.64673 184.19638 471
376.93985 -3089.92480 79.92517 301
374.75735 -3058.92261 130.76122 322
396.58569 -3295.39062 184.63893 473
360.52191 -3115.11597 78.98007 294
358.77609 -3100.03223 130.99727 336
376.51758 -3300.90698 184.85515 472
349.51123 -3217.06836 77.65970 275
344.32483 -3157.40234 130.37086 315
357.04337 -3308.30859 184.57016 375
331.21725 -3239.46704 130.68672 288
1000.21204 -49769.46094 1736.45435 1000
-11086.61621 -29426.87500 -4548.10742 1000
-9427.47363 -25062.64062 -754.34900 1000
-535.30701 -1161.15063 110.24260 377
-534.58862 -1159.49731 131.69658 377
-533.69354 -1158.04175 153.22943 377
-533.01355 -1156.47937 174.92538 437
-532.33307 -1155.20410 196.45732 437
-531.55469 -1153.89417 218.14120 437
-530.89923 -1152.79968 239.48741 479
-530.47797 -1151.54614 261.15768 479
-529.92908 -1150.71252 282.65094 479
-541.99811 -1155.70239 66.74818 492
-541.40808 -1154.90173 88.65672 492
-540.74847 -1154.01953 110.21567 493
-540.48505 -1153.48315 131.62415 463
-540.27112 -1152.54797 153.26204 464
-539.69440 -1152.11304 174.96204 464
-539.39008 -1151.47461 196.29834 413
-539.19073 -1150.96240 217.88123 413
-538.91217 -1150.36414 239.66785 413
-538.66791 -1149.79822 261.10312 347
-538.55286 -1149.80542 283.12921 346
-22872.75391 -39272.26562 -8929.50781 1000
-951.95850 -1743.40662 98.39456 482
-950.80615 -1741.99133 131.40059 499
-949.98987 -1740.14551 164.76675 499
-949.22302 -1739.09827 198.08102 499
-948.02838 -1737.08508 231.26846 491
-947.51031 -1735.99500 264.32605 491
-946.54541 -1734.60730 297.97757 491
-1346.99475 -2335.57593 176.26091 387
-1345.02771 -2331.83740 221.51871 388
-1343.28003 -2329.02930 266.28226 445
-1341.60229 -2326.39087 310.89264 484
90.09306 -3.01444 128.25613 360
89.67126 -3.14872 128.38792 310
90.20358 -2.90465 128.27724 361
89.70294 -3.06243 128.38722 310
88.68997 -3.37976 128.38608 306
90.31102 -2.79679 128.30028 363
89.73262 -2.97319 128.38773 310
88.71857 -3.28427 128.38495 306
90.41653 -2.69194 128.32013 364
89.76057 -2.88712 128.38565 310
88.74677 -3.19177 128.38593 306
90.52028 -2.58712 128.34039 365
89.79147 -2.80109 128.38536 310
88.77545 -3.09825 128.38506 306
90.62305 -2.48460 128.36145 367
89.82316 -2.71354 128.38742 310
88.80470 -3.00550 128.38535 306
90.72613 -2.38354 128.38025 368
89.85599 -2.62530 128.38721 310
88.83710 -2.91230 128.38759 306
87.66142 -3.23834 128.38795 302
90.78541 -2.29386 128.38751 314
89.88902 -2.53879 128.38783 310
88.86711 -2.81818 128.38808 306
87.69254 -3.13887 128.38736 302
90.81914 -2.21086 128.38760 314
89.92090 -2.45051 128.38699 310
88.89915 -2.72253 128.38795 306
87.72221 -3.03612 128.38628 302
90.85261 -2.12998 128.38644 314
89.95540 -2.36420 128.38530 310
88.93158 -2.62817 128.38608 306
87.75345 -2.93549 128.38660 302
90.88845 -2.04604 128.38556 314
89.98981 -2.27432 128.38550 310
88.96212 -2.53385 128.38625 306
87.78438 -2.83560 128.38591 302
90.92367 -1.96627 128.38554 314
90.02428 -2.18729 128.38730 310
88.99825 -2.43925 128.38748 306
87.81470 -2.73361 128.38660 302
90.96027 -1.88376 128.38698 314
90.05825 -2.09886 128.38606 310
89.03246 -2.34753 128.38757 306
87.84685 -2.63061 128.38568 302
86.47214 -2.95971 128.38742 298
90.99609 -1.80133 128.38640 314
90.09338 -2.01228 128.38535 310
89.06660 -2.25161 128.38687 306
87.88018 -2.52998 128.38507 302
86.50276 -2.85244 128.38698 298
91.03406 -1.71849 128.38557 314
90.13145 -1.92286 128.38536 310
89.09969 -2.15660 128.38634 306
87.91439 -2.42745 128.38692 302
86.53474 -2.74141 128.38618 298
91.07101 -1.63567 128.38765 314
90.16805 -1.83459 128.38542 310
88.17700 -2.27556 128.15762 362
87.95134 -2.32522 128.38747 302
86.57056 -2.63087 128.38666 298
91.11070 -1.55205 128.38734 314
90.20493 -1.74764 128.38609 310
87.98357 -2.22488 128.10196 360
87.98366 -2.22351 128.38614 361
86.60192 -2.52080 128.38507 298
91.14911 -1.47183 128.38623 314
90.24149 -1.65889 128.38617 310
87.78593 -2.16991 128.04700 359
87.78455 -2.16992 128.33517 359
86.63851 -2.40914 128.38498 298
91.18839 -1.38762 128.38531 314
90.28094 -1.57072 128.38620 310
87.58148 -2.11473 127.99098 358
87.58108 -2.11707 128.28061 358
86.67310 -2.29908 128.38588 298
91.22676 -1.30520 128.38631 314
90.31906 -1.48156 128.38745 310
87.36945 -2.06044 127.93073 356
87.37056 -2.05741 128.22612 357
86.70643 -2.19013 128.38600 298
91.26750 -1.22350 128.38550 314
90.36005 -1.39392 128.38583 310
87.15260 -2.00191 127.87057 355
87.15140 -2.00189 128.17258 355
86.74602 -2.07696 128.38794 298
91.30859 -1.14055 128.38731 314
90.39812 -1.30508 128.38722 310
87.06664 -1.91606 127.84330 450
87.06561 -1.91330 128.14252 451
86.78310 -1.96787 128.38795 298
91.34956 -1.05718 128.38744 314
90.43918 -1.21668 128.38765 310
86.97955 -1.82742 127.81225 449
86.97951 -1.82637 128.11671 450
86.81998 -1.85422 128.38518 298
91.39121 -0.97550 128.38785 314
90.48119 -1.13064 128.38559 310
86.91146 -1.73730 127.78590 306
86.89156 -1.73951 128.08800 449
86.85682 -1.74589 128.38676 298
91.43468 -0.89295 128.38611 314
90.52190 -1.04204 128.38763 310
86.94751 -1.62668 127.78761 306
86.80078 -1.65089 128.05980 448
86.80014 -1.64999 128.36650 449
91.47739 -0.80789 128.38544 314
90.56425 -0.95270 128.38634 310
86.98676 -1.51527 127.78844 306
86.70813 -1.55897 128.03256 447
86.71056 -1.55806 128.34241 448
85.29306 -1.78037 128.38626 294
91.51913 -0.72741 128.38603 314
90.60754 -0.86433 128.38615 310
87.02793 -1.40559 127.78710 306
86.61685 -1.46470 128.00520 446
86.61607 -1.46734 128.31487 447
85.33646 -1.66016 128.38655 294
91.56499 -0.64388 128.38582 314
90.65076 -0.77425 128.38702 310
87.06612 -1.29211 127.78730 306
86.52432 -1.37061 127.97263 445
86.52293 -1.37098 128.28697 446
85.37365 -1.53742 128.38680 294
91.60684 -0.55961 128.38699 314
90.69408 -0.68686 128.38788 310
87.10730 -1.18453 127.78691 306
86.42675 -1.27579 127.94340 444
86.42751 -1.27775 128.25807 445
85.41506 -1.41594 128.38533 294
91.65302 -0.47770 128.38553 314
90.73857 -0.59825 128.38582 310
87.14998 -1.07298 127.78819 306
86.33133 -1.18004 127.91533 443
86.33079 -1.18117 128.23212 444
85.45605 -1.29418 128.38686 294
91.69810 -0.39595 128.38748 314
90.78342 -0.50873 128.38782 310
87.19198 -0.96230 127.78663 306
86.28551 -1.07740 127.89337 492
86.28448 -1.07564 128.21550 492
85.50272 -1.17593 128.38785 294
91.73738 -0.31242 128.38475 474
90.82804 -0.42074 128.38605 310
87.23398 -0.84968 127.78801 306
86.25644 -0.96945 127.87743 491
86.25383 -0.96923 128.20042 492
85.54390 -1.05494 128.38490 294
91.75782 -0.23334 128.37886 474
90.87461 -0.33340 128.38661 310
87.28080 -0.73889 127.78670 306
86.22633 -0.86117 127.86414 491
86.22784 -0.86081 128.18285 492
85.58843 -0.93183 128.38467 294
91.78065 -0.15192 128.37202 475
90.92285 -0.24351 128.38602 310
87.32491 -0.63085 127.78696 306
86.19658 -0.75110 127.84629 491
86.19576 -0.75031 128.16931 492
85.63140 -0.81037 128.38718 294
91.80103 -0.07221 128.36534 475
90.96912 -0.15455 128.38649 310
87.37029 -0.51844 127.78613 306
86.16825 -0.63977 127.83057 491
86.16881 -0.63785 128.15538 492
85.67624 -0.69000 128.38634 294
91.81852 0.00796 128.35683 488
91.01694 -0.06712 128.38647 310
87.41502 -0.40952 127.78788 306
86.13818 -0.52838 127.81470 490
86.13772 -0.52995 128.13968 491
85.72517 -0.56750 128.38608 294
91.79901 0.08531 128.33740 487
91.06454 0.02031 128.38557 310
87.46136 -0.29831 127.78738 306
86.10875 -0.41620 127.79865 490
86.10637 -0.41823 128.12260 491
85.76964 -0.44691 128.38553 294
91.77670 0.16384 128.31944 487
91.11398 0.11109 128.38626 310
87.50845 -0.18780 127.78822 306
86.10272 -0.30171 127.78616 302
86.07767 -0.30456 128.10849 491
85.81776 -0.32723 128.38470 294
91.75582 0.24443 128.30019 487
91.16308 0.19890 128.38655 310
87.55753 -0.07473 127.78937 306
86.14978 -0.18326 127.78617 302
86.04606 -0.19244 128.09438 490
85.86578 -0.20338 128.38519 294
91.73463 0.32356 128.28081 487
91.21268 0.28585 128.38765 310
87.60529 0.03376 127.78796 306
86.20056 -0.06257 127.78918 302
86.01630 -0.07467 128.07747 490
85.91856 -0.08149 128.38496 294
91.71344 0.40545 128.26080 486
91.26205 0.37644 128.38635 310
87.65540 0.14560 127.78917 306
86.24951 0.05779 127.78787 302
86.00625 0.03932 128.06732 482
85.96786 0.03658 128.38452 294
91.69031 0.48588 128.24307 486
91.31348 0.46362 128.38718 310
87.70204 0.25649 127.78769 306
86.29862 0.17508 127.78561 302
86.03959 0.15896 128.06284 482
86.01947 0.15916 128.38815 294
91.66876 0.56725 128.22260 486
91.36551 0.55116 128.38531 310
87.75471 0.36797 127.78619 306
86.35030 0.29280 127.78566 302
86.07293 0.27917 128.05714 483
86.06992 0.28116 128.38525 294
91.64748 0.65157 128.20280 485
91.41640 0.63958 128.38669 310
87.80547 0.47765 127.78676 306
86.40156 0.41337 127.78719 302
86.10429 0.39986 128.05589 483
86.10451 0.39973 128.38515 484
91.62263 0.73535 128.18275 485
91.46825 0.72864 128.38661 310
87.85831 0.58618 127.78654 306
86.45120 0.53174 127.78930 302
86.13600 0.52227 128.04939 484
86.13308 0.52056 128.37930 484
91.60118 0.81962 128.16251 485
91.52056 0.81590 128.38655 310
90.47675 0.78274 128.38606 306
86.50211 0.65272 127.78696 302
86.16638 0.64046 128.04803 484
86.16850 0.64291 128.37381 485
91.57693 0.90633 128.14154 484
91.57431 0.90581 128.38634 310
90.52988 0.87707 128.38579 306
86.55807 0.77247 127.78780 302
86.20002 0.76246 128.04240 485
86.20111 0.76093 128.37041 485
91.55522 0.99122 128.12215 484
91.55537 0.99092 128.36868 485
90.58464 0.97051 128.38687 306
86.61311 0.88831 127.78596 302
86.23125 0.88346 128.03908 485
86.23361 0.88048 128.36688 486
91.53170 1.07814 128.10007 484
91.53165 1.07979 128.34869 485
90.64094 1.06594 128.38605 306
86.66620 1.00978 127.78658 302
86.26386 1.00208 128.03374 485
86.26436 1.00096 128.36368 486
91.50890 1.16822 128.07961 483
91.50880 1.16737 128.32854 484
90.69679 1.16207 128.38554 306
86.72054 1.12918 127.78851 302
86.29867 1.12607 128.02861 486
86.29826 1.12359 128.36049 487
91.48325 1.25737 128.05928 483
91.48460 1.25814 128.30913 484
90.75105 1.25531 128.38702 306
86.77865 1.24572 127.78603 302
86.39540 1.24592 128.03737 423
86.39543 1.24636 128.36748 423
