# .PCD v.7 - Point Cloud Data file format
VERSION .7
FIELDS x y z rgb
SIZE 4 4 4 4
TYPE F F F U
COUNT 1 1 1 1
WIDTH 1018
HEIGHT 1
VIEWPOINT 6124.755371 -3910.602295 134.180435 -0.255717 -0.151088 -0.017872 0.954705
POINTS 1018
DATA ascii
-196.99446 0.91006 53.32718 324
-197.05101 2.72670 53.39708 324
-197.04262 4.51911 53.33481 324
-197.02080 6.41476 53.36980 324
-197.03871 8.13065 53.31909 324
-196.99205 9.99878 53.33063 324
-196.97878 11.83939 53.31319 324
-803.57776 121.72379 132.93875 1000
-291.43716 65.65224 40.64220 340
-289.53983 67.74800 41.03844 341
-290.20163 70.34536 40.71724 318
-1567.89941 371.65289 50.08197 458
-1575.27026 373.26538 77.58028 338
-1560.90466 380.93185 50.39327 490
-1564.03613 381.32291 78.24305 490
-1568.11182 382.40216 106.00401 487
-1572.24207 383.41876 134.03471 410
-1560.22058 391.47250 50.32696 483
-1562.90442 391.77527 77.99149 482
-1566.02637 392.79422 105.63229 479
-1567.95325 393.35419 133.78290 476
-1570.96313 404.72238 49.42777 315
-2231.57959 579.63629 95.27774 487
-2238.72266 581.47632 134.81071 321
-2231.69995 595.14087 95.19809 396
-2234.64380 595.57507 134.45984 392
-8106.94873 13318.56641 -117.18364 457
-8049.57959 13232.36035 137.68959 462
-7996.76660 13323.46973 -115.48341 462
-7945.97461 13246.96582 139.59062 477
-7892.27686 13338.33789 -116.25803 467
-7843.06250 13259.61035 139.30110 479
-7790.83594 13354.73340 -113.93902 467
-7743.75342 13277.58203 136.89137 479
-7686.94434 13368.01562 -114.70866 468
-7645.73340 13293.27637 137.16953 480
-4300.79785 7493.97266 -137.66530 469
-7546.00293 13309.17773 140.66014 480
-7485.20312 13398.22266 -113.16545 469
-7443.06641 13325.25391 137.32881 481
-7387.08838 13410.91992 -112.14297 470
-7344.15527 13340.69629 140.36298 481
-7284.90479 13427.69727 -114.06234 470
-7247.40088 13355.63281 136.67934 482
-7186.03516 13441.92773 -113.19775 471
-7150.69873 13373.53027 139.23009 482
-7091.55713 13458.70898 -109.29685 471
-7050.13037 13389.46875 138.96129 483
-6989.99805 13475.03613 -112.42728 472
-6952.73096 13405.09668 137.79395 483
-6892.08594 13489.86816 -108.55170 472
-6856.68359 13420.00977 136.16833 484
-6795.57373 13501.66797 -108.92267 473
-6763.53906 13436.20410 138.46898 484
-6696.96143 13516.51660 -109.91183 473
-6667.17041 13452.51855 138.10484 485
-6603.88525 13531.21875 -107.90181 473
-6568.51172 13466.25195 136.12012 485
-6504.03271 13544.84180 -107.46664 474
-6475.02686 13483.35742 139.50148 485
-6411.84717 13560.66113 -108.65056 474
-6378.21045 13498.03711 139.52602 486
-6314.17480 13573.59863 -106.85654 475
-6285.37988 13512.89844 136.88170 486
-6261.74756 13681.19434 -357.39600 454
-6218.20801 13588.28320 -107.20010 475
-6190.43262 13528.79297 135.37064 487
-6163.98975 13694.83301 -355.57098 454
-6123.25293 13603.95020 -106.22018 476
-6096.53076 13545.27246 138.61424 488
-6067.43701 13704.66602 -356.16260 454
-6028.06592 13615.52051 -108.00355 476
-6004.14990 13558.77734 136.69043 488
-5975.67773 13718.83789 -352.63315 455
-5934.54053 13629.22949 -107.85989 476
-5910.85205 13573.01855 136.51186 489
-5877.05029 13730.48047 -351.04730 455
-5838.64355 13644.06543 -108.04578 477
-5814.83252 13588.98340 136.32465 492
-5784.20215 13744.69141 -351.03619 456
-5747.34814 13658.89844 -104.53876 477
-5724.79443 13603.85449 137.40385 492
-5690.52539 13757.08594 -352.23706 456
-5652.71875 13672.89941 -104.82592 477
-5631.18457 13620.92578 135.57515 492
-5596.14893 13768.79102 -348.62939 456
-5561.42139 13687.40625 -104.15236 478
-5537.65674 13635.73926 135.82205 493
-5499.82715 13783.05859 -349.10153 475
-5466.52100 13701.83203 -103.85426 478
-5450.51465 13653.99023 137.35898 420
-5408.88574 13797.19238 -348.07858 476
-5376.62207 13715.91895 -104.16029 478
-5357.67139 13674.71289 138.33234 420
-5313.85107 13810.46875 -347.93204 476
-5281.80908 13727.94336 -104.27138 479
-5268.21338 13694.28809 137.33624 420
-5222.13232 13824.38184 -349.77078 476
-5190.43555 13743.57715 -103.35299 479
-5178.84570 13712.42090 137.78331 420
-5129.78223 13835.90918 -347.80447 477
-5099.56592 13756.27734 -104.02431 479
-5091.34180 13734.99023 137.38950 300
-5037.28516 13849.15137 -348.53409 477
-5007.22900 13770.28516 -103.02229 480
-5009.64502 13766.73730 136.53017 300
-4947.78271 13864.08203 -344.55191 477
-4918.77148 13781.74414 -103.42611 480
-4922.31299 13798.86035 134.38428 295
-236.14543 662.32623 -22.82072 477
-4826.57373 13799.87500 -105.60602 480
-5418.79785 15450.98242 134.88020 431
-4764.78467 13888.98633 -346.25067 478
-4736.43262 13811.31055 -103.13675 481
-5317.50879 15469.28516 137.87315 431
-4670.61279 13904.62500 -346.47546 478
-4643.61719 13825.10840 -102.39379 489
-4880.03369 14506.09668 135.77440 485
-4882.72852 14516.91504 387.50562 485
-4580.70947 13919.18945 -343.33426 478
-4555.01123 13839.29395 -104.52699 489
-4778.29199 14505.61230 134.44827 486
-4783.70020 14514.65234 388.39813 486
-4493.02148 13931.46680 -345.49884 478
-4468.20947 13854.68457 -103.10370 489
-4679.53760 14503.54590 136.13113 486
-4683.14014 14515.91406 387.24075 486
-4398.89111 13945.84180 -341.84000 479
-4375.62158 13870.01953 -101.80982 489
-4582.61084 14505.63770 137.40804 487
-4585.13672 14515.66016 386.17401 487
-4309.70557 13957.68164 -342.41602 480
-4286.24219 13883.22949 -103.57333 490
-4483.01562 14502.73242 135.08281 487
-4485.03906 14514.52246 387.15735 487
-4222.00000 13973.77832 -344.06744 481
-4198.20117 13897.37402 -100.64330 490
-4386.35010 14504.16016 135.43205 488
-4385.53027 14513.69141 384.17551 488
-4129.69531 13986.99414 -343.72342 481
-4109.57568 13909.75098 -102.92453 490
-4287.25732 14505.02441 136.80217 488
-4290.12500 14512.06348 382.33240 488
-4042.28735 13998.66113 -342.73624 481
-4017.93555 13923.13574 -101.44563 490
-4190.34521 14500.76758 137.62277 489
-4193.31006 14512.13965 384.93076 488
-3948.94751 14011.70410 -339.85800 481
-3931.55908 13939.29492 -103.77293 490
-3936.45557 13969.31738 135.32025 430
-4093.90356 14513.75391 381.04446 489
-3861.50171 14027.60059 -341.89215 481
-3842.62549 13953.22070 -103.57536 491
-3848.51953 13979.84473 135.54424 430
-3998.88330 14516.56836 383.47632 497
-3773.62671 14038.49414 -343.19073 482
-3752.06641 13967.83789 -99.99413 491
-3759.45874 13991.44141 134.32664 430
-3908.89478 14531.10352 383.36447 498
-3684.13062 14053.55762 -340.85730 482
-3663.36353 13981.71680 -99.60072 491
-3669.94287 14003.42188 133.70688 437
-3813.82642 14546.19629 382.56229 498
-3593.39844 14065.91113 -339.91385 482
-3574.40918 13994.94922 -99.55843 491
-3583.34106 14027.32520 137.22716 386
-3723.75659 14562.95605 382.31107 498
-3504.22534 14080.12402 -342.52045 482
-3487.49365 14010.30859 -99.56276 491
-3498.41943 14046.03125 133.29871 386
-3630.91870 14575.36719 380.78809 498
-3418.69873 14093.85742 -340.27747 482
-3400.34009 14022.30273 -100.72066 491
-3525.57520 14536.03516 135.29712 469
-3538.92334 14592.96875 380.91214 498
-3329.52588 14106.87793 -338.24414 482
-3312.12891 14037.50195 -101.25500 491
-3426.53662 14508.09863 133.89134 470
-3450.62769 14604.94141 380.86737 498
-3238.53442 14117.76367 -339.42938 482
-3224.56445 14051.45117 -100.10100 492
-3326.85083 14483.17969 134.75125 470
-3357.79688 14620.51758 380.33344 498
-3150.25781 14130.96484 -341.11865 483
-3133.30078 14065.27734 -100.62197 495
-3225.28516 14455.25586 136.99776 471
-3263.61182 14632.41016 381.96048 499
-3063.33643 14146.36816 -339.04907 483
-3048.82227 14081.10352 -101.65201 495
-3123.86328 14430.44727 135.85095 472
-3176.23315 14649.08301 382.15970 499
-2973.63379 14161.03613 -338.68292 483
-2959.78833 14093.09668 -102.12783 495
-3027.29272 14405.47852 133.74657 472
-3080.33228 14662.69629 382.17154 499
-2885.68042 14172.62305 -340.72525 483
-2871.13403 14108.43848 -101.91801 495
-2933.22949 14411.70898 135.59042 499
-2993.60620 14678.20215 382.27280 499
-3001.88916 14728.89453 629.43231 499
-2799.42603 14186.07422 -339.82745 483
-2786.22485 14123.69727 -102.98572 495
-2844.54126 14425.86230 133.83141 499
-2901.62915 14696.96582 381.53244 417
-2911.26636 14741.64355 626.78162 499
-2942.70190 14906.96094 881.85498 470
-2708.01587 14198.86035 -337.87836 483
-2696.54004 14137.14062 -99.60872 495
-2805.65039 14697.64551 134.35138 499
-2809.68286 14711.71680 381.22195 417
-2818.97339 14757.02148 628.95740 499
-2845.24365 14900.98828 880.31348 375
-2621.07349 14211.04688 -340.97522 483
-2611.33740 14151.88672 -102.04505 495
-2716.45361 14710.76660 136.84268 499
-2717.82178 14731.15527 378.66428 453
-2721.37231 14746.39648 627.18146 453
-2533.50122 14226.23730 -339.08914 483
-2520.61694 14165.55469 -99.85192 495
-2614.86011 14669.03711 132.55658 454
-2615.15186 14683.52637 379.45111 454
-2619.58643 14699.75879 622.28632 454
-2443.90771 14239.33398 -340.70068 483
-2433.51904 14179.05566 -101.89271 495
-2511.08716 14620.55957 133.23097 455
-2514.66064 14636.83008 379.44461 455
-2516.00903 14653.30176 622.33685 454
-2548.58521 14830.91309 874.49274 361
-2357.54688 14253.73730 -340.31168 483
-2347.24536 14194.82715 -102.07502 495
-2411.23877 14575.57227 136.34927 456
-2412.34839 14590.82129 378.52353 456
-2418.45532 14608.25293 621.30353 455
-2446.58398 14782.69238 870.00757 362
-2268.86670 14264.28125 -338.52319 483
-2259.98657 14206.19727 -100.16594 495
-2317.30322 14555.87402 135.18764 499
-2315.87061 14566.52539 376.64188 499
-2318.94019 14577.14453 616.66913 499
-2344.21338 14731.49707 869.48730 362
-2182.21729 14279.48340 -338.51138 483
-2172.12842 14221.91699 -100.17949 495
-2228.01562 14573.26270 133.31668 499
-2230.04883 14581.66504 376.27557 499
-2232.14551 14590.09863 619.93073 499
-2250.51831 14730.43262 865.51764 389
-2267.87256 14825.99707 1365.99084 318
-2267.73218 14819.20898 1610.60986 428
-2269.63599 14831.96582 1863.74780 476
-2090.41895 14292.79688 -339.87241 483
-2081.62280 14236.32031 -100.72472 495
-2136.96899 14586.57227 133.29668 499
-2133.58228 14564.05371 377.25595 499
-2139.56104 14605.37793 616.99933 499
-2162.48999 14752.19629 866.20093 389
-2196.09180 14974.45117 1128.23584 485
-7466.10156 51568.74219 -4993.45020 1000
-2004.68640 14304.19531 -337.20697 483
-1996.60315 14251.02246 -101.79751 495
-2045.20593 14600.33496 135.94536 499
-2042.90784 14578.39160 374.32315 499
-2049.89600 14618.31543 615.84039 499
-2088.82422 14889.69238 871.99957 452
-2106.58081 14990.33691 1126.73132 485
-1916.89429 14320.19727 -340.74197 483
-1908.76074 14263.97852 -103.26144 495
-1958.60364 14612.80176 135.14732 499
-1955.31287 14592.33398 374.31519 499
-1959.46973 14630.68066 616.72101 499
-1999.40503 14906.81152 873.22156 452
-2010.79932 15006.29785 1129.32910 485
-1829.65894 14332.97656 -341.18213 483
-1821.30872 14278.99707 -99.55978 495
-1868.56384 14627.33691 134.61929 499
-1867.76245 14608.67383 374.26199 499
-1870.88928 14646.66406 616.16302 499
-1906.59131 14922.22754 871.88440 452
-1920.91858 15020.41699 1127.76196 485
-1740.31482 14348.25391 -337.99908 483
-1732.32654 14294.10352 -101.79998 498
-1777.79565 14641.33008 134.19423 499
-1774.98547 14620.70508 377.06256 499
-1780.01440 14660.28223 618.69214 499
-1814.67712 14938.56250 871.98456 470
-1827.47510 15035.69238 1125.83716 485
-1654.27710 14358.54492 -340.06265 483
-1648.85168 14308.84570 -103.46716 498
-1688.81897 14656.93848 133.82243 499
-1685.54248 14637.23730 375.35419 499
-1689.43750 14677.00879 618.97693 499
-1724.64307 14953.95020 873.31128 470
-1737.49805 15051.12891 1128.20679 485
-1563.72400 14375.47656 -340.07458 483
-1558.10400 14325.19922 -100.68068 498
-1597.61255 14672.81934 133.70363 499
-1595.58008 14650.08691 374.65643 499
-1599.57861 14687.64941 617.63568 499
-1632.86511 14966.87402 874.58826 470
-1474.86975 14385.39746 -340.91827 483
-1472.27014 14336.11328 -100.77213 497
-1508.88062 14683.93457 132.61882 499
-1507.69165 14666.10547 374.22977 499
-1511.13354 14702.75488 619.79651 499
-1541.08069 14986.10352 875.53137 470
-1398.20813 14482.81836 -581.60791 480
-1388.24731 14398.95703 -338.59125 483
-1385.16394 14352.19141 -102.58157 497
-1419.31018 14698.33398 134.20721 499
-1419.17065 14707.93066 375.71716 499
-1399.77209 14511.33594 610.44513 267
-1449.32349 14999.54883 874.96490 471
-1309.41418 14498.95215 -581.80359 480
-1301.32971 14415.31152 -340.63901 491
-1295.93652 14365.81250 -103.21966 497
-1329.80347 14714.26367 133.01038 499
-1328.88354 14721.77930 378.01880 499
-1305.20984 14474.15234 611.55371 267
-1356.43384 15018.45215 874.28857 471
-1218.77771 14511.64258 -582.32922 480
-1212.77356 14425.78809 -338.57962 491
-1208.50696 14380.68359 -103.52350 497
-1239.40588 14729.06250 135.69003 499
-1218.84424 14526.16504 374.04599 491
-1212.45740 14433.58398 607.66492 268
-1265.60168 15036.73926 875.37994 471
-1130.26880 14523.36816 -582.29614 480
-1125.47668 14442.68945 -341.14731 491
-1120.04968 14397.07227 -101.11002 497
-1150.87097 14743.61816 135.61685 499
-1136.54236 14573.77637 371.16550 368
-1124.30957 14426.39648 609.49207 498
-1173.92139 15049.66504 875.36285 467
-1042.46118 14536.65723 -583.04364 480
-1034.37341 14457.17188 -342.66699 490
-1030.90405 14411.36230 -101.00153 497
-1058.99988 14758.69629 134.77498 499
-1060.15430 14764.82129 378.03268 498
-1032.88269 14438.26270 605.94550 498
-1081.05261 15068.55664 875.19812 467
-954.66150 14551.68652 -584.40796 479
-947.89368 14469.20215 -340.10638 490
-943.60504 14424.68945 -101.71046 497
-969.77826 14770.87988 131.75775 498
-966.48853 14779.35449 378.19141 498
-944.95026 14455.81055 607.93439 498
-989.65967 15086.42090 877.75476 467
-864.68884 14565.65527 -582.24298 479
-858.55841 14484.95898 -342.05646 490
-854.53839 14442.39160 -103.58039 497
-877.88824 14795.81445 135.73642 448
-878.15619 14800.84082 375.50653 448
-871.98639 14680.61230 615.20764 330
-898.71857 15104.23145 878.34985 451
-772.51898 14578.64941 -583.34064 479
-768.96924 14497.05957 -340.16602 490
-765.80225 14454.80371 -104.75795 496
-790.66083 14865.84766 133.60706 470
-791.88281 14878.27148 378.69519 447
-795.92395 14919.91504 621.62897 443
-809.48242 15160.37402 880.65955 450
-686.35529 14592.44727 -584.34119 479
-683.15814 14512.90234 -342.76770 490
-678.87787 14469.99023 -103.92626 496
-703.94452 14916.55273 134.60915 470
-705.19208 14953.01953 377.32932 446
-705.57312 15002.94922 626.87128 441
-718.80139 15211.21387 881.89630 441
-594.38666 14607.47754 -584.10358 479
-591.81183 14528.26465 -343.52344 490
-587.58563 14483.30664 -105.33754 496
-613.71631 14963.28906 135.36864 469
-614.69189 15024.14062 380.77167 468
-619.30945 15077.95215 629.21295 441
-507.07538 14617.82227 -584.25470 479
-502.18405 14543.35938 -343.06207 490
-502.01416 14496.82812 -104.16824 496
-521.89117 15012.18359 135.15132 468
-524.72870 15072.63574 381.73938 467
-416.21106 14633.89355 -585.08539 479
-416.37967 14556.25000 -344.50928 489
-413.75278 14512.11719 -102.37530 496
-430.49634 15061.99609 133.98770 468
-436.15884 15125.27539 379.58035 467
-326.59903 14646.80859 -585.10168 478
-324.58627 14571.15234 -342.17236 489
-321.16943 14528.33008 -104.13531 496
-338.70450 15112.33887 131.62721 467
-237.68211 14660.57812 -587.13074 478
-237.27339 14585.21191 -345.44690 489
-233.83250 14542.10352 -106.45366 495
-250.92841 15229.20996 133.41759 442
-147.66420 14675.13672 -587.53796 478
-144.12878 14599.46582 -343.46698 489
-145.88275 14559.88867 -103.03928 495
-55.24784 14688.09766 -587.31232 478
-55.45123 14615.30176 -346.63626 489
-56.55561 14575.67578 -103.75034 375
32.48713 14703.00488 -587.99188 478
31.86463 14628.44922 -345.71826 488
33.23537 14597.37793 -106.61542 375
123.79071 14718.00977 -590.52527 478
122.43365 14642.63574 -347.63101 488
123.17457 14618.11230 -106.69756 444
215.00053 14731.69043 -588.92029 477
214.73209 14657.94922 -348.44382 488
213.85991 14630.57715 -106.83890 444
305.78333 14744.88672 -589.35022 477
305.08743 14670.99023 -345.60666 488
301.82544 14644.32324 -106.02205 444
395.07166 14757.75684 -592.83295 477
396.05316 14687.24023 -347.20291 487
393.02966 14656.26758 -107.82648 443
486.81604 14772.18945 -594.03522 477
486.24484 14698.67676 -347.45462 487
485.51791 14668.67773 -108.27457 443
576.76886 14786.85547 -594.45044 476
576.80072 14712.73730 -347.68619 487
574.79608 14683.97461 -108.53963 460
670.87000 14801.24316 -594.26031 476
669.83826 14729.28223 -350.60904 486
666.71686 14704.38672 -106.10718 420
761.48309 14815.87305 -595.47797 476
760.01575 14745.44043 -352.23312 486
761.31421 14735.35156 -106.70361 294
854.81519 14827.25781 -594.71588 475
851.69019 14757.11719 -352.58728 486
850.32550 14768.78516 -109.02216 294
946.87274 14843.45898 -596.85455 475
944.75348 14772.36719 -353.12503 486
1036.12878 16373.70508 -134.29810 422
1041.10864 14856.48242 -599.67920 475
1035.96228 14788.82422 -353.55182 485
1139.19910 16386.83594 -134.93250 421
1133.78088 14872.61523 -597.82990 475
1129.54968 14803.46777 -351.37958 485
1239.79163 16400.55859 -137.53632 416
1226.29382 14886.30273 -599.85553 474
1219.48950 14818.37891 -353.47308 485
1341.95142 16421.72852 -136.43304 416
1318.40918 14899.89062 -600.44928 474
1313.53418 14832.22949 -354.26944 484
1414.13672 14914.22363 -602.08746 474
1406.25134 14846.16211 -355.66528 484
1506.70447 14928.84668 -604.76294 473
1501.34192 14865.55762 -356.64801 483
1599.67078 14945.17285 -606.08820 473
1593.36389 14876.46777 -355.28836 483
1694.89624 14960.60352 -604.50269 473
1688.24829 14892.04102 -358.61914 483
1790.80542 14976.58203 -607.17389 472
1785.14844 14908.94922 -360.54388 482
1885.58508 14990.93457 -607.70178 472
1876.82739 14925.32422 -359.55817 482
1979.99475 15002.65723 -611.10486 471
1972.51746 14937.80566 -360.72302 481
2077.17432 15020.25195 -612.57483 471
2067.10278 14955.25781 -362.87231 481
2073.09644 14989.45020 -116.65802 419
2173.70532 15032.65039 -614.68408 471
2165.43384 14969.89258 -362.12390 481
2169.70312 15001.33203 -113.42215 419
2268.83496 15046.75977 -613.28290 470
2262.17603 14986.33984 -362.21069 480
2266.09448 15021.21191 -116.65426 391
2365.80908 15064.57324 -618.04254 470
2356.42139 14999.66016 -362.37637 483
2364.94482 15049.99902 -117.03946 391
2462.02808 15080.28320 -618.02875 469
2453.72705 15019.53809 -364.83798 482
2563.73804 15093.75781 -620.81232 470
2553.41333 15035.49707 -368.02841 484
2661.85718 15110.47656 -621.61249 477
2648.99829 15052.31152 -367.71924 484
2759.40161 15135.38965 -624.14362 456
2750.52783 15067.24902 -367.42505 483
2861.20337 15166.01074 -625.02411 456
2846.14136 15083.55273 -368.36856 483
2962.21436 15197.08301 -629.21790 455
2945.32373 15102.39258 -370.33554 479
3068.40771 15227.63867 -629.57904 454
3047.46582 15129.39062 -371.64380 460
3168.67261 15261.01172 -630.75702 454
3149.75098 15160.59668 -372.55261 460
3277.61084 15291.26367 -636.99176 453
3252.68555 15191.26172 -375.69266 459
3381.29883 15324.90918 -636.12946 452
3359.32495 15221.85059 -379.21506 458
3485.79419 15356.97852 -640.36145 452
3465.82642 15254.09570 -378.16022 458
3601.39429 15414.02832 -643.45367 407
3568.39551 15289.19043 -380.16321 457
3713.55029 15476.49219 -649.76440 406
3676.89209 15321.63477 -382.64645 456
3832.85010 15553.11133 -655.14514 384
3784.34717 15361.71582 -382.79102 455
4593.44189 18709.94141 2986.68701 1000
3952.94702 15629.30957 -656.51086 383
3897.15283 15403.16016 -388.16608 398
4076.50269 15710.30273 -664.93219 356
4015.60571 15468.51367 -388.20197 397
4210.31055 15827.06152 -670.55096 355
4132.40967 15535.50977 -392.34732 396
4253.55762 15603.03418 -395.15543 404
4376.65918 15667.68164 -398.83652 403
4507.01074 15777.08691 -405.74786 356
4648.47852 15892.13965 -408.27307 355
4796.50830 16040.28027 -416.73419 304
11413.73730 24097.33008 -5164.19922 1000
26277.67578 50006.05859 4760.32861 1000
1002.41138 1719.36414 -91.72203 447
1011.16797 1710.42017 -91.28537 498
1014.36365 1716.50610 -59.90737 496
1017.30548 1721.45801 -28.29928 498
1024.96289 1710.96387 -91.89202 400
5373.62744 9013.86328 642.76587 1000
42336.82031 41402.52734 -3778.36694 1000
12583.05859 5927.50879 -2161.64331 1000
2745.15894 1201.86804 -109.16631 282
2753.39209 1205.55200 -61.74537 373
2735.40381 1178.27991 -107.36258 407
2752.61011 1185.32214 -60.71992 313
2730.88501 1156.31287 -106.46820 408
2726.11328 1135.23425 -105.55177 463
2725.51099 1115.41809 -104.79080 481
2725.66357 1096.73999 -104.58875 481
2726.85742 1078.50623 -103.74889 482
2727.35767 1059.70605 -103.32541 492
2730.22363 1041.90601 -102.66353 492
2734.14453 1024.28296 -102.24083 492
2736.99365 1006.48517 -102.15495 492
2740.30054 989.03772 -102.23922 492
2745.22095 972.26270 -101.74675 495
2749.00537 955.75232 -101.59533 495
2753.67993 938.87134 -101.69068 495
2849.79224 972.71539 -61.65882 267
2757.96680 921.37408 -101.56030 495
2832.16772 946.83899 -60.32381 499
2762.80737 904.86597 -101.84592 496
2839.59937 930.54578 -60.32933 498
2768.33179 888.21912 -101.76801 496
2840.93970 912.59009 -60.01869 498
2774.18359 871.81781 -101.69354 496
2779.55371 855.53088 -101.87464 496
2785.92627 839.44904 -101.65392 496
2792.45679 822.90137 -101.80099 496
2921.37720 862.39960 -64.31909 498
2799.13477 806.66492 -101.76720 494
2884.45166 832.06293 -61.20930 377
2806.05835 790.79736 -101.74197 494
2889.29639 815.08325 -60.91727 497
2947.94141 832.04810 -16.58102 497
2945.52759 830.67773 32.41093 346
2812.74463 774.26770 -101.88995 494
2971.95850 819.83105 -17.44642 497
2819.87329 758.55109 -102.51860 494
2943.55835 792.06525 32.93647 488
2826.89429 741.84680 -102.37834 493
2833.99658 725.93762 -102.71699 493
3068.98145 787.79541 -72.53993 496
2841.16553 709.40125 -103.09842 493
2940.76245 735.31714 -63.07877 417
2848.26270 693.37787 -103.23833 493
2900.77979 706.36322 -59.80102 496
2855.30347 677.01788 -103.38435 492
2907.90039 689.62262 -60.58772 496
2862.43604 660.39362 -103.60426 492
2869.95581 644.17517 -103.67398 492
2876.79395 628.19940 -104.61646 492
3052.12695 667.35980 30.85480 298
2883.64282 611.59784 -104.97733 491
2956.91455 626.99609 -62.12917 408
2969.15405 630.31738 -14.54972 494
2971.50562 630.74213 33.37259 494
2890.80762 594.47809 -104.93376 491
2898.28613 578.58832 -105.02766 491
2905.70337 561.49908 -105.63362 490
2912.32617 545.03601 -106.05544 490
2920.06567 528.13525 -106.30220 491
2927.25830 511.73978 -106.50823 491
50028.96094 8672.36621 -10853.56543 1000
50487.34766 7469.88867 12856.16211 1000
59730.93750 3276.87988 91.37542 1000
24982.87500 -933.25299 4648.37109 1000
22577.69922 -3076.25659 4248.13818 1000
2467.45850 -676.56396 -30.90459 492
2473.72339 -678.26666 9.23953 497
2471.28906 -693.47144 -31.67389 376
19790.75195 -7637.49658 -2659.16870 1000
38680.53906 -16908.63281 -7552.25391 1000
39126.71094 -17103.98047 -4083.56738 1000
4649.14893 -2706.61499 -43.88917 301
38515.97656 -22828.12891 3046.41162 1000
4632.75342 -2733.76245 -43.71019 424
4822.82666 -2848.56738 40.43883 451
4637.22510 -2775.53467 -43.70080 415
4788.73340 -2867.36377 39.78317 451
4640.07959 -2815.62183 -44.60296 411
4754.57275 -2887.05396 40.07441 452
4646.89551 -2857.76904 -45.33850 393
4722.09180 -2905.33032 41.14568 453
4657.24756 -2903.61621 -47.18985 386
4689.55762 -2925.45850 41.36630 453
4671.06641 -2954.08643 -47.73706 373
4666.32471 -2949.14282 40.56228 476
4697.91602 -3010.56860 -48.92363 348
4672.73096 -2994.31079 41.04174 396
4734.65527 -3075.85669 -51.08033 345
4706.31592 -3057.32202 40.42874 364
4936.85303 -3252.13257 35.01764 474
4889.19580 -3263.48120 35.52007 472
4851.77686 -3280.54761 35.83245 449
3217.16895 -2450.45679 0.90129 420
3223.57593 -2454.69678 65.67933 420
3203.34326 -2470.95166 1.00452 430
3449.30786 -3589.51172 50.96706 425
3810.41675 -4500.03223 130.66153 448
3770.11792 -4507.84521 131.54695 446
3731.45996 -4517.59717 131.53510 420
3694.07642 -4526.65039 130.86754 427
3656.57300 -4537.89746 132.42627 395
3620.34302 -4549.24805 131.21149 403
3585.38818 -4559.53223 132.13329 407
3549.93018 -4572.03906 132.18486 410
3619.87744 -4664.36719 228.01537 291
3515.46997 -4584.80029 131.25243 411
3529.73389 -4603.67871 225.45267 497
3481.44946 -4598.08154 132.32939 412
3499.28564 -4621.36475 226.09714 497
3447.03735 -4610.59131 131.99458 414
3466.75610 -4638.16113 224.95578 497
3413.58618 -4625.10400 131.60783 440
3433.11182 -4651.68799 226.16745 498
3381.05054 -4638.47998 131.08885 441
3401.03687 -4668.20508 224.94394 498
3349.75024 -4653.80078 131.00490 474
3373.88794 -4689.17529 224.62274 498
3317.92773 -4670.10791 131.73146 474
3343.27051 -4705.80713 225.20006 498
3285.75586 -4685.54639 131.52972 472
3312.01270 -4723.46924 225.80426 498
3356.80835 -4787.74121 321.64035 498
3254.78076 -4702.49023 132.45642 497
3280.76172 -4739.42725 225.29567 498
3285.42969 -4746.48242 319.15628 357
3224.81787 -4718.80615 132.35550 496
3342.63550 -4896.87695 228.51122 499
3293.48071 -4823.07129 321.50821 499
3194.07080 -4734.57324 131.14075 497
3264.05737 -4842.35254 321.87936 429
3164.15161 -4753.04297 132.46123 499
3134.93701 -4771.31348 131.34724 499
3103.21313 -4787.91846 131.82716 452
3073.62817 -4804.54346 131.55777 469
3040.35913 -4819.14746 131.90401 497
3129.09302 -4962.47461 226.26613 464
3011.20337 -4835.48877 131.72296 497
2979.86914 -4852.75391 131.29401 497
2949.52148 -4869.70215 132.22910 497
2969.42798 -4902.32812 224.48236 487
2922.12915 -4891.56787 132.73549 443
2971.69141 -4976.32471 225.33569 483
2960.28784 -4962.98877 216.33276 484
2927.42188 -4977.16943 215.88997 495
1355.13660 -3314.93579 127.57404 308
1304.07190 -3242.10376 127.09898 306
1254.58484 -3167.67627 127.49488 316
1208.52405 -3103.15356 127.34354 317
1167.32812 -3046.07910 127.25065 328
1176.05212 -3070.91089 180.97791 322
1134.96289 -3013.85400 128.00764 364
1138.42944 -3024.96533 179.97450 359
1105.65686 -2987.44165 128.12479 384
1113.06177 -3010.68945 179.70453 468
1077.47693 -2965.85132 127.75940 393
1092.17786 -3009.86792 179.63364 468
1051.76233 -2947.41113 128.26572 400
1075.25574 -3021.19312 179.88739 468
1026.56409 -2931.64893 128.08519 414
1059.09436 -3032.97168 180.02922 467
1002.96912 -2919.30811 127.88237 423
1041.46997 -3044.04321 179.70998 467
979.58173 -2907.19678 128.10333 417
1024.97278 -3055.74683 180.51288 466
956.30316 -2894.80518 128.08385 418
1008.13196 -3067.45679 180.57381 466
933.96484 -2884.00708 127.97084 420
991.32715 -3078.94385 180.05038 465
911.94305 -2874.21484 127.88072 424
973.62048 -3090.34253 180.37718 465
890.48273 -2866.31934 128.66666 424
956.85785 -3102.63379 180.54994 465
869.08270 -2857.33960 128.11244 425
939.52582 -3114.36597 181.32693 464
862.48425 -2903.19897 128.36284 300
13084.02930 -54274.92188 -9150.65137 1000
-7751.70850 -45319.79688 -10620.60352 1000
-6406.76660 -22981.88477 3664.35889 1000
-996.35004 -2730.95776 179.45621 478
-995.99188 -2728.59399 227.72333 478
-994.95538 -2726.48706 275.66965 436
-994.00061 -2725.00732 323.37149 436
-993.69556 -2723.82690 371.53995 376
-3388.52197 -8551.52832 -2184.29199 1000
-797.81482 -2049.34351 131.39526 497
-797.55682 -2047.50159 167.88951 497
-796.18988 -2045.83057 204.21219 498
-795.83942 -2044.30432 241.19983 498
-794.83185 -2041.95386 277.58545 476
-794.30865 -2040.52197 313.80771 476
-793.18536 -2038.98352 350.76010 476
-588.40594 -1358.51978 106.65891 494
-587.41907 -1357.15649 131.46411 494
-586.89124 -1355.31958 156.60445 495
-586.14606 -1354.07959 181.44366 495
-585.25110 -1352.64221 206.01552 495
-584.65143 -1351.02441 231.07803 495
-583.76733 -1349.41406 255.64615 495
-582.79089 -1347.77393 280.53430 495
-582.00702 -1346.19482 305.05368 495
90.15719 -2.95110 128.24829 352
89.79769 -3.08071 128.38783 310
90.27001 -2.83642 128.27394 353
89.82173 -2.99753 128.38594 310
88.85614 -3.33850 128.38544 306
90.38148 -2.72707 128.29727 355
89.84720 -2.91125 128.38716 310
88.87952 -3.24802 128.38530 306
90.48944 -2.61767 128.32008 356
89.87227 -2.82743 128.38756 310
88.90144 -3.15846 128.38773 306
90.59592 -2.51036 128.34279 357
89.89859 -2.74567 128.38725 310
88.92857 -3.06872 128.38637 306
90.70269 -2.40498 128.36623 359
89.92506 -2.66088 128.38759 310
88.95252 -2.97705 128.38701 306
87.83360 -3.34320 128.38615 302
90.80586 -2.30197 128.38707 360
89.95110 -2.57635 128.38632 310
88.97619 -2.88669 128.38608 306
87.85647 -3.24843 128.38599 302
90.83456 -2.22339 128.38684 314
89.97908 -2.49038 128.38707 310
89.00284 -2.79655 128.38783 306
87.88046 -3.14726 128.38789 302
90.86475 -2.14362 128.38617 314
90.00847 -2.40696 128.38571 310
89.02930 -2.70739 128.38702 306
87.90292 -3.05146 128.38522 302
90.89378 -2.06321 128.38727 314
90.03535 -2.32009 128.38670 310
89.05730 -2.61553 128.38663 306
87.92841 -2.95393 128.38660 302
90.92435 -1.98338 128.38707 314
90.06394 -2.23774 128.38644 310
89.08212 -2.52363 128.38606 306
87.95403 -2.85656 128.38826 302
90.95528 -1.90527 128.38669 314
90.09396 -2.15053 128.38646 310
89.11097 -2.43214 128.38644 306
87.98226 -2.75626 128.38651 302
90.98723 -1.82342 128.38571 314
90.12306 -2.06633 128.38718 310
89.13950 -2.34319 128.38544 306
88.00773 -2.65987 128.38719 302
86.68991 -3.02743 128.38649 298
91.01869 -1.74500 128.38586 314
90.15362 -1.98137 128.38533 310
89.16948 -2.24961 128.38725 306
88.03569 -2.55984 128.38551 302
86.71663 -2.91998 128.38742 298
91.05093 -1.66375 128.38658 314
90.18417 -1.89532 128.38564 310
89.19776 -2.15846 128.38611 306
88.06439 -2.46198 128.38647 302
86.74388 -2.81532 128.38699 298
91.08401 -1.58437 128.38722 314
90.21758 -1.80950 128.38774 310
89.22804 -2.06711 128.38696 306
88.09218 -2.36461 128.38620 302
86.76987 -2.70810 128.38757 298
91.11684 -1.50524 128.38593 314
90.24867 -1.72556 128.38608 310
88.13000 -2.26217 128.11626 368
88.12248 -2.26478 128.38724 302
86.79822 -2.60088 128.38568 298
91.14982 -1.42520 128.38626 314
90.28311 -1.63947 128.38712 310
87.95237 -2.21373 128.06670 367
87.95241 -2.21452 128.34308 368
86.82584 -2.49208 128.38783 298
91.18433 -1.34432 128.38577 314
90.31441 -1.55274 128.38629 310
87.76903 -2.16709 128.01582 366
87.76868 -2.16550 128.29385 366
86.85479 -2.38764 128.38496 298
91.21976 -1.26311 128.38603 314
90.34887 -1.46644 128.38686 310
87.58150 -2.11532 127.96149 364
87.58304 -2.11628 128.24648 365
86.88206 -2.27827 128.38562 298
91.25409 -1.18287 128.38577 314
90.38206 -1.38308 128.38606 310
87.38750 -2.06586 127.90740 363
87.38765 -2.06424 128.19609 364
86.91476 -2.17075 128.38469 298
91.29118 -1.10385 128.38715 314
90.41655 -1.29685 128.38541 310
87.18732 -2.01106 127.85416 362
87.18819 -2.01156 128.14604 362
86.94467 -2.06480 128.38495 298
91.32603 -1.02367 128.38556 314
90.45139 -1.21004 128.38586 310
87.08463 -1.93486 127.82143 454
87.08581 -1.93447 128.11537 455
86.97502 -1.95531 128.38553 298
91.36375 -0.94265 128.38707 314
90.48825 -1.12504 128.38776 310
87.00031 -1.85298 127.79280 453
87.00153 -1.85033 128.09088 454
87.00256 -1.85136 128.38425 455
91.39889 -0.86247 128.38585 314
90.52305 -1.03782 128.38737 310
87.00907 -1.74907 127.78870 306
86.91644 -1.76703 128.06528 453
86.91553 -1.76546 128.36078 454
91.43757 -0.78074 128.38576 314
90.56025 -0.95199 128.38722 310
87.04115 -1.63939 127.78658 306
86.82923 -1.68065 128.03786 452
86.83239 -1.68203 128.33731 453
85.49651 -1.94365 128.38742 294
91.47434 -0.69987 128.38673 314
90.59872 -0.86501 128.38689 310
87.07502 -1.53221 127.78628 306
86.74577 -1.59403 128.01070 451
86.74638 -1.59361 128.31380 452
85.52961 -1.82571 128.38776 294
91.51423 -0.61945 128.38602 314
90.63581 -0.77843 128.38542 310
87.10789 -1.42252 127.78625 306
86.65822 -1.50596 127.98718 451
86.65563 -1.50624 128.28804 451
85.56070 -1.70737 128.38835 294
91.55163 -0.53867 128.38687 314
90.67502 -0.69214 128.38699 310
87.14242 -1.31587 127.78573 306
86.56735 -1.41581 127.95975 450
86.56809 -1.41685 128.26424 450
85.59575 -1.58895 128.38640 294
91.59322 -0.45854 128.38560 314
90.71313 -0.60856 128.38593 310
87.17803 -1.20867 127.78940 306
86.47754 -1.32921 127.93109 449
86.47896 -1.32622 128.23901 449
85.63039 -1.46990 128.38551 294
91.63277 -0.37680 128.38631 314
90.75154 -0.52040 128.38734 310
87.21229 -1.09891 127.78593 306
86.38796 -1.23641 127.90137 448
86.38755 -1.23523 128.21094 449
85.66674 -1.35471 128.38573 294
91.67356 -0.29596 128.38672 314
90.79340 -0.43362 128.38707 310
87.25020 -0.99143 127.78824 306
86.29987 -1.14047 127.87612 493
86.30152 -1.13896 128.18913 493
85.70327 -1.23627 128.38751 294
91.71494 -0.21466 128.38754 314
90.83311 -0.34783 128.38553 310
87.28699 -0.88341 127.78818 306
86.27211 -1.03580 127.86371 492
86.27240 -1.03551 128.17303 493
85.73964 -1.11553 128.38683 294
91.75462 -0.13336 128.38669 314
90.87310 -0.26137 128.38783 310
87.32460 -0.77337 127.78922 306
86.24446 -0.93134 127.85039 492
86.24467 -0.93320 128.16039 493
85.77707 -1.00157 128.38840 294
91.79736 -0.05321 128.38625 314
90.91412 -0.17536 128.38762 310
87.36313 -0.66830 127.78767 306
86.21890 -0.82607 127.83493 492
86.21522 -0.82440 128.14746 493
85.81873 -0.88173 128.38461 294
91.81477 0.02579 128.37985 489
90.95686 -0.08806 128.38721 310
87.40333 -0.55798 127.78815 306
86.65967 -0.67331 127.78873 302
86.18799 -0.71827 128.13455 493
85.85403 -0.76168 128.38583 294
91.79453 0.09887 128.36317 489
91.00106 -0.00215 128.38573 310
87.44460 -0.44970 127.78617 306
86.15858 -0.61153 127.80592 492
86.16063 -0.60980 128.12132 492
85.89756 -0.64481 128.38634 294
91.77372 0.17186 128.34480 489
91.04261 0.08360 128.38602 310
87.48339 -0.34226 127.78712 306
86.13150 -0.50266 127.78761 491
86.13146 -0.50290 128.10571 492
85.93749 -0.52740 128.38519 294
91.75510 0.24877 128.32758 488
91.08641 0.17057 128.38751 310
87.52419 -0.23358 127.78783 306
86.16300 -0.38852 127.78906 302
86.10027 -0.39299 128.09091 492
85.97710 -0.40616 128.38675 294
91.73507 0.32360 128.31088 488
91.13015 0.25856 128.38754 310
87.56774 -0.12451 127.78881 306
86.20557 -0.27120 127.78934 302
86.06997 -0.28473 128.07991 492
86.01993 -0.28849 128.38495 294
91.71307 0.39871 128.29384 488
91.17366 0.34542 128.38542 310
87.61033 -0.01543 127.78797 306
86.24668 -0.15460 127.78852 302
86.04353 -0.17495 128.06258 492
86.04122 -0.17353 128.38443 492
91.69370 0.47637 128.27533 488
91.22078 0.43083 128.38646 310
87.65234 0.09217 127.78673 306
86.28915 -0.03414 127.78933 302
86.01292 -0.06018 128.05151 491
86.01334 -0.06284 128.36781 492
91.67222 0.55297 128.25787 487
91.26528 0.51799 128.38602 310
87.69583 0.20038 127.78591 306
86.33208 0.07974 127.78878 302
86.01125 0.05378 128.03970 480
86.00964 0.05248 128.36070 481
91.65105 0.63091 128.23985 487
91.31208 0.60379 128.38583 310
87.74276 0.31104 127.78574 306
86.37782 0.19829 127.78810 302
86.04031 0.16850 128.03641 480
86.04072 0.16866 128.35773 481
91.63089 0.71143 128.22293 487
91.35668 0.69131 128.38556 310
87.78690 0.42007 127.78848 306
86.42054 0.31432 127.78661 302
86.07224 0.28995 128.03539 481
86.07273 0.28740 128.35426 482
91.60825 0.79166 128.20274 487
91.40618 0.77835 128.38577 310
87.83091 0.52765 127.78892 306
86.46547 0.43093 127.78847 302
86.10510 0.40701 128.03310 481
86.10530 0.40920 128.35349 482
91.58703 0.87191 128.18542 486
91.45271 0.86327 128.38667 310
90.44456 0.79942 128.38611 306
86.51434 0.54960 127.78615 302
86.13669 0.52395 128.03067 482
86.13795 0.52357 128.34961 483
91.56472 0.95474 128.16583 486
91.50172 0.95057 128.38657 310
90.49254 0.89329 128.38710 306
86.56073 0.66817 127.78854 302
86.16647 0.64318 128.02831 482
86.16899 0.64293 128.34763 483
91.54365 1.03758 128.14574 486
91.54270 1.03690 128.38582 487
90.53972 0.98644 128.38606 306
86.60851 0.78531 127.78855 302
86.19789 0.76251 128.02159 483
86.19915 0.76122 128.34459 483
91.52076 1.12060 128.12749 485
91.52173 1.12024 128.36803 486
90.59023 1.07876 128.38733 306
86.65507 0.89982 127.78711 302
86.23326 0.88114 128.02046 483
86.23141 0.88217 128.34138 484
91.49834 1.20513 128.10799 485
91.49755 1.20506 128.34946 486
90.64029 1.17106 128.38545 306
86.70612 1.01635 127.78587 302
86.26340 0.99903 128.01501 484
86.26114 1.00041 128.33765 484
91.47471 1.29038 128.08910 485
91.47604 1.28894 128.33083 486
90.68906 1.26452 128.38655 306
86.75413 1.13266 127.78645 302
86.29629 1.11976 128.01382 484
86.29768 1.11920 128.33383 485
91.45393 1.37544 128.06897 484
91.45357 1.37497 128.31279 485
90.74102 1.35513 128.38760 306
86.80650 1.24904 127.78875 302
86.39199 1.23982 128.02290 418
86.38860 1.24079 128.34369 419
91.43018 1.46216 128.04834 484
91.42906 1.46226 128.29289 485
90.79156 1.44849 128.38782 306
86.85944 1.36807 127.78625 302
86.51114 1.36114 128.03502 419
86.51163 1.36290 128.35555 420
91.40493 1.55047 128.02959 484
91.40536 1.54842 128.27518 485
90.84344 1.54236 128.38676 306
86.91064 1.48551 127.78651 302
86.63054 1.47867 128.04730 420
86.63111 1.47908 128.36847 421
91.38223 1.63912 128.00795 483
91.38268 1.63867 128.25569 484
90.89801 1.63379 128.38748 306
86.96018 1.60162 127.78777 302
86.74975 1.60013 128.06029 421
86.75098 1.60251 128.37968 422
91.35726 1.72670 127.98775 483
91.35798 1.72824 128.23642 484
90.94878 1.72715 128.38638 306
89.79046 1.72426 128.38596 302
86.87022 1.71721 128.07581 423
86.84312 1.71859 128.38657 294
