# .PCD v.7 - Point Cloud Data file format
VERSION .7
FIELDS x y z rgb
SIZE 4 4 4 4
TYPE F F F U
COUNT 1 1 1 1
WIDTH 1053
HEIGHT 1
VIEWPOINT 6769.966797 -3080.215332 139.607727 -0.567428 -0.129350 -0.071308 0.810068
POINTS 1053
DATA ascii
-197.29222 1.15103 53.40183 324
-196.16795 3.14169 53.28326 324
-197.27174 4.73832 53.35454 324
-197.29076 6.52481 53.35172 324
-197.31796 8.32922 53.37062 324
-197.27905 10.12953 53.37905 324
-197.22421 11.94696 53.34137 324
-284.34210 60.23333 35.78836 317
-263.78552 59.22974 34.53870 325
-278.30408 61.56160 37.15131 323
-294.58691 64.25356 39.90291 313
-260.16281 60.89602 35.38048 350
-274.78918 63.39704 38.00729 346
-290.96637 66.12173 40.66595 341
-258.19321 62.78331 35.85432 350
-272.72696 65.28664 38.41969 347
-289.01843 68.14413 41.05345 341
-256.33932 64.70835 36.29074 351
-270.91074 67.36671 38.78690 345
-290.48251 70.94023 40.59267 318
-254.47588 66.58779 36.64656 351
-270.70496 69.65466 38.74944 322
-252.64664 68.51092 37.03631 325
-272.69586 72.40186 38.14642 319
-254.56674 71.12700 36.36808 322
-278.58060 75.93880 36.55550 261
-256.60001 73.73804 35.68465 321
-258.63312 76.41873 35.05658 321
-15757.10645 4409.93848 671.90881 453
-15792.64746 4525.47266 403.68033 453
-15673.84375 4493.55322 671.76300 458
-15717.39355 4608.97900 405.69742 447
-15596.87305 4572.45459 670.33276 464
-15598.08203 4574.75879 939.96246 436
-15641.35254 4690.94678 406.25220 444
-15525.50391 4655.74414 667.40930 465
-15569.49219 4776.65869 403.51111 445
-15455.37988 4738.96582 667.68231 465
-15496.19141 4859.54297 402.24390 445
-15386.51172 4821.95459 664.22522 466
-15425.01270 4940.63525 401.07404 446
-15311.83691 4906.07324 666.42487 466
-15352.05957 5022.87158 402.43539 446
-15244.27734 4987.53711 664.30310 467
-15278.73438 5100.89111 402.54691 465
-15173.54395 5068.93066 664.11139 467
-15210.21973 5185.48145 398.52576 465
-15104.95801 5148.68262 660.14899 468
-15137.16602 5264.58984 400.48395 466
-15034.87012 5227.91895 658.92352 468
-15069.57812 5345.27832 396.58755 466
-14965.64355 5310.31055 656.85114 469
-15001.39258 5425.68457 397.41656 468
-14896.75195 5389.46826 658.80652 469
-14932.99121 5506.42773 398.69189 469
-14827.96094 5468.00488 655.31476 470
-14864.27637 5584.47900 399.05331 469
-14761.57617 5545.11963 655.07373 471
-14793.00293 5665.00000 396.65143 470
-14696.22754 5624.99365 654.12720 471
-14726.25977 5740.31250 394.40619 470
-14626.55371 5704.94482 653.20911 479
-14656.35352 5822.07324 394.08200 471
-14562.34668 5781.37256 649.99463 480
-14591.01660 5897.07959 396.47675 471
-14493.59277 5861.94043 648.98120 480
-14524.33887 5975.58887 393.61630 472
-14430.48633 5937.05762 649.11365 481
-14458.94238 6054.93848 393.93781 472
-14362.71973 6016.02197 647.01239 481
-14390.19629 6129.62158 391.77466 472
-14298.75879 6090.55664 645.33130 481
-14324.83008 6209.52441 392.96506 473
-14235.70898 6167.78223 644.43903 482
-14260.46973 6283.76562 392.36966 473
-14167.25293 6245.90430 644.44916 482
-14191.74219 6360.43701 390.40146 474
-14103.80859 6322.00439 646.61566 483
-14127.65527 6435.75635 393.19870 474
-14037.51562 6397.42383 643.59271 486
-14060.20996 6510.27637 391.28250 475
-13975.17188 6471.40723 644.39136 487
-13997.38965 6586.83398 390.16620 475
-13914.11328 6545.84082 643.26831 487
-13932.64746 6663.39502 390.88895 475
-13850.21289 6621.15479 640.75702 487
-13867.10156 6735.93213 390.39236 476
-13787.18164 6696.39893 638.79425 488
-13801.18945 6810.70264 390.64182 476
-13720.74805 6772.13623 639.68579 488
-13736.63965 6885.38037 390.63361 476
-13659.29980 6844.51953 639.51715 489
-13673.81445 6958.50488 386.72928 477
-13597.71289 6919.05371 638.69354 489
-13611.37109 7035.20605 386.15967 477
-13534.90918 6992.07666 638.73444 489
-13547.85742 7107.05273 388.07990 477
-13471.49023 7069.44727 636.26843 490
-14145.56445 7418.75830 924.77948 481
-13485.41113 7180.55469 386.80313 478
-13408.66602 7140.48242 635.93842 490
-14065.07324 7485.79150 925.09460 481
-14138.31445 7523.48389 1192.86963 404
-13421.97070 7252.47070 387.53067 478
-13349.29102 7214.01221 635.78979 490
-13983.04590 7556.09229 920.72217 482
-14058.40820 7593.67578 1189.12915 404
-13358.20117 7324.31445 388.04413 478
-13287.00977 7286.28467 633.94952 491
-13900.42383 7623.81787 917.72168 482
-13977.85156 7666.46436 1185.07312 405
-13295.63086 7400.12207 384.20129 479
-13225.69824 7360.19971 632.54681 491
-13822.59570 7691.94287 917.72748 483
-13899.84375 7735.47168 1181.77869 405
-13232.03027 7470.48438 385.71613 479
-13164.85938 7432.09131 632.17474 491
-13740.70312 7756.87500 913.31787 483
-13824.87891 7802.46582 1183.14819 406
-13169.89160 7545.45654 384.46994 479
-13100.75586 7505.79248 631.48364 491
-13661.13965 7822.94385 914.22125 484
-13107.89258 7614.22266 383.40378 480
-13041.56836 7576.88818 633.92651 492
-13583.19629 7888.40479 910.77069 484
-13044.50781 7689.97510 383.61328 480
-12981.37695 7651.36035 629.91467 492
-13504.06934 7958.11182 909.16705 485
-12980.48145 7761.21387 383.31229 480
-12917.78320 7724.21484 632.86798 492
-13431.40820 8027.60010 908.29889 496
-12920.19629 7829.59668 385.22418 480
-12859.56934 7793.84717 630.77325 492
-13369.63477 8098.82568 905.77252 496
-12858.83496 7905.01758 385.70868 481
-12798.67773 7867.22412 631.82312 493
-13303.07617 8175.31104 906.04028 496
-12797.92578 7972.78271 385.87054 481
-12737.65625 7937.55273 630.98187 493
-13238.91895 8247.80371 907.73621 496
-12734.75684 8044.94727 383.67407 481
-12676.34473 8008.62891 629.36908 496
-13175.61816 8322.42773 904.68884 497
-12671.27930 8116.50879 385.30078 481
-12616.62500 8080.44873 629.61279 496
-13111.89746 8395.94824 906.78113 497
-12611.76367 8189.52539 384.09225 481
-12557.74609 8151.13330 627.71265 496
-13051.18359 8473.10547 904.17566 497
-12551.48047 8258.47070 382.65564 482
-12498.37012 8223.40332 626.46368 496
-12986.47949 8543.79492 903.63721 497
-12568.63184 8384.79590 135.57146 479
-12489.27539 8331.39062 382.80600 482
-12436.98730 8294.29004 627.03198 496
-12851.68262 8571.07422 897.90051 420
-12507.61914 8455.29883 134.46550 479
-12429.41113 8399.99121 381.45007 482
-12375.04199 8366.11914 627.66266 497
-12781.77734 8638.74805 898.36523 321
-12896.68262 8715.07324 1160.37561 497
-17715.13672 12106.93359 -3780.78662 1000
-12446.46094 8525.31934 133.87285 479
-12367.17188 8469.59766 381.80396 482
-12318.93848 8436.96777 627.30682 497
-12732.54199 8717.75098 897.74640 321
-12833.70020 8786.53516 1162.72754 498
-12384.04395 8597.55273 136.08580 479
-12302.63965 8541.83203 382.74561 482
-12256.94727 8509.21777 628.52814 497
-12681.07129 8799.67480 897.93005 417
-12770.35156 8858.70605 1159.79187 498
-12927.51953 8967.90039 1434.17383 445
-12325.76562 8669.47266 134.88745 480
-12243.26953 8608.36035 384.06879 483
-12197.36719 8577.53809 625.85944 497
-12616.22559 8871.75000 898.71362 403
-12706.59863 8935.81543 1161.21704 498
-12819.47363 9009.99512 1427.49988 465
-12263.37988 8737.69434 136.55327 480
-12182.68164 8682.15430 382.37045 491
-12137.63867 8649.47656 627.58319 497
-12574.10840 8955.11816 898.36206 368
-12646.25098 9010.31738 1159.54895 498
-12797.52344 9114.76465 1431.26538 387
-12204.29883 8807.31836 136.50598 480
-12122.08496 8749.88086 382.83929 491
-12078.67090 8718.12695 626.20294 497
-12529.11719 9043.69824 897.19690 445
-12531.63184 9045.82520 1155.96692 445
-12540.34473 9048.07910 1409.29736 444
-12139.23828 8880.09766 137.78928 480
-12063.96875 8820.70215 383.85602 491
-12020.95215 8788.88184 624.42084 498
-12409.86133 9075.03320 894.05957 446
-12417.85938 9077.01074 1150.43506 446
-12423.00195 9080.69434 1402.39526 445
-12081.30371 8950.25098 135.43571 480
-12005.55176 8892.76855 381.91489 491
-11960.83691 8862.46875 626.20026 377
-12295.58008 9107.45410 890.34131 447
-12302.61914 9113.27441 1145.28650 447
-12304.66309 9114.91602 1396.70374 446
-12018.11719 9020.39551 135.10141 480
-11942.40820 8960.41406 380.81418 491
-11902.19141 8934.05371 627.47339 446
-12192.55566 9146.89648 886.88135 499
-12189.94727 9146.13379 1140.52271 498
-12189.65332 9149.25391 1392.52539 447
-11958.42969 9088.83984 136.21902 480
-11885.71191 9032.82812 380.04214 491
-11844.32031 9004.68750 626.89264 464
-12130.55957 9220.13965 886.95813 499
-12129.11719 9216.61719 1139.75537 499
-12127.80469 9218.82812 1391.13550 498
-12280.63672 9334.79785 1663.77502 472
-12289.72266 9336.61426 1918.75793 440
-11894.98242 9159.77832 138.00230 480
-11822.39941 9101.89062 382.24808 491
-11786.65918 9077.50586 626.23871 424
-12043.95215 9274.08984 885.98462 499
-12041.86719 9268.65723 1136.02734 499
-12065.14258 9286.01270 1390.42236 498
-12325.25781 9488.20117 1673.69348 479
-12710.35645 9779.32227 2796.97754 321
-11834.83984 9227.46875 135.16055 481
-11764.62695 9174.45703 382.33954 491
-11732.75977 9146.92871 627.28998 424
-11984.88867 9342.32812 885.25415 499
-11981.25293 9343.52637 1138.61218 499
-12007.13672 9361.10547 1388.39331 498
-12263.05566 9557.63770 1673.86719 479
-12641.19629 9848.62695 1987.51428 400
-12639.01953 9851.68750 2255.71826 488
-11775.18848 9299.03223 136.24641 481
-11704.92480 9244.03613 381.73978 491
-11676.80762 9222.19922 625.44720 302
-11922.68066 9412.85840 885.04620 499
-11921.33887 9411.68262 1136.09204 499
-11943.96484 9434.06445 1391.77136 499
-12197.15527 9632.19922 1675.75867 479
-11716.40820 9369.89258 136.26146 481
-11642.76855 9311.94531 379.71207 491
-11630.14551 9303.72266 626.10632 302
-11860.84082 9487.97363 886.44299 499
-11861.76172 9485.59473 1135.16956 499
-11884.23145 9504.70508 1388.83472 391
-12100.56543 9676.45215 1670.34363 477
-11653.29688 9441.16504 134.86099 481
-11584.23535 9386.02637 381.09274 492
-11590.74512 9386.03125 624.67108 296
-11800.12988 9556.78320 886.12970 499
-11798.18555 9556.84473 1136.60913 499
-11825.67969 9579.49219 1391.82874 391
-12074.30469 9780.19434 1673.26062 471
-11595.18750 9508.99902 135.90968 481
-11522.50684 9454.43262 380.47086 492
-11727.90723 9617.55078 633.33099 499
-11741.15137 9628.72754 887.52710 499
-11738.81543 9629.97656 1135.25623 499
-11771.66211 9654.21289 1390.74084 391
-12014.06543 9852.95996 1674.14441 471
-11532.90918 9579.10547 135.68246 481
-11465.73047 9524.49121 381.90530 492
-11665.05566 9689.29199 634.89240 499
-11679.29102 9698.91309 883.68579 499
-11678.69141 9700.34473 1134.48096 499
-11711.64844 9725.73926 1391.59607 391
-11955.22070 9929.64941 1674.37939 471
-11471.79492 9650.48633 134.11609 481
-11405.48340 9592.63379 379.08380 492
-11605.51172 9761.91797 632.91553 499
-11619.80273 9774.31934 883.48633 499
-11618.05859 9772.17871 1135.27466 499
-11654.28809 9801.03906 1391.82605 391
-11892.79883 10000.97852 1675.39636 471
-11412.60059 9719.49902 135.12317 481
-11347.51562 9663.28125 381.37741 492
-11545.29590 9833.10059 635.26941 499
-11577.21191 9863.03809 887.87762 499
-11578.17285 9861.86035 1137.66968 499
-2948.55688 2490.63696 317.43295 351
-11831.93457 10077.17871 1675.64624 471
-11350.14746 9787.59668 136.54164 481
-11287.26172 9735.71582 379.95618 492
-11481.59863 9903.36230 633.67767 499
-11520.43359 9933.70508 885.58649 499
-11506.47266 9923.28711 1134.59668 479
-11263.91992 9716.34082 1359.89551 499
-11771.75391 10151.31445 1671.95837 471
-11288.90820 9858.18555 135.40805 481
-11224.81445 9804.35156 379.40927 492
-11423.61816 9974.40039 633.35651 499
-11327.47363 9893.42090 877.53668 475
-11273.29199 9843.73828 1120.31335 461
-11482.29004 10026.51660 1390.75500 382
-11712.71387 10223.84375 1672.07153 471
-11226.05176 9929.72949 136.71970 481
-11166.29297 9873.91602 379.48151 492
-11360.99805 10045.81836 634.83691 499
-11396.65332 10074.17188 887.88879 499
-11257.93652 9954.25293 1124.00964 294
-11426.73145 10101.33691 1390.58020 382
-11650.27832 10299.71094 1673.50439 471
-11165.61621 9998.71680 136.79274 481
-11105.17871 9941.70215 382.48169 492
-11301.42285 10116.91602 635.78308 499
-11335.18848 10146.55664 885.21204 499
-11336.66895 10145.62402 1137.01257 499
-11365.85254 10175.77051 1393.08252 382
-11107.64746 10066.43066 137.96082 481
-11049.15723 10013.33789 381.51306 492
-11241.32715 10187.08691 635.72345 499
-11274.81055 10216.78906 885.67279 499
-11274.09180 10217.52832 1136.27173 499
-11309.59473 10249.52441 1393.97839 382
-11045.89941 10138.20801 134.82620 481
-10985.73145 10081.69629 381.43079 492
-11177.03320 10259.80176 634.86212 499
-11233.02539 10305.51367 887.26379 457
-11227.69922 10299.96875 1141.39734 457
-11272.01367 10345.90234 1397.73877 360
-10984.61426 10205.95801 134.82297 481
-10928.40430 10152.45117 382.45187 491
-10942.41016 10169.27148 625.40332 430
-11214.38281 10418.25293 890.24628 456
-11208.25879 10412.45703 1141.25427 456
-11273.77246 10473.44141 1401.93005 360
-10925.97949 10279.77832 136.68375 482
-10869.43750 10223.46387 381.95801 491
-10882.17480 10235.27832 627.94623 431
-11189.43066 10522.76953 892.21753 475
-11189.85547 10528.21973 1148.06201 455
-11271.61426 10600.34375 1411.25000 360
-10864.82422 10346.92871 135.68933 482
-10808.87012 10293.69238 380.22845 491
-10817.82031 10304.25586 625.18591 438
-11150.73730 10621.64355 894.81274 475
-11176.42871 10643.98340 1150.98108 454
-10804.49902 10417.88867 134.27554 482
-10746.22266 10364.64551 383.25485 491
-10760.94336 10380.23828 628.24915 438
-11116.13281 10717.42969 896.24768 474
-11150.04883 10751.76660 1157.37524 473
-10742.33691 10486.79883 135.38319 482
-10688.45215 10437.20996 382.03143 491
-10707.97461 10452.81738 629.97443 387
-11077.90625 10812.45703 898.98230 474
-10683.75391 10558.71875 134.28938 482
-10628.51953 10504.28516 380.64383 491
-10933.07715 10805.82715 640.69031 417
-10619.59863 10629.99414 135.56242 482
-10568.92969 10573.64160 381.06241 494
-10914.05859 10917.63965 644.73700 416
-10561.86230 10698.19043 136.13507 482
-10507.60742 10647.37891 380.30563 494
-10892.10156 11032.69043 646.02191 401
-10498.08789 10767.49609 135.91946 482
-10447.92969 10719.02539 382.67133 494
-10438.63574 10839.60156 137.39238 482
-10389.02734 10787.49902 382.42307 494
-10376.95215 10910.96582 133.79242 481
-10328.46582 10859.62500 382.48721 494
-10316.11133 10982.49316 138.06108 481
-10267.26074 10931.09277 381.50836 493
-10252.75391 11050.29980 134.24275 481
-10206.43750 10998.69434 384.03009 493
-10192.31055 11119.99609 137.29288 481
-10147.13574 11073.20898 380.59933 496
-10133.23340 11192.67090 135.73161 481
-10085.61230 11143.71582 384.09482 495
-1326.72607 1574.90417 -5.92179 403
-10068.19727 11264.54297 137.48448 481
-10026.70703 11214.39844 382.80957 495
-1312.67908 1578.53601 -5.91745 499
-1315.82727 1582.35596 28.68794 499
-1319.13159 1586.30896 63.02998 456
-10009.42578 11334.56250 136.87764 480
-9967.45605 11286.55859 382.74426 495
-1306.41833 1591.16248 -5.81836 389
-1310.19946 1595.37305 28.54327 389
-9949.46484 11404.30176 136.46368 488
-9904.66797 11355.94141 385.22882 495
-9887.37988 11475.76465 138.00597 488
-9846.68359 11431.41797 382.43045 495
-9825.84863 11551.26855 136.53183 488
-9782.89355 11503.79102 385.99106 494
-9762.58496 11619.86621 136.81133 487
-9721.57324 11574.26562 385.23438 494
-9701.22559 11695.24609 137.33894 487
-9661.09180 11646.67480 384.05603 494
-9641.23145 11767.03027 135.35983 487
-9599.67188 11718.39941 386.81976 494
-9577.81348 11840.13086 134.67613 487
-9540.67578 11794.65527 384.09241 493
-9516.91309 11912.49121 136.69321 486
-9478.02441 11866.90332 387.02744 493
-9455.42773 11984.87305 135.76755 486
-9417.54883 11936.37891 384.61951 493
-9391.73340 12055.15723 137.73036 486
-9354.10645 12011.97168 384.31442 492
-9327.36816 12128.46875 136.91258 486
-9295.92188 12083.50098 384.83923 492
-9264.17285 12204.24023 137.33290 485
-9232.59375 12161.15527 385.61246 492
-9202.43848 12277.76953 135.20757 485
-9170.14551 12231.34668 387.86920 491
-9142.13281 12351.46875 133.84102 485
-9107.18457 12305.40918 387.90598 491
-9131.33008 12500.89160 -120.08454 474
-9076.18848 12425.47656 134.80234 484
-9043.75684 12382.29004 385.53607 491
-9069.90332 12574.51758 -120.43629 473
-9014.08008 12498.11914 135.36238 484
-8983.38965 12457.32715 390.12775 490
-9004.29199 12649.44336 -118.98318 473
-8951.29199 12571.84570 137.09183 484
-8919.79785 12528.97949 386.59485 490
-8937.08984 12722.33203 -117.20720 473
-8885.26562 12649.87500 136.94020 483
-8857.23438 12606.02734 387.59692 490
-8874.66113 12797.47168 -118.24567 472
-8824.52832 12723.17480 134.14963 483
-8792.47266 12677.78125 388.51965 489
-8811.19141 12871.85059 -119.42842 460
-8757.99707 12796.21875 133.90747 483
-8732.38086 12762.31445 389.54974 372
-8752.78711 12960.43457 -122.65759 460
-8694.36426 12873.97559 133.77132 482
-8674.04395 12845.48047 390.90872 372
-8693.77051 13044.27539 -120.25016 459
-8630.99023 12948.65723 136.58446 482
-8613.07715 12928.91211 391.32660 372
-8636.09961 13128.71875 -123.21222 461
-8573.68945 13036.79395 137.16768 461
-8550.00879 13004.15820 393.22171 438
-8579.79590 13221.38574 -121.08034 460
-8515.90137 13125.42578 134.20107 461
-8486.51074 13077.40234 393.40967 438
-8519.80469 13307.97168 -124.07684 460
-8457.21777 13214.92969 133.98317 460
-8426.44141 13162.78223 393.77478 405
-8462.93066 13400.25684 -123.35680 459
-8399.29004 13303.39746 134.54568 459
-8370.26465 13255.51172 394.83337 405
-8403.32520 13488.21582 -123.90421 459
-8341.06250 13395.04004 134.79802 459
-8310.83789 13341.22949 392.18082 405
-8359.60449 13603.57617 -125.97167 416
-8284.07129 13484.42578 135.52197 460
-8249.12793 13429.85059 396.58392 480
-8317.86035 13729.19824 -126.43297 394
-8225.11816 13572.47266 134.76932 459
-8211.76367 13550.88770 394.87387 287
-8280.27539 13854.80176 -131.16504 393
-8169.25244 13667.16504 134.35959 458
-8291.57227 13870.32227 401.90454 413
-8241.05469 13984.84766 -129.10431 392
-8117.58350 13774.88770 135.20654 416
-8225.43750 13956.53613 403.73270 412
-8203.50977 14115.07617 -133.56253 391
-8072.64990 13890.73340 135.85985 415
-8652.78418 14879.83105 420.24619 469
-8186.66064 14285.43262 -132.33398 297
-8028.10156 14014.61426 137.19807 414
-8560.65430 14934.63574 420.59888 407
-7979.01611 14131.85254 136.69072 414
-8468.72363 14990.84961 419.07779 371
-7937.77100 14256.89355 138.00026 392
-8374.49902 15034.32129 419.11069 393
-7904.94971 14403.97168 133.97598 365
-7876.39600 14563.25195 135.14867 364
-7781.56934 14392.10938 403.33868 396
-7847.22998 14726.71680 134.51163 363
-7741.97119 14531.51465 405.98389 375
-10605.94727 23519.10156 -6785.04688 1000
-10360.13086 29465.03516 -8238.22852 1000
353.63141 2302.04370 -19.24553 417
365.56830 2285.79102 -18.63844 418
383.56580 2316.19995 -59.03069 377
377.82892 2269.71045 -17.24175 420
395.54666 2293.97021 -57.27316 379
389.75986 2254.20752 -16.82821 415
404.46759 2254.50391 -54.02214 291
402.33698 2241.60254 -15.83845 430
419.50650 2262.37793 -92.72842 430
414.56134 2229.43384 -51.92163 386
414.85416 2231.37207 -15.25187 430
431.28983 2247.70361 -91.65332 431
426.19803 2212.97705 -50.84520 387
427.21185 2221.07666 -14.61315 380
443.34879 2233.35522 -90.14778 432
437.33020 2197.37622 -49.64726 405
439.94321 2212.91064 -14.61233 378
455.18265 2219.18774 -89.28421 457
449.59503 2185.94189 -49.15266 462
452.87057 2206.13013 -14.21537 380
467.27994 2208.51953 -88.03804 458
461.79083 2176.08618 -48.42715 463
465.48135 2199.03442 -13.71820 379
479.04654 2198.00659 -87.13802 458
473.28934 2166.04150 -47.73832 464
478.01392 2190.95190 -13.18669 435
491.17041 2188.38940 -86.71077 459
485.44263 2155.59717 -47.35825 464
520.69110 2347.35693 -23.64782 377
503.22452 2178.10669 -85.69331 460
496.99780 2146.21753 -46.55103 474
535.77960 2348.13721 -24.05735 378
515.48785 2168.79443 -85.10451 465
509.13000 2137.63623 -45.92755 476
550.32172 2348.10986 -24.32765 380
527.46448 2159.45386 -84.35742 465
520.80469 2129.29248 -45.83415 477
565.87512 2351.00171 -24.53046 323
538.99933 2150.17822 -84.05000 466
532.75305 2121.12939 -45.17263 477
582.25366 2355.64307 -25.27380 428
550.85876 2141.20630 -83.32858 467
545.26416 2113.31470 -44.56439 478
562.68024 2132.21606 -82.76124 466
556.90106 2104.97607 -44.32329 478
574.54639 2184.83716 -14.11976 400
573.78009 2121.24878 -81.85214 323
568.51581 2097.72388 -43.83934 484
587.01837 2177.51660 -13.85002 493
586.12048 2174.04883 23.00687 493
584.73688 2109.70605 -80.88522 323
580.77191 2090.75635 -43.52496 458
599.08813 2171.43604 -13.97921 493
598.62134 2168.90942 23.29906 350
595.71216 2098.67432 -80.42186 325
592.39606 2084.33398 -43.23325 458
612.09723 2165.54834 -13.69857 494
642.23535 2290.32568 16.49673 494
606.53998 2087.19946 -79.53417 325
604.40790 2078.17114 -43.28520 459
624.62817 2159.29785 -13.62241 494
655.66864 2285.77393 16.55835 350
617.64215 2077.23145 -78.32951 327
616.82379 2072.19214 -42.57907 462
649.34143 2200.06030 -16.48457 292
628.92822 2067.54370 -77.92748 428
628.41071 2066.30176 -42.81892 462
679.16223 2259.94800 -20.90576 291
640.31720 2060.11279 -77.86016 429
640.55707 2060.39868 -42.74841 462
651.94727 2052.94092 -77.21921 433
652.51465 2054.69019 -42.36510 463
664.10229 2046.71265 -77.11073 433
664.27917 2049.30298 -42.25487 463
688.33148 2134.72656 -12.87061 324
675.52960 2040.27954 -76.48193 433
676.77191 2044.13660 -42.13100 463
700.26508 2126.91235 -12.36513 496
687.49854 2034.27625 -76.33467 433
688.23352 2038.32056 -41.46645 464
711.65234 2115.80518 -12.24402 496
698.95337 2028.11389 -76.30325 434
700.53656 2033.23889 -41.37003 464
723.82220 2109.73950 -11.66395 496
738.43829 2159.96240 95.79000 394
710.71649 2022.34546 -75.80125 434
712.49554 2027.42542 -41.30148 464
758.37915 2176.64062 -17.08211 345
753.58698 2161.31494 21.33607 497
754.87714 2165.59253 58.25142 339
748.32886 2144.61694 95.53311 476
722.47272 2015.78052 -75.60657 434
724.54608 2021.89941 -41.23965 464
763.30780 2145.21777 21.83431 497
761.47205 2140.30371 95.87440 496
734.31409 2009.92944 -75.51086 434
736.06079 2016.63232 -41.23573 390
776.97760 2142.76465 95.42319 448
745.92615 2003.41858 -75.37506 434
748.23480 2011.43591 -41.30729 390
786.71204 2128.58984 95.43349 497
787.47571 2130.38159 132.26936 497
757.07062 1997.53186 -74.92978 435
760.42957 2006.49622 -40.98051 390
814.47852 2167.44287 169.55188 497
768.77698 1991.84497 -74.65066 435
772.42474 2001.43665 -41.29115 390
780.70020 1985.58325 -74.84181 435
784.46338 1996.13293 -40.97522 391
798.02814 2036.24463 -8.78971 498
792.35510 1979.52393 -74.73937 435
796.27051 1991.07471 -41.07975 391
810.49829 2030.70740 -8.99477 498
803.79761 1973.54626 -74.21914 496
808.22479 1985.98547 -40.73806 391
825.92969 2035.88318 -9.39713 405
815.40991 1967.71033 -74.24063 496
819.91705 1980.98523 -40.81450 391
893.49249 2179.83594 -20.12129 391
827.08386 1962.33606 -74.30204 496
832.17535 1975.63904 -40.86763 391
838.73535 1956.65869 -74.19949 496
843.83948 1971.05164 -40.68348 391
849.72302 1950.73962 -74.10437 496
855.52252 1965.79150 -40.63716 391
861.44287 1945.27197 -73.49281 497
867.90320 1960.43787 -40.43273 391
873.04437 1939.40649 -73.51849 497
879.47565 1955.40076 -40.68271 391
905.90662 2020.35352 60.77554 381
906.24677 2021.91382 96.77414 499
884.78430 1934.10291 -73.80611 497
891.55835 1950.59363 -40.69476 391
954.90637 2105.18213 95.37048 499
964.06378 2126.53027 169.66994 498
896.19257 1928.01318 -73.29488 497
903.39050 1945.30774 -40.71631 391
907.94995 1922.52673 -73.53465 497
915.08313 1940.08142 -40.60368 391
919.36584 1917.01428 -73.68391 497
926.73041 1934.95532 -40.42113 391
930.72058 1911.14758 -73.04836 497
938.79291 1929.50989 -40.46767 391
942.54877 1905.64331 -73.02544 497
950.57666 1924.57849 -40.68554 391
954.13293 1900.34595 -72.99565 497
962.80536 1920.25452 -40.92890 297
965.21265 1894.51941 -73.34203 497
975.39941 1916.45215 -40.80688 297
976.66943 1888.84314 -73.40014 497
987.59381 1912.15503 -41.09607 297
988.56049 1883.37500 -73.06926 497
1000.08008 1908.13330 -41.29192 297
1000.08929 1877.78711 -72.93699 497
1012.39081 1903.93994 -41.06509 297
1011.42017 1872.18274 -73.08001 497
1121.83728 2095.99243 -59.06414 380
1022.96045 1866.14514 -73.09857 497
1038.42834 1897.22510 -41.33453 447
1034.26428 1860.65723 -73.44822 497
1050.08752 1892.39087 -41.56003 355
1099.68323 1989.87158 -14.14639 499
1046.18298 1855.18762 -73.12084 497
1161.20361 2078.95532 -59.26748 380
1057.71497 1849.71777 -73.33424 497
1174.22229 2073.15918 -59.21753 380
1069.21899 1844.23462 -73.23830 484
1190.03369 2071.21826 -59.82255 372
1082.06641 1841.78418 -74.07124 483
1095.98779 1839.99683 -74.54097 483
1109.24268 1837.69958 -74.82285 482
1122.74658 1835.58093 -75.08572 482
1136.53467 1833.37500 -75.67662 423
1151.06897 1832.51770 -76.35249 325
22231.54297 34907.24219 -1195.01135 1000
23016.40625 22869.76562 7699.80420 1000
25671.26758 23125.37109 5263.19287 1000
25399.69531 18480.31445 -3983.32544 1000
53259.87891 32192.12695 9370.64258 1000
44129.74609 25577.94141 -9121.46191 1000
1331.07947 714.45264 -56.31828 333
1328.02368 702.39178 -55.46605 489
1332.09253 704.64685 -32.03157 489
1335.86877 706.89734 -8.96099 457
1339.94348 709.03571 14.42427 453
1331.30762 694.28400 -55.26086 499
1335.21814 696.59332 -32.13708 484
1339.47937 698.92096 -8.73650 479
1343.92407 701.29657 14.53553 446
1339.08496 688.52899 -55.81508 446
1344.84729 691.38617 -32.55148 389
44038.57812 21354.52148 2543.41797 1000
23148.45312 10341.64551 2209.70728 1000
47163.77734 16741.93555 139.40349 1000
55831.38281 14210.99316 -13275.94629 1000
5495.79736 1132.77490 1516.94629 1000
166.29544 13.53528 110.78870 1000
4334.18213 568.03265 -148.43732 297
4568.26611 598.70410 -89.56897 318
4323.99805 540.06525 -147.77902 297
4535.10840 566.72009 -88.45206 451
4340.30029 515.21399 -148.47647 413
4523.95947 537.40704 -87.00878 451
4364.93506 491.83481 -149.20763 410
4514.12500 509.09631 -86.45254 454
4387.97363 467.56747 -151.64352 401
4504.02344 479.77719 -85.94220 344
4415.62256 443.96933 -152.36482 390
4489.02100 450.82819 -84.88689 306
4446.64941 419.36926 -154.09840 383
4476.92139 422.31442 -84.01230 306
4480.78076 395.72540 -156.22464 369
4464.38428 394.95139 -83.23286 375
4522.10449 372.51117 -159.14766 341
4493.16309 369.65164 -85.00570 398
4578.61133 348.66083 -163.53323 340
4534.50537 345.88446 -87.44855 362
4639.27441 325.22290 -166.99402 349
4594.81104 322.55286 -89.30592 352
4662.62744 298.81619 -92.94987 339
4726.11133 274.37418 -96.01505 348
4793.01074 249.31697 -99.01545 348
4862.34863 223.10286 -102.04166 347
3053.76758 -171.06567 -62.71919 473
3061.55615 -171.32565 -13.82497 495
3060.45142 -189.51491 -63.41812 357
21387.69727 -3756.07715 5173.03467 1000
3968.67456 -882.05365 -63.81637 480
4901.24121 -1346.12878 -31.07551 353
4843.51953 -1361.49951 -30.11592 455
13290.88672 -3780.88574 1030.87109 1000
4823.16553 -1386.11340 -29.90691 448
24120.18164 -7201.72217 -5288.35254 1000
4871.20752 -1432.12354 -113.98051 393
4804.75781 -1412.14758 -28.78646 420
4842.29199 -1455.27917 -112.44476 422
4786.16406 -1438.53979 -29.06317 425
4818.89893 -1480.17566 -112.06149 431
4769.21484 -1464.58093 -28.86344 397
4795.98145 -1505.43750 -110.92823 419
4752.47656 -1490.91455 -27.77842 404
4775.13232 -1530.82605 -110.87542 435
4735.25391 -1516.75269 -27.93889 409
4756.74658 -1556.48340 -109.29864 433
4718.59033 -1542.83459 -28.34063 409
4704.24414 -1569.78235 -27.47535 356
4689.69824 -1596.63550 -27.71089 357
4724.69287 -1609.28674 50.97906 495
4675.65234 -1622.78564 -28.04860 357
4694.18896 -1630.38135 52.54500 499
4659.62256 -1649.17322 -27.20080 358
4683.70459 -1658.51294 51.26984 499
4705.05518 -1666.17712 131.33624 422
1433.57373 -484.37094 464.88074 1000
4645.51074 -1676.00232 -26.92377 358
4672.80127 -1686.47876 52.40591 499
4691.55566 -1692.41345 131.26355 422
4631.17871 -1702.52161 -27.62947 414
4656.31982 -1711.98987 52.45536 499
4663.48584 -1714.67090 132.09784 499
4896.89453 -1801.92310 215.45192 479
4617.39160 -1728.58984 -27.07142 415
4644.66162 -1739.64526 51.90207 499
4667.07764 -1747.83594 132.34895 422
4603.46631 -1755.43591 -26.71167 415
4634.04980 -1767.05725 51.97245 499
4653.19727 -1775.40283 132.43454 423
4591.45850 -1783.33911 -27.14266 415
4627.86963 -1796.41199 51.49512 499
4640.29883 -1802.43457 131.88860 416
4579.00781 -1810.00415 -25.97284 442
4617.56543 -1824.83105 52.23689 499
4628.35400 -1829.09253 131.38451 422
4566.64600 -1836.87683 -26.38298 442
4605.70312 -1852.32324 51.66137 499
4616.14355 -1857.88550 131.28497 422
4554.37891 -1864.26294 -26.69387 442
4594.70703 -1880.14136 51.74901 499
4603.54883 -1884.20630 132.38133 423
4691.97168 -1921.10632 213.33144 477
4542.16211 -1890.25684 -26.56307 442
4808.44678 -2003.94714 47.38453 482
4572.50488 -1903.92090 132.12396 471
4696.84131 -1956.83582 213.78702 327
4530.18604 -1918.57788 -26.14885 475
4693.91650 -1989.11841 213.20137 344
4518.25098 -1945.59741 -26.50783 472
4690.26758 -2021.15942 213.69302 473
4506.53516 -1973.13025 -27.01942 472
4494.04150 -1999.36487 -26.27148 472
4482.86816 -2026.61987 -26.09290 497
4472.31689 -2054.22192 -26.31643 497
4460.38916 -2082.38208 -26.54768 497
4618.09961 -2158.03418 49.68445 447
4448.88770 -2109.76050 -27.21531 497
4441.84229 -2139.65576 -26.67970 499
4431.16406 -2166.95874 -27.28721 499
4417.45605 -2194.04028 -26.33888 498
4605.38477 -2289.66040 48.29405 435
4410.66455 -2223.42700 -26.62743 458
4501.72119 -2270.15405 50.41370 492
4486.87207 -2296.49976 -31.20013 460
4481.12061 -2294.14209 50.39028 492
4474.60889 -2325.00317 -29.99233 429
4465.54443 -2320.66333 50.34908 488
168.52774 -40.45461 123.78257 1000
29495.61133 -19788.31445 9005.76074 1000
3109.11426 -2251.19775 8.94591 493
3117.77856 -2258.21118 70.54491 488
2246.07397 -2062.43530 34.21216 369
2211.01367 -2053.64673 35.74007 370
2174.06714 -2042.96033 36.69067 368
2140.14185 -2034.67590 37.34822 369
2180.93018 -2074.88428 83.64542 369
2106.69409 -2026.31970 38.34061 371
2118.92603 -2038.36523 85.31779 377
2073.83252 -2017.14221 39.32606 292
2087.03882 -2030.65442 85.53086 363
2040.01355 -2007.87524 40.34045 341
2055.57031 -2023.45142 85.72942 370
2009.34277 -1999.73145 41.40022 384
1977.71252 -1991.56873 42.18092 335
2165.19775 -2189.28394 82.48804 271
1948.30334 -1984.05481 42.83941 387
2158.61157 -2208.89746 82.97149 351
1919.37427 -1977.19434 44.15915 388
1930.41431 -1989.56384 87.82056 391
1923.39319 -2006.78455 -1.47328 368
1890.19409 -1970.43140 44.94009 390
1902.18640 -1983.72571 87.93444 392
1895.25842 -2000.20410 -0.01855 369
1863.27686 -1964.45703 45.66232 359
1874.64795 -1976.80151 88.46587 394
1868.73181 -1995.33948 0.94394 370
1838.81812 -1961.08203 46.36819 371
1848.34802 -1972.37830 88.66161 423
1842.61475 -1990.68933 1.68530 368
1816.43762 -1960.20496 46.37148 427
1825.48169 -1970.67139 89.20208 430
1818.98499 -1987.81348 3.06456 386
1794.81030 -1959.15088 47.05490 439
1807.54138 -1974.57361 89.39869 489
1797.56946 -1987.82617 3.48871 393
1776.45996 -1962.73218 47.74125 442
1793.72546 -1982.50183 89.11797 484
1776.94592 -1987.34753 4.50095 402
1756.36475 -1963.91870 47.94486 443
1785.62927 -1997.84705 89.13157 434
1756.57129 -1988.91846 4.96457 404
1737.71436 -1965.46008 47.96869 450
1781.12000 -2017.11682 89.30754 433
1737.88831 -1990.80200 5.03910 405
1718.46130 -1967.28259 48.65148 454
1776.06836 -2036.92761 88.75070 432
1719.06799 -1992.10046 5.84435 405
1700.52295 -1969.87903 48.73717 463
1770.80994 -2056.20459 88.78516 431
1700.35400 -1994.87659 6.09937 411
1683.48523 -1973.37842 49.14358 464
1765.43127 -2076.06396 88.90762 430
1682.73425 -1997.72266 7.18177 422
1666.63049 -1976.98291 49.79952 461
1760.66199 -2095.34546 88.68314 430
1665.02271 -2000.19495 7.21431 422
1649.58459 -1980.77869 49.50459 462
1755.11133 -2115.18457 87.89564 426
1633.42017 -1984.95203 49.67559 463
1750.35352 -2136.14990 88.13225 428
1616.49109 -1988.76904 50.21775 463
1745.57117 -2156.66284 87.71146 427
1600.55725 -1992.54895 50.27931 462
1744.14990 -2183.14331 87.25751 270
1584.47668 -1996.89587 50.62820 464
1569.52380 -2001.91663 50.87771 461
1553.91211 -2006.91699 51.00581 458
1539.44690 -2011.81287 50.78065 459
1523.83118 -2017.14551 51.34914 459
22978.92578 -33190.46094 6786.95068 1000
30.47578 -3110.28149 127.84644 279
30.55133 -3104.76196 178.49605 419
30.10869 -3102.19482 229.88269 495
30.27213 -3099.47314 280.13724 498
30.39386 -3097.79907 331.34583 476
-260.42783 -2459.19336 251.34329 380
-259.91058 -2456.25684 291.84235 380
-259.64755 -2454.34570 332.73114 440
-551.31677 -1795.02600 99.24908 495
-550.38403 -1793.63647 130.24078 495
-550.09131 -1791.86816 161.37463 495
-549.58527 -1790.63770 192.80070 497
-548.79828 -1789.28320 223.65298 497
-548.32678 -1788.08228 254.92537 497
-547.82269 -1786.79077 286.16565 497
-6137.60449 -12309.84570 -1696.37793 1000
-10654.00195 -11367.73828 -2196.91333 1000
-35116.48438 -32924.61328 -3048.45874 1000
-3714.21509 -1731.54370 199.83640 497
-2427.20386 -1129.46094 131.62419 492
-2433.88013 -1132.04895 177.07362 491
-2442.06958 -1135.90417 222.81265 425
-2441.16382 -1116.66589 131.68227 370
89.89262 -3.07555 128.38612 314
88.91586 -3.32035 128.38518 310
89.92159 -2.98780 128.38594 314
88.94344 -3.22943 128.38718 310
89.95204 -2.90103 128.38596 314
88.97275 -3.13417 128.38788 310
89.98368 -2.81283 128.38527 314
89.00282 -3.04212 128.38513 310
87.88472 -3.30532 128.38496 306
90.01530 -2.72521 128.38766 314
89.03137 -2.94995 128.38536 310
87.91435 -3.20282 128.38580 306
90.04712 -2.64069 128.38574 314
89.06275 -2.85731 128.38649 310
87.94081 -3.10474 128.38721 306
90.07961 -2.55112 128.38618 314
89.09342 -2.76223 128.38582 310
87.97046 -3.00354 128.38701 306
90.11147 -2.46310 128.38687 314
89.12598 -2.66838 128.38622 310
88.00211 -2.90315 128.38628 306
90.14440 -2.37604 128.38707 314
89.15791 -2.57627 128.38660 310
88.03230 -2.80186 128.38564 306
86.73637 -3.06514 128.38759 302
90.18021 -2.28881 128.38544 314
89.18904 -2.48068 128.38634 310
88.06174 -2.70001 128.38690 306
86.76562 -2.95505 128.38818 302
90.21417 -2.20023 128.38658 314
89.22502 -2.38646 128.38623 310
88.09389 -2.59992 128.38704 306
86.79386 -2.84613 128.38501 302
90.24786 -2.11265 128.38730 314
89.25764 -2.29295 128.38533 310
88.12942 -2.49829 128.38707 306
86.82700 -2.73692 128.38553 302
90.28359 -2.02362 128.38550 314
89.29089 -2.19979 128.38667 310
88.16104 -2.39918 128.38695 306
86.85849 -2.62545 128.38611 302
90.32083 -1.93544 128.38692 314
89.32588 -2.10504 128.38609 310
88.19550 -2.29799 128.38687 306
86.88956 -2.51648 128.38507 302
90.35748 -1.84725 128.38571 314
88.01062 -2.22920 128.04401 349
88.01224 -2.23184 128.33699 350
86.92255 -2.40793 128.38521 302
90.39272 -1.75913 128.38661 314
87.78078 -2.16910 127.97867 348
87.78349 -2.17120 128.27426 348
86.95774 -2.29722 128.38503 302
90.43258 -1.67107 128.38603 314
87.54579 -2.10656 127.90715 346
87.54619 -2.10448 128.21048 347
86.99263 -2.18749 128.38628 302
90.46944 -1.58186 128.38708 314
87.30025 -2.03983 127.83624 345
87.30006 -2.03872 128.14145 345
87.02851 -2.07920 128.38818 302
90.50889 -1.49334 128.38632 314
87.14177 -1.95851 127.78824 310
87.11238 -1.96187 128.09024 444
87.06312 -1.97075 128.38477 302
90.54635 -1.40483 128.38547 314
87.17805 -1.85096 127.78737 310
87.01998 -1.86923 128.05995 443
87.02055 -1.86946 128.36870 443
85.57463 -2.06017 128.38834 298
90.58758 -1.31666 128.38766 314
87.21658 -1.74158 127.78938 310
86.92625 -1.77654 128.03085 442
86.92738 -1.77860 128.33919 442
85.60896 -1.93945 128.38766 298
90.62874 -1.22743 128.38669 314
87.25295 -1.62963 127.78906 310
86.83304 -1.68153 127.99703 441
86.83176 -1.67910 128.31120 442
85.64850 -1.82165 128.38475 298
90.66852 -1.13824 128.38799 314
87.29106 -1.52136 127.78881 310
86.73418 -1.58429 127.96471 440
86.73225 -1.58377 128.28258 441
85.68462 -1.70225 128.38538 298
90.70963 -1.04852 128.38637 314
87.33030 -1.41020 127.78602 310
86.63428 -1.48466 127.93286 439
86.63482 -1.48488 128.25220 440
85.72052 -1.58244 128.38625 298
90.75298 -0.96030 128.38728 314
87.37109 -1.30205 127.78811 310
86.53438 -1.38390 127.89981 438
86.53769 -1.38516 128.22371 439
85.76073 -1.46412 128.38651 298
90.79535 -0.87182 128.38620 314
87.41303 -1.19075 127.78878 310
86.43462 -1.28381 127.86921 437
86.43246 -1.28448 128.19183 438
85.80227 -1.34318 128.38458 298
90.83939 -0.78141 128.38548 314
87.45403 -1.08047 127.78875 310
86.33286 -1.17992 127.83336 436
86.33089 -1.17835 128.16095 437
85.84078 -1.22391 128.38516 298
90.88249 -0.69330 128.38547 314
87.49399 -0.97288 127.78949 310
86.28194 -1.06923 127.81242 489
86.28197 -1.07077 128.13962 490
85.88212 -1.10370 128.38710 298
90.92551 -0.60386 128.38660 314
87.53719 -0.86010 127.78734 310
86.25167 -0.95956 127.79698 489
86.25287 -0.95711 128.12437 490
85.92315 -0.98555 128.38792 298
90.96999 -0.51396 128.38750 314
87.58098 -0.75046 127.78877 310
86.25719 -0.84398 127.78596 306
86.22391 -0.84667 128.10971 489
85.96411 -0.86379 128.38809 298
91.01639 -0.42555 128.38544 314
87.62370 -0.63901 127.78695 310
86.30058 -0.72322 127.78895 306
86.19296 -0.73085 128.09451 489
86.00862 -0.74246 128.38733 298
91.06202 -0.33537 128.38637 314
87.66845 -0.53195 127.78918 310
86.34513 -0.60717 127.78866 306
86.16039 -0.61600 128.07854 489
86.05186 -0.62499 128.38857 298
91.10796 -0.24731 128.38741 314
87.71429 -0.42238 127.78804 310
86.38760 -0.48988 127.78679 306
86.12914 -0.50159 128.06133 488
86.09676 -0.50411 128.38687 298
91.15586 -0.15601 128.38666 314
87.75910 -0.31089 127.78912 310
86.43372 -0.36999 127.78845 306
86.09898 -0.38730 128.04382 488
86.10082 -0.38493 128.37640 489
91.20161 -0.06713 128.38667 314
87.80857 -0.19871 127.78836 310
86.48251 -0.25190 127.78592 306
86.06660 -0.26839 128.02692 488
86.06792 -0.26965 128.36220 489
91.25016 0.02350 128.38589 314
87.85253 -0.08902 127.78732 310
86.52759 -0.13324 127.78561 306
86.03622 -0.15123 128.01207 487
86.03661 -0.14767 128.34537 488
91.29847 0.11192 128.38644 314
87.90125 0.01967 127.78595 310
86.57608 -0.01659 127.78745 306
86.00392 -0.02821 127.99199 487
86.00504 -0.03057 128.33279 488
91.34831 0.20083 128.38748 314
87.94993 0.12972 127.78845 310
86.62604 0.10459 127.78883 306
86.02186 0.09000 127.98563 484
86.02055 0.09059 128.32341 485
91.39742 0.29086 128.38802 314
88.00040 0.24300 127.78923 310
86.67298 0.22323 127.78624 306
86.05260 0.21278 127.98202 485
86.05446 0.21471 128.31895 485
91.44854 0.37987 128.38623 314
88.05118 0.35153 127.78612 310
86.72533 0.34049 127.78748 306
86.08616 0.33436 127.97745 485
86.08624 0.33663 128.31938 486
91.49895 0.46887 128.38701 314
90.49291 0.46806 128.38629 310
86.77427 0.46096 127.78927 306
86.11732 0.45996 127.97736 485
86.11744 0.45775 128.31564 486
