# .PCD v.7 - Point Cloud Data file format
VERSION .7
FIELDS x y z rgb
SIZE 4 4 4 4
TYPE F F F U
COUNT 1 1 1 1
WIDTH 1214
HEIGHT 1
VIEWPOINT 6878.903809 -2742.187012 137.562180 -0.600906 -0.113545 -0.091991 0.785848
POINTS 1214
DATA ascii
85.22356 0.68160 128.38565 314
85.19076 0.75371 128.38658 314
85.15954 0.82866 128.38608 314
85.12666 0.90266 128.38602 314
85.09659 0.97567 128.38722 314
-194.73988 10.33210 53.29494 324
-194.68495 12.08123 53.28503 324
-275.68607 61.52648 37.01865 323
-291.51511 64.03500 39.80651 313
-258.10931 60.81940 35.15421 350
-272.70020 63.37263 37.71457 347
-288.58566 66.05806 40.38662 341
-256.20282 62.75299 35.52135 351
-270.68167 65.28574 38.10258 347
-286.69720 68.10555 40.78659 341
-16405.11328 2904.29346 950.20068 468
-254.32297 64.59563 36.03000 351
-268.83173 67.25362 38.48364 345
-288.12347 70.84077 40.41210 318
-16457.31641 3019.43018 675.29382 453
-16334.27246 2995.17944 944.77032 469
-252.50233 66.56287 36.34877 351
-268.46826 69.52811 38.47911 322
-16383.65234 3108.05225 677.00085 458
-16267.82227 3090.79834 943.46643 473
-250.59259 68.37611 36.77259 349
-270.48456 72.20605 37.90635 319
-16321.05273 3202.17188 671.79175 463
-16202.63086 3177.72998 942.76172 475
-252.51192 70.96239 36.22875 322
-272.68549 75.01711 37.23087 318
-16256.83594 3296.68286 672.59503 464
-16140.62402 3273.53003 939.68933 475
-254.51514 73.57468 35.52768 321
-16195.11230 3385.94189 669.95355 464
-16080.05664 3362.80640 939.99542 476
-16131.52930 3479.90161 670.57764 465
-16015.45215 3450.82251 936.03668 477
-16065.41895 3569.03345 669.74402 465
-15955.71387 3542.95435 935.06750 477
-16007.00586 3656.98193 665.30884 466
-15895.54688 3633.70703 933.25940 478
-15941.30469 3747.32227 663.66357 467
-15830.72852 3719.55835 931.28735 478
-5120.88135 1229.48499 170.74400 467
-15772.61523 3812.86377 927.91187 479
-15818.04492 3926.19385 663.26099 468
-15711.19043 3900.49976 926.36371 479
-15758.76855 4016.08813 662.62708 468
-15652.43457 3984.90503 923.96545 480
-15700.22461 4101.31055 659.87152 469
-15592.79199 4074.80688 923.89795 480
-15635.00879 4189.44189 661.45807 469
-15529.11230 4160.26514 920.95923 481
-15576.04688 4274.51562 658.33618 470
-15469.20703 4247.49756 920.28015 481
-15516.54688 4361.77734 659.74512 470
-15412.84375 4335.43408 919.99249 482
-15455.55078 4449.91553 656.78345 470
-15354.90332 4420.99316 916.49426 482
-15398.88867 4534.78809 654.21375 471
-15295.98242 4506.67432 916.64246 483
-15336.70410 4622.98633 654.79419 471
-15237.82227 4589.27490 913.43250 483
-15277.69727 4707.68262 653.33942 472
-15176.21191 4676.41260 910.95026 484
-15218.46094 4789.06250 652.12939 472
-15120.68555 4759.08252 910.63367 484
-15158.70508 4876.94238 652.84424 473
-15060.60645 4846.62500 909.15149 485
-15104.54980 4959.68115 651.95013 473
-15001.97363 4929.93457 908.35632 485
-15042.95996 5045.33740 647.67212 473
-14946.72852 5010.09570 907.66980 486
-14985.02930 5126.98291 648.33618 474
-14888.78320 5093.17529 905.61884 486
-14926.33984 5211.74707 645.86755 474
-14833.31348 5179.81250 902.40887 486
-14872.38379 5293.84521 648.40881 475
-14776.34375 5263.16504 902.22430 487
-14813.20605 5376.25586 647.38342 475
-14718.25977 5344.57275 902.19696 487
-37774.85156 13659.50781 4751.95752 1000
-14757.20703 5461.64648 646.62610 475
-14661.19238 5426.06836 897.75977 488
-14697.00488 5540.39648 644.83765 476
-14603.69336 5505.26758 898.37195 488
-14642.73047 5626.70898 645.52325 476
-14550.19629 5591.40869 898.80927 488
-14585.90527 5708.08740 643.88818 476
-14494.91406 5669.75098 894.94263 489
-14527.13477 5786.36523 644.28296 477
-14436.14062 5752.29346 896.95923 489
-14472.31445 5871.73584 642.47626 477
-14379.22852 5833.15381 893.20398 489
-15056.89844 6108.27002 1200.27673 480
-15112.75879 6127.66113 1470.30334 404
-14414.35449 5949.31104 639.99182 477
-14323.97949 5915.52783 894.07135 490
-14983.23145 6183.72559 1195.19800 481
-15031.44727 6204.93652 1467.49158 404
-15204.56152 6274.25781 2580.35376 1000
-14356.31250 6033.40283 638.84381 478
-14268.01562 5993.85791 892.58722 490
-14906.89355 6259.44385 1193.44116 481
-14953.37012 6279.61328 1465.16992 404
-14302.19434 6114.00684 639.01221 478
-14214.05566 6076.38184 892.15741 490
-14830.26270 6338.51611 1190.37805 482
-14874.24609 6357.06104 1462.35974 405
-14247.64355 6194.16455 640.74994 478
-14159.96582 6154.46387 891.67322 491
-14757.35938 6415.40674 1186.02173 482
-14800.07422 6431.85547 1459.48425 405
-14191.04102 6274.97852 640.61597 479
-14104.25977 6236.95898 888.77777 491
-14684.04297 6488.30225 1183.43237 483
-14724.40527 6509.24951 1453.42432 406
-14133.63672 6352.05518 637.27271 479
-14049.04883 6316.06250 887.85376 491
-14605.92578 6564.26221 1184.89087 483
-14648.20410 6581.17285 1452.85461 406
-14078.91406 6434.66748 637.22272 479
-13993.58496 6395.19727 889.89111 491
-14535.27148 6640.34668 1180.58691 484
-14572.52930 6656.33740 1446.28662 406
-14024.60938 6513.28564 635.12189 479
-13940.13379 6474.27881 888.45514 492
-14463.31445 6713.82324 1180.20703 495
-14496.25000 6730.79102 1447.50610 414
-13969.97656 6591.75781 637.68494 480
-13886.58301 6551.90625 885.65808 492
-14407.51758 6797.37646 1179.81201 495
-14436.93848 6812.66406 1444.51233 414
-13914.14844 6672.47803 634.14069 480
-13831.99316 6631.64062 884.83679 492
-14350.36816 6878.05811 1177.72363 496
-14381.55664 6892.28711 1441.15125 414
-13858.90527 6752.00781 635.50946 480
-13777.07129 6709.27002 884.92450 492
-14290.00098 6960.85205 1176.28101 496
-14320.20996 6972.87646 1442.59863 415
-13805.04199 6827.92334 635.33746 480
-13721.59375 6791.56738 885.83020 493
-14231.95117 7040.31299 1176.40784 496
-14263.36426 7054.47266 1441.57153 415
-13746.76660 6906.66260 635.67108 481
-13665.90723 6865.71436 884.24933 493
-14178.15918 7120.04590 1174.68250 496
-14205.90625 7138.84180 1436.84717 415
-13694.65723 6986.68457 632.45160 481
-13615.33496 6945.67480 885.22644 493
-14118.82031 7200.86768 1172.90686 497
-14149.09863 7218.47656 1438.31262 415
-13640.57129 7065.67139 635.35767 481
-13560.40625 7026.47217 883.00439 493
-14060.78125 7284.79199 1170.49280 497
-14090.33496 7295.59814 1434.25281 415
-13585.12695 7146.63281 635.07629 481
-13506.65820 7102.20801 882.93823 493
-13933.43750 7325.52197 1164.52637 394
-14033.67676 7380.75049 1433.90503 415
-13527.17188 7221.53467 633.32214 481
-13450.33398 7181.90820 880.34644 494
-13876.83301 7405.52051 1163.77600 394
-13974.83496 7460.08691 1435.42078 416
-13473.37402 7299.26904 631.00391 481
-13397.11719 7261.08789 879.16168 494
-13822.16113 7485.78906 1163.61694 390
-13918.93555 7538.09814 1434.19824 416
-13420.86523 7379.84961 631.17078 482
-13343.68262 7336.12207 881.79431 494
-13764.16699 7566.55859 1163.75098 390
-13860.47168 7618.92920 1432.54321 416
-13999.83887 7694.49121 1708.90698 412
-13367.54199 7456.87402 633.47607 482
-13291.56250 7413.55420 881.70697 494
-13707.98340 7647.79199 1163.64209 390
-13805.43359 7699.83936 1431.16284 416
-13933.35059 7770.00049 1707.22974 485
-13937.31934 7771.18262 1973.34839 367
-13313.19531 7534.98438 632.61658 482
-13237.36035 7494.28467 879.71045 494
-13718.76953 7764.04297 1166.95874 498
-13737.99219 7775.53174 1429.00793 442
-13732.38281 7769.32324 1688.71313 442
-13258.74902 7611.61572 631.80463 482
-13182.64941 7569.18506 877.85461 494
-13629.60645 7825.90479 1165.05969 443
-13623.26270 7819.01123 1424.91638 443
-13618.03125 7818.08496 1685.05640 443
-13202.73926 7691.38867 633.22375 482
-13130.75195 7646.41895 877.46643 494
-13512.76953 7867.16064 1159.24304 444
-13507.35742 7864.84277 1417.34924 444
-13499.54395 7860.00391 1677.00464 444
-13148.77832 7766.79980 629.40533 482
-13074.82227 7725.64209 878.69427 495
-13396.00977 7913.00732 1155.02625 445
-13392.36719 7909.35986 1411.69861 445
-13384.61230 7905.17822 1668.05957 445
-13094.67676 7844.10303 630.38397 482
-13022.47656 7802.78125 878.38763 495
-13309.13574 7974.02246 1152.72607 499
-13304.39453 7968.12744 1407.57031 498
-13298.88477 7967.31934 1663.34607 498
-13532.12793 8105.46777 1953.74438 452
-13041.87793 7923.17969 631.71338 483
-12970.62012 7878.50146 879.97357 495
-13255.09277 8051.74121 1150.09558 499
-13248.09863 8047.99854 1405.47131 498
-13242.87988 8043.63086 1662.31482 498
-13477.24512 8185.95850 1954.01794 452
-13915.11426 8448.52246 2280.55811 409
-13906.08301 8445.71582 2553.74512 409
-13897.56934 8440.10254 2828.78271 484
-13892.26465 8436.67969 3099.64526 483
-12988.15723 7999.68555 631.63049 483
-12914.54199 7958.16553 877.13147 495
-13200.94922 8129.70312 1150.70508 499
-13166.92578 8109.31885 1403.06409 499
-13185.32129 8121.46338 1660.03723 498
-13351.63184 8224.73242 1942.88147 490
-13344.05469 8219.15527 2201.50122 490
-13337.07812 8216.49316 2464.47339 387
-13332.55664 8213.01562 2726.70166 386
-12933.07227 8078.07666 630.11017 483
-12864.19531 8033.00000 877.71619 495
-13143.53516 8205.69824 1147.55933 499
-13113.77148 8189.61035 1403.05627 499
-13132.52246 8198.63086 1661.56177 498
-13361.54102 8345.53711 1949.11890 452
-13429.33203 8384.59766 2222.32007 485
-12877.89941 8154.84912 629.36774 483
-12810.29590 8110.73828 879.42157 495
-13087.34082 8284.45410 1150.44653 499
-13056.73828 8264.03613 1401.45142 499
-13077.22070 8277.47168 1661.30896 499
-13308.69434 8425.47363 1949.57373 470
-13372.27441 8464.29883 2224.36548 485
-12823.28613 8231.97949 631.68091 483
-12756.86523 8187.76611 875.73297 495
-13031.88184 8364.72949 1150.71497 499
-13000.04688 8342.90137 1402.71863 499
-13022.30762 8355.60254 1661.36499 499
-13249.20605 8501.26367 1950.73315 470
-13318.65430 8546.83984 2223.09375 485
-12770.55957 8307.46387 631.32043 483
-12704.51270 8263.40430 878.72815 495
-12976.97168 8444.34668 1149.94788 499
-12945.87012 8423.37891 1403.03979 499
-12963.77344 8435.42773 1661.75146 499
-13194.03027 8579.27246 1946.74939 470
-13259.56055 8625.58105 2219.45068 485
-12715.39551 8386.61035 629.64423 483
-12649.56836 8343.64160 877.87665 495
-12921.29785 8520.62402 1150.09827 499
-12890.68848 8500.19727 1401.03955 499
-12909.62988 8510.51270 1659.61182 499
-13136.67188 8658.16602 1948.35742 470
-12662.55273 8460.78516 631.12201 483
-12595.41211 8417.30664 875.93268 495
-12867.24121 8600.07324 1147.46497 499
-12837.81055 8576.49414 1401.43823 499
-12853.71484 8588.87207 1660.63647 499
-13076.74414 8737.44824 1947.60571 470
-12608.46094 8540.95605 630.97443 483
-12541.35449 8496.70996 878.93927 495
-12814.97363 8674.79688 1148.54358 499
-12806.15039 8671.59961 1401.90125 499
-12729.44629 8618.32520 1651.85620 266
-13021.50684 8818.15918 1944.79370 472
-12554.86621 8616.58887 629.50391 483
-12491.95703 8571.27246 878.44122 495
-12756.18359 8752.50977 1145.96106 499
-12752.25391 8748.33789 1401.27246 499
-12668.06641 8690.78711 1649.38794 266
-12964.47656 8897.72168 1948.07666 472
-12499.38477 8693.62598 629.56757 483
-12435.45703 8648.19434 877.56885 495
-12702.63867 8833.15820 1146.70068 499
-12695.14648 8826.07227 1404.22021 499
-12603.93457 8765.19824 1650.43579 266
-12909.03320 8976.15918 1946.85229 472
-12445.99512 8768.21680 628.06403 483
-12385.63086 8724.74805 875.32861 495
-12647.24414 8911.16113 1148.01477 499
-12639.63770 8907.35254 1401.10425 499
-12539.83594 8835.09668 1647.69055 266
-12853.20898 9054.25488 1946.49219 468
-12394.78418 8849.96875 629.24536 483
-12330.77637 8803.68359 877.60522 495
-12593.75000 8986.68555 1146.71924 499
-12585.48926 8981.22949 1404.57349 499
-12479.66992 8906.35938 1646.26733 266
-12800.41797 9134.99512 1944.67053 468
-12337.27051 8925.94434 629.27826 483
-12278.01660 8880.53516 879.41296 495
-12537.69141 9068.23535 1146.68188 499
-12529.61914 9063.20996 1401.94861 499
-12413.64746 8976.15137 1646.06494 266
-12742.15137 9213.82520 1945.61011 468
-12287.71191 9001.68457 631.31213 483
-12221.07227 8957.73633 876.24103 495
-12480.29785 9142.35449 1146.31873 499
-12473.53516 9138.07617 1405.42456 499
-12372.01367 9065.99609 1646.91211 348
-12687.13379 9295.53809 1945.34766 468
-12233.93262 9077.07422 630.96509 483
-12171.07422 9031.56934 876.80377 495
-12466.07617 9248.55078 1150.50464 478
-12468.87891 9250.87109 1409.75830 459
-12485.90234 9267.93457 1667.70911 454
-12658.24414 9395.33301 1950.08203 458
-1815.97253 1426.38257 92.16966 438
-1820.16089 1428.96997 131.49771 439
-12176.15137 9157.17969 628.88794 483
-12117.94336 9108.28125 879.12164 495
-12435.65918 9349.63477 1154.80029 477
-12459.84180 9367.75391 1412.22778 458
-12480.91211 9379.55078 1675.96912 453
-12627.59277 9493.05762 1956.15491 448
-1806.12524 1437.11426 92.38378 492
-1810.28430 1440.07776 131.77046 462
-12121.70703 9233.43066 628.57843 483
-12061.86914 9188.44141 875.79187 495
-12407.13379 9447.90820 1154.63794 477
-12446.08594 9477.33008 1417.64856 476
-12475.68262 9498.90234 1681.08459 452
-12070.69238 9310.14062 631.68341 483
-12011.99512 9262.47461 877.92719 498
-12379.08984 9545.02832 1157.16736 476
-12414.60254 9573.17676 1419.32092 475
-12017.53809 9385.33789 631.30615 483
-11958.04102 9341.69727 877.17328 497
-12351.81250 9645.17676 1161.80566 476
-12388.01172 9672.82715 1425.26929 475
-11961.81934 9463.64551 630.73798 483
-11905.05176 9418.43457 879.21637 497
-12322.07910 9748.82129 1163.98120 475
-11907.94629 9542.40625 629.53369 483
-11851.21875 9497.51660 877.73535 497
-12290.34082 9848.24707 1166.62695 475
-11851.92676 9618.27051 629.92065 483
-11797.47363 9571.08301 880.15515 497
-12257.89160 9945.80762 1168.21875 444
-18727.16016 15343.65332 -269.13574 1000
-11799.41797 9697.20605 632.74536 482
-11742.09277 9649.14062 881.21222 497
-11746.54980 9772.31738 631.72321 482
-11688.70312 9729.00000 878.40533 497
-11688.85840 9851.05664 630.97003 482
-11635.22949 9807.19727 880.46240 497
-11634.44629 9928.52539 631.12177 482
-11580.62988 9884.24805 882.54803 497
-11582.03613 10006.80566 634.94836 482
-11530.86719 9961.87012 883.52783 496
-11526.90723 10082.25293 631.22266 490
-11474.05469 10035.96777 883.73889 496
-11472.16016 10161.37598 634.49951 490
-11421.26074 10116.76367 884.35303 496
-11417.16699 10239.00586 634.37091 489
-11367.66895 10194.15625 882.26324 496
-11363.60938 10318.79102 634.31287 489
-11311.98535 10271.94238 884.72382 496
-11311.52832 10397.53711 635.50970 489
-11260.11328 10349.51562 884.54993 496
-11253.26270 10475.70410 634.30402 489
-11207.06641 10430.23535 884.51849 495
-11201.94043 10552.78613 636.44232 489
-11151.54785 10509.00488 887.80841 495
-11147.58789 10632.17773 635.94287 488
-11096.89648 10586.36328 887.57690 495
-11090.17480 10711.79785 636.11273 488
-11040.43848 10663.90723 886.37878 495
-11037.12695 10793.22266 635.97772 488
-10986.93555 10744.42676 889.88721 494
-10983.23633 10869.20508 636.76324 488
-10930.94043 10823.06543 889.90369 494
-10924.33691 10948.82715 637.71332 487
-10876.66699 10902.67383 890.98865 494
-10871.98633 11029.58594 641.22083 487
-10821.76074 10979.56738 892.76630 494
-10814.77148 11107.39551 638.92456 487
-10768.87793 11063.33301 889.74127 493
-10757.43457 11188.36230 639.15894 487
-10711.39453 11138.79785 893.42889 493
-10701.47754 11267.16309 640.89209 486
-10658.07031 11219.10547 894.23932 493
-10649.58301 11347.48340 642.51007 486
-10601.15625 11298.92188 894.45807 492
-10589.17578 11428.74707 642.04620 486
-10548.04785 11384.18066 895.25476 492
-10535.33984 11509.62012 642.11304 485
-10491.98730 11461.92188 895.40265 492
-10479.91113 11589.39355 645.54590 485
-10436.24121 11541.60059 896.88873 491
-10421.76953 11669.93262 643.08997 485
-10378.78320 11625.68359 900.33160 491
-10365.39648 11753.88965 646.25250 484
-10322.76953 11705.27734 898.09485 491
-10309.93652 11835.87500 645.08423 484
-10268.14941 11786.65234 899.52698 490
-10248.99121 11918.10352 648.94617 484
-10209.32812 11866.34375 904.15790 490
-10193.79883 12000.48340 646.57318 483
-10153.85156 11952.25586 904.07654 490
-10141.70703 12083.44922 647.01740 463
-10096.76367 12034.88379 906.21594 487
-10091.06738 12179.04395 650.99994 463
-10042.39551 12120.34473 907.27655 487
-10041.34082 12274.45117 651.76666 462
-9986.79688 12208.50977 907.63544 486
-9993.57422 12366.30762 652.25049 462
-9933.39062 12295.31250 907.89655 486
-9943.53711 12463.44727 654.56152 463
-9876.91992 12381.01172 913.55725 485
-9898.06934 12561.74707 655.32770 462
-9827.44238 12474.31445 912.85065 468
-9847.57812 12657.89746 657.54364 461
-9778.81934 12570.09766 915.16345 467
-9795.42090 12754.40918 660.57922 461
-9734.54297 12670.40137 920.03748 468
-9752.51172 12859.86426 659.41681 419
-9686.41211 12774.26562 921.31586 467
-9721.55078 12980.39062 664.24493 418
-9642.16309 12875.26465 923.55334 466
-9686.97559 13105.36426 667.68896 418
-9596.54590 12982.53613 926.20679 466
-9657.04883 13230.20898 668.37988 395
-9548.58984 13087.86426 930.07703 465
-9627.16797 13365.59863 673.34784 395
-9503.67969 13194.14453 933.38031 464
-9609.92676 13507.96289 673.61609 368
-9458.38281 13296.70410 934.03857 463
-9595.54004 13668.74707 681.65143 367
-9415.05371 13417.37695 939.92999 407
-9603.66406 13860.22266 682.54529 299
-9398.00098 13562.60645 944.12714 406
-9377.12305 13716.54785 950.19275 404
-9358.58301 13869.18066 954.12946 403
-9339.84570 14024.40527 962.38660 402
-9379.39355 14270.04980 973.22778 333
-222.84021 2270.11182 94.31597 386
-206.48148 2251.74219 95.25015 389
-196.69475 2286.30908 56.52613 352
-190.29332 2235.63892 95.53515 386
-5582.08691 45007.38281 875.66534 1000
-174.80817 2220.06665 59.00670 360
-175.16135 2221.14307 95.46791 387
-164.76083 2256.62256 20.47360 303
-158.63982 2201.48291 59.47479 361
-159.66107 2210.92236 95.48780 365
-148.07487 2232.12549 22.17661 402
-143.58861 2184.38013 60.29723 413
-145.28217 2203.04370 95.88942 366
-133.23694 2216.23560 23.06660 403
-128.73547 2171.80005 60.78543 437
-130.86111 2195.96533 96.10432 365
-117.69165 2200.49316 23.82155 433
-113.91270 2161.54126 60.78622 438
-117.49431 2193.76929 96.01611 304
-103.49934 2190.06738 24.32066 434
-100.05861 2151.15088 61.38236 439
-115.50728 2326.26880 94.20187 475
-88.70738 2179.69702 24.99635 435
-85.99063 2141.10620 61.69879 440
-101.40102 2328.07690 94.24265 376
-74.87805 2169.34790 25.39180 438
-71.89989 2132.47314 62.00600 455
-87.32281 2332.64380 93.72635 376
-60.95807 2159.48657 25.79198 439
-58.18934 2124.61597 62.32261 455
-73.08144 2336.67432 93.92379 380
-46.68981 2150.86084 26.22610 445
-44.54628 2117.33203 62.99825 456
-59.13179 2343.54297 93.66673 325
-33.23533 2142.12964 26.73908 446
-31.31069 2109.59619 63.18510 457
-45.01960 2353.49829 93.79472 431
-18.95002 2130.09497 27.60773 309
-17.87395 2102.34692 63.51290 458
-5.66323 2114.70117 28.29277 309
-4.83754 2095.28174 63.79618 437
7.95865 2100.15747 29.12542 317
8.20885 2088.99609 63.75087 443
21.36425 2089.03833 29.66377 318
21.79200 2083.79590 63.83562 444
18.94244 2167.37280 96.63172 480
18.78463 2163.10376 131.94371 348
34.26697 2080.92285 29.94426 411
34.27505 2077.93237 64.41708 444
32.44818 2162.72290 96.50527 481
30.61440 2222.78394 132.28984 296
47.45573 2073.17676 30.16297 416
47.28049 2072.65771 64.36747 445
45.56618 2157.23267 97.15024 482
59.92113 2066.20435 30.53126 417
60.30803 2067.59985 64.76582 450
58.71002 2153.08374 96.68365 467
73.12004 2059.75146 31.18019 418
72.91831 2063.02051 64.91734 450
71.94257 2183.94165 96.39899 322
85.48127 2053.26392 31.19117 418
85.14771 2058.19995 64.65981 451
84.99128 2219.40552 96.20206 321
98.18523 2046.75720 31.81290 425
97.94749 2053.60059 65.08253 452
98.82371 2248.90454 95.35681 327
110.47958 2041.50073 31.69505 425
110.77419 2049.39111 65.00905 382
123.18983 2036.60388 31.89009 426
123.16655 2045.79224 65.09280 382
135.19978 2031.65625 32.33994 426
135.78040 2041.68201 65.36251 383
137.64381 2127.41382 97.45989 485
147.87471 2026.54712 32.83696 484
148.13618 2038.05444 65.55266 383
150.15477 2116.32471 97.28441 486
159.67928 2021.99158 32.68246 484
160.22343 2033.92603 65.85844 383
163.19322 2112.01880 97.53250 486
172.18912 2017.02332 33.12389 485
172.83618 2030.11108 65.97135 383
176.77010 2138.59717 96.91161 328
177.49344 2148.45923 202.28687 456
184.47150 2012.63245 33.49089 485
184.98056 2026.65979 65.87895 384
191.81793 2181.16309 96.47234 487
191.31932 2167.78369 132.33420 434
191.54439 2164.07202 167.84402 487
190.33495 2142.06104 202.13138 497
196.26309 2007.79395 33.71525 486
197.15366 2022.48462 66.05161 384
203.72914 2143.26733 202.43382 469
208.71918 2003.45801 33.58150 486
209.23933 2018.57825 65.94862 384
217.60277 2154.30811 203.10223 381
220.69890 1998.98425 33.75935 487
221.38582 2014.84961 65.94357 384
232.20148 1994.23914 33.76689 487
233.64235 2011.26868 66.18922 384
236.26744 2048.24927 98.47372 489
244.54495 1990.01050 34.31922 488
245.78522 2007.06335 66.09212 385
248.37917 2044.08838 98.41260 490
256.40750 1985.47510 34.10981 488
257.98215 2003.51233 66.33171 385
261.05521 2039.26941 98.60867 490
268.36749 1980.65588 34.39235 488
269.62589 1999.61340 66.71772 385
277.35126 2080.05908 98.33263 309
280.03647 1975.96973 34.49313 489
282.02478 1995.23877 66.83824 431
294.37323 2126.12671 97.35160 315
291.94702 1971.81226 34.94772 489
294.10651 1992.69568 66.90182 294
312.65137 2173.89771 96.72871 320
303.34503 1967.50195 35.14286 490
306.02008 1990.50330 66.43072 294
329.18723 2204.71143 95.98397 432
315.03088 1963.20337 35.12658 490
318.10748 1988.53735 66.54180 294
331.31003 1993.52332 0.56360 453
326.97336 1958.42480 35.39006 490
330.20184 1986.59363 66.87617 294
342.89340 1989.04407 1.00953 453
338.16278 1953.92773 35.69759 491
351.02859 2055.52563 64.48006 307
349.42642 2039.08740 132.36942 407
349.24203 2037.54712 166.01408 493
349.69214 2040.91821 199.30814 301
354.70261 1984.02515 1.14562 453
350.14301 1949.37964 35.76028 491
371.12790 2108.82983 62.33866 305
362.45087 2044.73730 199.69705 498
363.96436 2053.15576 301.91498 320
366.16501 1979.41028 1.52052 454
361.53516 1944.96069 35.71230 491
367.02664 1983.41772 66.65577 438
393.66714 2172.95630 96.52231 315
391.41003 2159.86450 132.06635 493
386.91699 2126.27246 202.48180 498
377.90134 1975.02161 1.29443 454
372.85049 1940.77258 35.94299 492
378.55270 1978.15686 66.83012 453
403.12979 2146.43799 203.21101 303
389.83084 1969.86743 1.75004 454
384.55457 1936.77454 36.14506 492
390.49704 1974.99304 66.68410 444
401.28238 1965.37708 1.77592 454
395.89346 1932.08740 36.03092 492
437.10565 2189.65063 59.75755 376
412.78012 1960.83789 1.82203 455
407.23151 1927.87585 36.33939 492
449.77307 2185.69849 59.74201 376
424.56219 1956.13928 1.92056 455
419.14218 1923.63794 36.63691 492
462.70218 2181.15894 59.52925 377
435.72229 1951.42773 2.54336 455
430.48193 1919.63501 36.58207 493
476.37775 2177.80640 59.59626 321
447.29974 1947.10645 2.47830 456
441.71921 1915.03577 36.59044 493
489.19791 2174.47852 59.83036 321
459.00729 1942.24915 2.72787 456
452.82654 1910.95435 36.64874 493
502.40854 2170.66626 59.90615 321
470.49597 1937.33154 2.93085 456
464.55371 1907.10217 36.59203 493
515.30621 2167.58398 60.07971 321
481.71881 1932.89905 3.05111 456
475.56516 1902.89551 36.85229 494
528.87482 2164.19653 60.20623 321
493.23407 1928.59338 3.02590 457
487.04599 1898.49243 36.94261 494
541.45691 2160.60938 59.87853 321
504.42838 1924.02136 3.11013 457
498.38220 1894.55945 37.33378 494
555.06714 2157.60327 59.96861 321
532.89020 1995.03992 -1.46152 281
509.40250 1890.45093 37.19078 494
541.79218 2035.03748 64.22523 343
552.96411 2028.61926 -3.85872 497
520.76740 1886.11755 37.05356 494
553.89697 2030.35596 63.88377 402
553.42542 2030.10913 98.28873 403
538.16357 1907.94946 3.92392 331
531.98358 1882.44336 37.47605 494
593.41840 2143.17749 60.49059 497
560.92822 1951.91455 0.85075 497
543.95319 1881.59302 37.39900 493
555.75830 1880.81689 37.06803 493
567.85162 1880.32690 36.83423 493
580.09125 1879.83972 36.60290 464
592.74078 1879.49377 36.65237 464
604.80597 1879.38599 36.38644 392
679.58960 2102.02734 24.78298 473
693.21552 2100.97949 24.89974 473
15385.22266 43913.26172 -2151.05322 1000
905.46588 809.66577 -18.74447 417
909.23492 813.33362 -0.14820 417
907.70892 801.88184 -18.07269 494
910.35852 804.64948 0.68184 494
913.17151 807.34393 19.42922 466
916.34076 810.46106 37.88156 462
920.59082 814.41449 56.68814 348
912.28583 796.59943 -18.04029 498
914.89197 798.97833 0.55130 497
917.29163 801.44470 19.44709 497
919.92041 803.61041 38.13062 497
922.25806 806.10779 57.22562 496
919.16589 793.08319 -18.35794 476
922.00275 796.06952 0.11984 432
924.86859 798.59473 18.86449 431
930.76953 804.48431 37.53539 351
930.92078 794.63007 -19.62880 298
12971.97070 10522.72754 -949.39581 1000
10959.73438 6299.55273 -892.30103 1000
44717.77344 18020.07422 3305.86743 1000
3858.52051 932.96454 -57.29130 396
3868.67285 910.98621 -56.94059 444
3886.27124 890.39795 -57.52677 441
3904.67944 871.01685 -58.42678 440
3925.06958 850.44751 -59.62674 441
3945.64136 829.94073 -60.66795 440
3967.19141 810.09100 -61.20717 441
3989.86621 789.54395 -62.18782 430
4016.94702 769.69958 -63.21492 425
4046.03418 750.90930 -64.23189 423
4078.25000 730.84821 -66.28374 401
4118.20605 713.02869 -67.44746 371
4172.07275 696.84894 -70.15752 360
4221.65674 678.60138 -72.02258 358
4278.10352 661.77930 -74.42522 357
4336.39307 644.19189 -78.08194 356
4397.01221 625.67218 -79.99843 354
4470.08594 609.13226 -84.33188 349
2709.89233 105.02094 -82.49277 456
2721.37695 105.80323 -40.09869 345
2707.61841 88.32461 -82.25154 483
2716.51196 88.96285 -39.56334 475
3672.76538 -543.48364 -104.68707 480
3683.09961 -544.24249 -45.38219 388
31520.90820 -4965.00537 2746.12109 1000
33604.21484 -6353.27539 -1538.92102 1000
1658.38086 -296.95676 395.98044 1000
4636.00293 -918.99841 -95.64197 355
4589.86963 -938.47864 -92.57275 472
4572.72412 -963.96759 -92.87208 475
4555.49854 -989.25275 -91.48877 480
4536.38525 -1014.01776 -91.17226 481
4521.61475 -1038.92419 -91.14511 486
4507.22363 -1063.50562 -90.58250 487
4493.76416 -1088.96045 -90.35522 470
4480.97119 -1114.97388 -89.56149 471
4468.63086 -1140.72070 -89.46706 440
4527.89795 -1155.60620 57.54114 273
4457.20117 -1166.71143 -89.13703 440
4471.80420 -1169.65503 58.38726 470
4447.23926 -1192.14136 -89.57719 416
4520.40527 -1211.69214 -18.12495 315
4462.01562 -1195.61914 58.27984 479
4438.39453 -1218.75867 -88.62975 416
4464.93262 -1226.51074 -16.20513 499
4454.04346 -1222.80725 59.03732 479
4428.02832 -1244.70288 -89.17635 417
4458.25586 -1252.61389 -16.12638 499
4446.32324 -1249.83105 58.76444 479
4419.02148 -1271.06165 -88.80101 417
4449.75879 -1280.04065 -15.77890 499
4438.20020 -1276.35229 58.70209 479
4409.58496 -1296.96228 -88.63515 418
4435.90967 -1304.48804 -15.90605 499
4430.02490 -1302.10925 58.94067 479
4401.78613 -1323.63159 -89.21768 418
4429.17529 -1331.47437 -16.52086 499
4422.17090 -1328.99377 58.20024 479
4393.20801 -1349.52380 -89.11921 419
4421.77100 -1357.85327 -15.52993 499
4414.56006 -1355.62878 57.92413 479
4384.96924 -1376.21191 -89.04675 419
4417.44434 -1385.95789 -16.22089 499
4406.42822 -1383.04529 58.73047 479
4377.16260 -1402.32251 -89.25729 419
4409.62402 -1413.47083 -15.88029 499
4398.28320 -1409.29211 58.44775 479
4368.91504 -1428.27979 -89.32471 419
4402.36475 -1439.94031 -16.01017 499
4389.52002 -1435.45129 58.18851 479
4361.32373 -1455.02698 -89.74281 419
4393.44434 -1466.72974 -15.89991 499
4382.10254 -1462.70435 58.59747 479
4473.22461 -1493.66541 132.83316 461
4352.40332 -1481.89771 -89.07645 419
4386.17432 -1492.89526 -15.83842 499
4373.30225 -1489.30151 57.93575 479
4481.49805 -1526.29041 132.30786 478
4345.12598 -1508.10889 -89.56207 419
4368.02637 -1516.51978 58.73082 438
4336.37451 -1535.00598 -89.67320 419
4495.58936 -1592.05164 132.78572 485
4328.37744 -1561.30334 -88.99451 419
4493.77783 -1621.80835 132.57487 474
4569.48242 -1776.94116 -104.37796 268
4318.84082 -1706.26318 -91.84612 271
4278.98096 -1720.29346 -89.55419 396
4270.79346 -1747.72461 -90.01918 396
4262.90527 -1774.09460 -90.13103 396
4253.65625 -1801.11462 -90.74804 395
4246.20068 -1828.13928 -90.63039 395
4314.55420 -1889.05396 -94.32461 494
4297.10693 -1912.14270 -94.58809 494
4325.09229 -1924.55579 -20.41108 281
4294.18115 -1941.17419 -94.70903 477
25178.35156 -11973.37207 7096.50049 1000
944.76245 -543.02441 231.50690 1000
2940.47974 -1968.46191 -94.81616 475
2948.57959 -1973.04236 -38.72256 474
2936.12769 -1990.08521 -95.43766 354
2112.12842 -1910.80688 -50.26038 349
2074.85669 -1898.70105 -48.31794 353
2044.76038 -1893.16931 -46.53682 368
2045.40735 -1893.35986 -1.71785 358
2012.84045 -1884.75110 -44.14963 368
2015.18237 -1886.97107 -0.46324 319
1981.17712 -1876.74463 -42.24242 369
1986.05920 -1881.13672 1.12506 319
40047.01172 -39763.58594 2900.87549 1000
1950.29224 -1869.17615 -40.68181 370
1957.13904 -1875.70947 1.63136 320
1920.85327 -1861.48584 -39.44379 372
1930.51501 -1871.18994 3.14288 274
1891.11072 -1853.81982 -37.58382 373
1907.35791 -1871.23914 4.18866 256
1862.09412 -1846.39014 -35.40283 374
1874.96582 -1859.93103 5.34477 408
1833.92444 -1839.42334 -34.07454 371
1990.28589 -2004.96948 -3.68276 259
1807.20581 -1833.78796 -32.97346 364
1809.10034 -1835.75671 8.55276 383
1807.53992 -1856.49707 -75.47587 377
1779.65845 -1826.44641 -31.13395 365
1782.72900 -1830.06152 9.16520 384
1782.22217 -1851.94446 -73.58139 369
1752.49219 -1818.88257 -29.25935 367
1756.33655 -1823.77405 10.35075 386
1755.93677 -1845.67993 -72.05099 370
1725.77905 -1811.99036 -28.22343 368
1730.50989 -1817.78735 11.35813 387
1731.49646 -1840.83923 -69.83785 370
1701.39685 -1807.19189 -26.90902 383
1706.27209 -1812.88904 12.81845 398
1707.56689 -1836.88782 -68.76865 364
1679.32471 -1804.30945 -25.34765 394
1685.31079 -1810.67395 13.61910 419
1684.02209 -1832.72424 -67.12858 374
1658.23340 -1802.96155 -24.63886 396
1665.21582 -1810.33496 14.11703 430
1663.37280 -1831.08801 -65.80458 387
1639.01489 -1802.36694 -23.75571 402
1647.50378 -1812.80774 14.81134 445
1643.53235 -1830.18616 -65.06495 394
1620.09631 -1802.37231 -23.09842 405
1634.12439 -1819.26282 14.64839 289
1624.56567 -1830.50098 -63.83618 403
1601.83643 -1802.68372 -22.28697 395
1629.31921 -1835.89502 13.92098 290
1605.93030 -1831.26208 -62.82834 405
1583.95422 -1803.96863 -21.29095 456
1626.48828 -1855.09802 13.61203 290
1588.89343 -1832.59058 -61.92539 405
1566.81848 -1805.78674 -20.94943 461
1622.94434 -1874.61511 13.03692 290
1571.09827 -1834.19824 -61.43064 406
1550.59314 -1807.89124 -20.44874 393
1614.52649 -1888.05383 12.47391 376
1554.50537 -1836.28967 -60.71199 412
1534.26160 -1810.76917 -20.11355 393
1720.97949 -2045.58936 3.09525 450
1537.47656 -1838.11438 -60.01093 423
1518.58875 -1813.88159 -19.65523 476
1711.37598 -2059.70435 3.23832 422
1521.94861 -1841.34692 -59.06621 423
1503.97815 -1817.47266 -18.89686 477
1613.45117 -1959.31738 10.12682 395
1506.51538 -1844.33862 -58.71966 429
1489.04150 -1820.92761 -18.74655 478
1595.74084 -1960.56189 10.13387 488
1490.89050 -1847.54492 -58.00552 428
1473.77161 -1824.78955 -18.42595 478
1586.40576 -1973.54028 9.95499 488
1478.31042 -1853.65967 -57.78796 282
1459.31482 -1828.27136 -17.73452 479
1578.14709 -1988.38550 9.58742 297
20178.37500 -26951.08203 8550.58789 1000
1477.28235 -1876.79724 -59.10316 282
1444.74707 -1831.81653 -17.60371 482
1572.69629 -2006.20166 9.16949 297
1476.20349 -1899.21240 -60.54285 282
1430.01880 -1835.92993 -17.13152 487
1563.30859 -2019.25464 9.06584 293
1475.13013 -1923.17554 -62.56525 282
1416.51367 -1840.27844 -16.77403 487
1402.14685 -1845.17517 -16.63848 489
1389.01147 -1849.81482 -16.48942 490
1375.35205 -1854.48840 -16.11215 490
1363.54309 -1861.98828 -15.85929 434
7269.40918 -39111.97656 -2484.27441 1000
-49.42409 -3120.73291 -21.94226 479
-49.35258 -3121.73169 28.65836 498
-49.60526 -3121.47998 79.82536 498
-49.47854 -3122.77368 131.53119 493
-49.83234 -3123.92871 182.10187 464
-392.63293 -2492.26001 172.88719 404
-392.22504 -2489.57104 214.65782 458
-408.75281 -2493.52417 6.41627 387
-738.43414 -1866.67297 97.79841 390
-737.53363 -1865.26953 131.14944 447
-737.06891 -1864.22437 164.43703 485
-737.08862 -1863.68579 197.96576 485
-736.84607 -1863.32532 231.89262 499
-750.05554 -1862.53113 30.67882 401
-15139.44629 -9971.21973 4375.96729 1000
-3895.81934 -2085.98389 131.08871 458
-3279.56445 -1711.95276 130.75926 446
-3287.95215 -1716.54749 193.51241 387
-2675.39697 -1342.57336 131.14738 484
-27439.58398 -7874.11914 -338.85748 1000
90.14924 -2.95818 127.46370 368
90.14893 -2.95717 127.71299 369
90.15035 -2.95807 127.95863 369
90.14931 -2.95804 128.20042 369
89.87562 -3.03532 128.38591 298
88.57590 -3.39585 128.38503 294
90.25593 -2.85064 127.48248 369
90.25569 -2.85181 127.72965 370
90.25583 -2.85010 127.97208 370
90.25706 -2.85126 128.21454 371
89.91849 -2.94286 128.38612 298
88.62116 -3.29592 128.38565 294
90.36222 -2.74732 127.49918 371
90.36080 -2.74505 127.74409 371
90.36298 -2.74608 127.98725 372
90.36250 -2.74743 128.22874 372
89.96565 -2.85151 128.38605 298
88.66729 -3.19788 128.38632 294
90.46616 -2.64244 127.51730 372
90.46562 -2.64252 127.76124 372
90.46657 -2.64330 128.00285 373
90.46593 -2.64293 128.24081 373
90.01188 -2.76120 128.38617 298
88.71079 -3.09702 128.38637 294
90.56747 -2.53919 127.53191 373
90.56769 -2.53853 127.77464 374
90.56741 -2.53943 128.01483 374
90.56839 -2.53919 128.25459 375
90.05820 -2.66794 128.38617 298
88.75819 -2.99676 128.38742 294
90.66979 -2.43847 127.54808 374
90.67044 -2.43936 127.79101 375
90.66963 -2.43767 128.02846 375
90.67002 -2.43783 128.26587 376
90.10812 -2.57739 128.38576 298
88.80790 -2.89731 128.38785 294
90.76942 -2.33852 127.56441 376
90.76869 -2.33930 127.80489 376
90.76846 -2.33931 128.04166 377
90.76841 -2.33868 128.27687 377
90.15588 -2.48470 128.38518 298
88.85293 -2.79662 128.38545 294
87.29729 -3.17177 128.38693 290
90.86771 -2.23781 127.57950 377
90.86826 -2.23979 127.81712 378
90.86949 -2.23843 128.05342 378
90.86891 -2.23957 128.28978 378
90.20393 -2.39370 128.38786 298
88.90163 -2.69717 128.38524 294
87.34476 -3.06245 128.38823 290
90.96635 -2.14165 127.59266 378
90.96518 -2.14107 127.83149 379
90.96712 -2.14079 128.06630 379
90.96620 -2.14199 128.29907 380
90.25407 -2.30425 128.38608 298
88.95311 -2.59785 128.38554 294
87.39272 -2.95174 128.38574 290
91.06423 -2.04386 127.60704 379
91.06423 -2.04503 127.84432 380
91.06255 -2.04449 128.07755 381
91.06176 -2.04500 128.31143 381
90.30320 -2.21323 128.38721 298
89.00111 -2.50012 128.38597 294
87.44302 -2.84332 128.38716 290
91.15860 -1.94871 127.62165 381
91.15910 -1.94962 127.85651 381
91.15792 -1.94962 128.08907 382
91.15939 -1.94892 128.32010 382
90.35465 -2.12073 128.38554 298
89.05340 -2.40025 128.38727 294
87.49413 -2.73495 128.38600 290
91.25340 -1.85474 127.63280 382
91.25276 -1.85264 127.86649 383
91.25475 -1.85320 128.09875 383
91.25344 -1.85345 128.33014 384
90.40562 -2.02997 128.38673 298
89.10500 -2.30020 128.38676 294
87.54540 -2.62443 128.38818 290
91.34678 -1.76044 127.64659 383
91.34665 -1.76065 127.87781 384
91.34849 -1.75950 128.11111 384
91.34663 -1.76085 128.33847 385
90.45731 -1.94047 128.38628 298
89.15473 -2.20276 128.38728 294
87.59682 -2.51432 128.38588 290
91.37046 -1.68190 127.63846 466
91.36946 -1.68122 127.87175 467
91.37186 -1.68067 128.10370 468
91.37099 -1.68175 128.33237 469
90.50832 -1.84932 128.38686 298
89.20680 -2.10367 128.38615 294
87.64758 -2.40617 128.38773 290
91.39111 -1.60114 127.63082 467
91.39096 -1.60237 127.86398 468
91.39073 -1.60097 128.09596 469
91.39217 -1.60288 128.32664 470
90.56254 -1.75880 128.38768 298
88.03000 -2.23750 128.15765 356
87.70036 -2.29785 128.38817 290
91.41221 -1.52315 127.62231 468
91.41292 -1.52402 127.85710 469
91.41177 -1.52282 128.08986 470
91.41353 -1.52365 128.31978 470
90.61636 -1.66894 128.38779 298
87.81472 -2.17803 128.10980 355
87.75603 -2.18780 128.38660 290
91.43325 -1.44369 127.61573 468
91.43396 -1.44422 127.84933 469
91.43383 -1.44222 128.08162 470
91.43336 -1.44382 128.31334 471
90.67071 -1.57682 128.38776 298
87.59394 -2.11789 128.05994 353
87.59425 -2.12052 128.34894 354
91.45425 -1.36373 127.60635 469
91.45471 -1.36428 127.84207 470
91.45629 -1.36358 128.07529 471
91.45473 -1.36458 128.30397 472
90.72366 -1.48752 128.38791 298
87.36230 -2.05719 128.00505 352
87.36282 -2.05829 128.30150 352
85.96236 -2.29259 128.38641 286
91.47763 -1.28350 127.59846 470
91.47649 -1.28426 127.83459 471
91.47808 -1.28409 128.06610 471
91.47760 -1.28506 128.29858 472
90.77863 -1.39697 128.38750 298
87.14355 -1.99059 127.95692 449
87.14391 -1.99034 128.25682 450
86.01774 -2.17319 128.38469 286
91.49828 -1.20428 127.59006 470
91.49850 -1.20291 127.82552 471
91.49773 -1.20345 128.06003 472
91.49902 -1.20340 128.29089 473
90.83398 -1.30718 128.38527 298
87.05015 -1.90188 127.92947 448
87.05025 -1.89976 128.23055 449
86.07493 -2.05469 128.38803 286
91.52024 -1.12214 127.58206 471
91.52000 -1.12266 127.81889 472
91.51902 -1.12222 128.05205 473
91.52081 -1.12448 128.28328 473
90.89132 -1.21825 128.38786 298
86.96195 -1.81082 127.90279 447
86.95875 -1.81006 128.20752 448
86.13297 -1.93473 128.38829 286
91.54060 -1.04318 127.57491 471
91.54109 -1.04293 127.80925 472
91.54271 -1.04175 128.04309 473
91.54195 -1.04145 128.27568 474
90.94718 -1.12711 128.38779 298
86.86779 -1.71853 127.87689 446
86.86656 -1.71816 128.18318 447
86.19144 -1.81401 128.38814 286
91.56420 -0.96261 127.56710 472
91.56414 -0.96270 127.80126 473
91.56401 -0.96254 128.03471 474
91.56200 -0.96240 128.26723 475
91.00640 -1.03810 128.38547 298
86.77267 -1.62295 127.84764 446
86.77435 -1.62174 128.15773 446
86.25324 -1.69561 128.38539 286
91.58562 -0.88130 127.55720 473
91.58430 -0.88058 127.79364 474
91.58464 -0.88125 128.02826 474
91.58410 -0.87937 128.26111 475
91.06203 -0.94897 128.38734 298
86.67786 -1.52759 127.81944 445
86.67882 -1.52805 128.13019 445
86.31267 -1.57676 128.38599 286
91.60589 -0.79977 127.54951 473
91.60678 -0.79825 127.78604 474
91.60573 -0.79961 128.01993 475
91.60697 -0.80045 128.25342 476
91.12110 -0.86089 128.38602 298
86.58260 -1.43201 127.79063 444
86.58170 -1.43075 128.10577 444
86.37377 -1.45515 128.38805 286
91.62971 -0.71678 127.54017 474
91.62783 -0.71617 127.77715 475
91.62980 -0.71709 128.01151 476
91.62857 -0.71807 128.24362 476
91.18109 -0.77202 128.38573 298
86.61324 -1.31614 127.78634 294
86.48081 -1.33124 128.08054 443
86.43227 -1.33743 128.38504 286
91.64964 -0.63587 127.53027 474
91.65141 -0.63504 127.76779 475
91.65117 -0.63698 128.00406 476
91.65150 -0.63666 128.23602 477
91.24037 -0.68122 128.38718 298
86.67316 -1.20053 127.78842 294
86.38113 -1.23079 128.05283 442
86.38069 -1.23247 128.36922 443
91.67169 -0.55325 127.52052 475
91.67278 -0.55384 127.75976 476
91.67331 -0.55345 127.99471 477
91.67155 -0.55325 128.22969 477
91.30016 -0.59368 128.38750 298
86.73064 -1.07997 127.78679 294
86.29951 -1.12853 128.02818 493
86.29919 -1.12900 128.34821 494
91.69443 -0.47171 127.51132 475
91.69385 -0.47102 127.74995 476
91.69379 -0.47144 127.98766 477
91.69476 -0.47168 128.22026 478
91.36147 -0.50497 128.38680 298
86.79049 -0.96438 127.78861 294
86.26923 -1.01864 128.01361 493
86.26952 -1.01765 128.33298 494
91.71753 -0.38913 127.50256 476
91.71789 -0.38881 127.74112 477
91.71669 -0.38787 127.97789 478
91.71583 -0.38835 128.21303 479
91.42094 -0.41639 128.38698 298
86.85252 -0.84780 127.78866 294
86.23809 -0.90814 128.00011 493
86.23680 -0.90772 128.31801 493
91.73788 -0.30608 127.49271 476
91.73855 -0.30481 127.73269 477
91.73814 -0.30622 127.97031 478
91.73770 -0.30616 128.20300 479
91.48450 -0.32986 128.38773 298
86.91027 -0.73115 127.78588 294
86.21043 -0.79542 127.98153 492
86.20691 -0.79495 128.30518 493
91.76171 -0.22383 127.48319 477
91.76151 -0.22314 127.72393 478
91.76131 -0.22334 127.96056 479
91.76247 -0.22214 128.19582 480
91.54686 -0.24036 128.38617 298
86.97211 -0.61574 127.78585 294
86.17999 -0.68240 127.96645 492
86.17826 -0.68202 128.29216 493
91.78373 -0.13957 127.47459 477
91.78284 -0.13941 127.71313 478
91.78240 -0.13882 127.95100 479
91.78357 -0.13981 128.18620 480
91.60892 -0.15135 128.38698 298
87.03423 -0.50078 127.78840 294
86.14716 -0.56700 127.95101 492
86.14786 -0.56686 128.27556 493
91.80596 -0.05668 127.46323 478
91.80489 -0.05491 127.70464 479
91.80611 -0.05520 127.94131 480
91.80643 -0.05541 128.17867 481
91.67157 -0.06558 128.38748 298
87.10028 -0.38495 127.78883 294
86.11610 -0.45132 127.93453 492
86.11608 -0.45233 128.26230 492
91.81242 0.02800 127.45098 486
91.81300 0.02729 127.69111 487
91.81405 0.02757 127.93073 488
91.81422 0.02619 128.16617 489
91.73721 0.02270 128.38728 298
87.16338 -0.27056 127.78670 294
86.08775 -0.33601 127.91927 491
86.08700 -0.33858 128.24861 492
91.79118 0.11019 127.42747 486
91.79244 0.11009 127.67171 487
91.79230 0.11039 127.90906 488
91.79292 0.10952 128.14888 489
91.79131 0.10990 128.38400 490
87.22671 -0.15197 127.78576 294
86.05423 -0.21895 127.90422 491
86.05608 -0.21962 128.23260 492
91.76936 0.19256 127.40543 486
91.77024 0.19127 127.64870 487
91.76837 0.19275 127.89193 488
91.77056 0.19273 128.12996 488
91.76891 0.19151 128.36763 489
87.29130 -0.03723 127.78673 294
86.02269 -0.10230 127.88712 491
86.02465 -0.10141 128.21677 491
91.74611 0.27599 127.38335 485
91.74812 0.27581 127.62726 486
91.74628 0.27645 127.87138 487
91.74781 0.27684 128.11130 488
91.74680 0.27472 128.35039 489
90.64680 0.22551 128.38683 294
86.00128 0.01782 127.87252 485
86.00205 0.01737 128.20551 485
84.88693 -0.03496 128.38698 282
91.72498 0.36097 127.36123 485
91.72325 0.36051 127.60807 486
91.72394 0.36037 127.85138 487
91.72424 0.36098 128.09351 488
91.72310 0.35937 128.33298 489
90.71467 0.32165 128.38635 294
86.03139 0.13774 127.86726 485
86.03079 0.13709 128.19917 486
84.96008 0.09569 128.38579 282
91.70061 0.44533 127.33942 485
91.70141 0.44547 127.58436 486
91.70051 0.44557 127.82951 487
91.70116 0.44561 128.07259 487
91.70218 0.44626 128.31429 488
90.78180 0.41650 128.38646 294
86.06328 0.25871 127.86024 486
86.06487 0.25830 128.19208 486
85.03474 0.22771 128.38844 282
91.67795 0.53167 127.31706 484
91.67732 0.53201 127.56335 485
91.67715 0.53075 127.81094 486
91.67765 0.53056 128.05443 487
91.67719 0.53124 128.29539 488
90.85049 0.50911 128.38747 294
86.09795 0.38252 127.85720 486
86.09747 0.38129 128.18735 487
85.10793 0.35825 128.38635 282
91.65500 0.61979 127.29154 484
91.65546 0.61743 127.54224 485
91.65634 0.61829 127.78860 486
91.65466 0.61902 128.03511 487
91.65615 0.61876 128.27876 488
90.91999 0.60301 128.38571 294
86.13283 0.50384 127.84730 486
86.13122 0.50586 128.18033 487
85.18575 0.48643 128.38434 282
91.63124 0.70594 127.26991 484
91.63126 0.70661 127.52012 485
91.63203 0.70767 127.76929 486
91.63181 0.70583 128.01392 486
91.63239 0.70626 128.25938 487
90.98840 0.69837 128.38570 294
86.16505 0.62645 127.84123 487
86.16354 0.62776 128.17668 487
85.26169 0.61334 128.38464 282
91.60860 0.79622 127.24588 483
91.60725 0.79432 127.49658 484
91.60728 0.79551 127.74659 485
91.60769 0.79583 127.99569 486
91.60867 0.79498 128.24112 487
91.05944 0.79065 128.38576 294
86.19511 0.75180 127.83749 487
86.19790 0.75110 128.16830 488
85.33733 0.74299 128.38809 282
91.58241 0.88595 127.22144 483
91.58353 0.88596 127.47671 484
91.58484 0.88569 127.72733 485
91.58468 0.88484 127.97548 486
91.58377 0.88638 128.22256 486
91.12945 0.88504 128.38797 294
86.23099 0.87129 127.82932 488
86.22916 0.87368 128.16418 488
85.41612 0.87387 128.38565 282
