# .PCD v.7 - Point Cloud Data file format
VERSION .7
FIELDS x y z rgb
SIZE 4 4 4 4
TYPE F F F U
COUNT 1 1 1 1
WIDTH 1100
HEIGHT 1
VIEWPOINT 6819.788086 -2932.091553 142.718781 -0.585630 -0.123294 -0.084220 0.796708
POINTS 1100
DATA ascii
-196.30786 0.77333 53.33637 324
-3840.28296 5.97745 519.20135 1000
-196.30859 2.61657 53.35749 324
-196.35468 4.44526 53.31278 324
-196.37776 6.21159 53.31293 324
-196.32892 8.03708 53.31894 324
-196.33130 9.80219 53.34172 324
-196.30179 11.60574 53.33418 324
-284.35382 59.92664 35.53117 317
-263.79044 59.05956 34.22589 320
-278.22684 61.35647 36.98477 323
-294.49908 64.02839 39.70528 313
-259.78806 60.64340 35.31288 350
-274.42343 63.07374 37.83804 346
-290.47662 65.77795 40.55423 341
-257.86191 62.56860 35.64303 350
-272.34769 65.03603 38.32101 347
-288.50653 67.92579 40.95491 341
-255.95447 64.43803 36.14067 351
-270.46875 67.06742 38.72099 345
-289.53714 70.56688 40.59256 318
-254.09560 66.31232 36.56239 351
-269.84302 69.24270 38.72932 321
-252.30344 68.21633 36.96954 349
-271.78796 72.02134 38.13398 319
-253.73808 70.71966 36.37608 322
-274.05884 74.77652 37.40639 318
-255.70461 73.38349 35.71525 321
-257.79422 76.06133 35.05517 321
-16141.45996 3676.84180 678.79376 453
-16015.00488 3649.72168 946.44495 458
-16064.20508 3763.35864 678.15863 457
-15942.26660 3738.32812 946.15277 459
-15992.33203 3852.79272 679.19879 463
-15877.84766 3823.62402 944.99091 464
-15922.88379 3938.77075 676.13867 464
-15809.78613 3909.92871 941.83008 472
-15858.56641 4028.11279 676.43402 464
-15741.74414 3999.66602 941.05249 476
-15790.18066 4115.04688 673.62543 465
-15677.28223 4087.90698 935.24591 477
-15721.65527 4201.95068 671.49139 465
-15613.34375 4173.82910 933.88916 477
-15658.38477 4287.21924 670.03790 466
-15549.16406 4257.00049 935.67950 478
-15592.61426 4372.03906 670.55518 466
-15483.34766 4342.58594 933.00153 478
-15526.63281 4459.50732 668.53223 467
-15417.33691 4426.64111 929.81842 479
-15462.67090 4545.08936 667.53949 467
-15355.79590 4514.64209 930.05212 479
-15395.65820 4626.54736 665.08203 468
-15291.55078 4594.57031 927.38879 480
-15331.06152 4714.02686 663.65198 469
-15229.61816 4680.97705 922.96570 480
-15268.63574 4794.66846 665.06470 469
-15163.88086 4763.32910 920.83496 481
-15205.40918 4878.21826 664.24213 470
-15103.02441 4845.30518 921.93890 481
-15138.97754 4960.78516 662.31281 470
-15041.35938 4930.25098 920.03284 482
-15073.38477 5045.97266 661.21350 470
-14977.20215 5011.14746 916.69708 482
-15013.12988 5128.17725 658.89526 471
-14915.08008 5092.16797 915.24530 483
-14950.28613 5208.61133 659.56720 471
-14854.75000 5176.05225 917.00330 483
-14887.15918 5291.03174 656.68146 472
-14793.80859 5258.47412 914.65369 484
-14821.60254 5372.03271 658.02362 472
-14731.64844 5339.84131 913.91864 484
-14763.39844 5452.23828 656.31543 473
-14669.50098 5417.29932 911.32513 485
-14700.27148 5535.06250 658.00464 473
-14609.77051 5497.86035 911.48260 485
-14638.82227 5614.44678 656.25793 474
-14547.73145 5580.70312 907.80078 486
-14578.00098 5693.52393 653.62469 474
-14488.62598 5659.29541 906.18872 486
-14516.54395 5772.36279 652.17615 474
-14427.52344 5736.86572 907.34540 486
-14451.65723 5851.23633 651.39301 475
-14366.78418 5819.39697 904.20422 487
-14389.74707 5932.84912 651.19775 475
-14306.06445 5897.40381 904.27527 487
-14332.30469 6009.16309 653.16138 476
-14249.78027 5977.01172 901.21497 488
-14271.51660 6087.54932 651.96362 476
-14189.85840 6053.04199 901.50635 488
-14209.20020 6165.86572 650.48212 476
-14128.16797 6134.02393 900.92792 488
-14151.45605 6247.92285 647.52271 477
-14069.41699 6208.14209 899.37750 489
-14090.81641 6322.68018 647.38831 477
-14011.36035 6287.99707 899.23242 489
-14032.05273 6400.98779 649.47314 477
-13954.69629 6365.21729 899.46320 489
-14644.90137 6678.24170 1198.90051 480
-13971.61035 6479.06055 646.76721 478
-13893.40625 6444.49854 898.09387 490
-14563.08984 6751.25977 1198.93542 481
-13912.80078 6556.61670 646.80737 478
-13834.60938 6517.89404 895.39496 490
-14485.41602 6821.54053 1195.67957 481
-13852.97266 6633.95117 645.32495 478
-13778.40430 6598.95068 894.48651 490
-14410.59180 6898.17725 1194.45093 482
-13790.68359 6708.04980 643.47772 479
-13720.84277 6675.73242 892.71661 491
-14332.26953 6967.57715 1190.29919 482
-13731.35156 6786.04883 644.79449 479
-13660.98047 6751.90869 894.73212 491
-14255.63770 7041.00000 1189.89612 483
-13672.69727 6862.77197 643.15839 479
-13603.05762 6825.47754 890.38867 491
-14179.83789 7115.08398 1184.14441 483
-13614.45996 6939.88818 642.06482 479
-13546.40332 6905.19580 893.27130 492
-14102.70703 7184.09277 1184.49585 484
-13558.33301 7013.05127 641.74164 480
-13486.44434 6976.11963 889.75555 492
-14026.69238 7253.86084 1181.76709 485
-13499.59961 7090.72705 640.57983 480
-13428.35547 7053.74023 890.75116 492
-13954.70801 7329.72461 1181.45837 495
-13441.13477 7164.91260 640.66858 480
-13372.70508 7130.41357 890.97614 492
-13896.74707 7405.58350 1179.23792 496
-13381.04199 7241.37109 643.11584 480
-13314.72559 7204.27148 890.02332 493
-13833.90625 7485.48779 1176.25940 496
-13322.12109 7318.07080 640.25800 481
-13258.54492 7279.98096 886.22858 495
-13775.87598 7561.17969 1178.68079 496
-13264.47754 7390.32422 639.61609 481
-13202.08887 7355.02686 887.78192 496
-13715.79590 7641.10547 1177.63977 496
-13204.72070 7467.66260 642.53546 481
-13144.11230 7432.80127 888.16986 496
-13656.55566 7719.52051 1173.78296 497
-13149.12891 7539.48291 638.27020 481
-13088.45898 7504.89258 885.94061 496
-13597.29395 7796.13477 1173.53748 497
-13091.04883 7614.12207 640.68994 481
-13030.48828 7579.31445 886.98431 496
-13537.72266 7874.58496 1172.21399 497
-13032.21680 7690.01367 638.22064 482
-12974.97949 7656.28857 883.68481 496
-13391.12402 7899.67432 1164.20862 419
-13065.75879 7819.22852 392.48441 479
-12974.96289 7765.04346 637.87714 482
-12919.93555 7730.71143 885.12891 496
-13341.16406 7979.13086 1167.20886 321
-13449.12207 8044.65381 1434.23291 497
-13007.36719 7894.02002 390.71445 479
-12920.26465 7840.22217 640.47131 482
-12861.50293 7804.41504 882.60638 497
-13288.81738 8061.78809 1165.61316 321
-13390.73438 8123.94043 1432.35791 497
-12949.42578 7969.34131 390.65521 479
-12860.58594 7912.75293 638.90674 482
-12807.76074 7881.23047 882.51300 497
-13242.54590 8146.13867 1164.61511 417
-13329.41895 8196.99316 1429.58240 498
-13475.18945 8286.89941 1707.71838 445
-12892.62402 8045.45752 392.02310 479
-12801.72461 7989.33887 638.91772 482
-12748.97852 7952.65723 884.30566 497
-13183.01465 8220.82715 1165.56262 403
-13272.28027 8276.67773 1433.13416 498
-13379.53711 8343.49023 1704.49207 491
-12835.30371 8119.48096 391.23227 480
-12747.21777 8062.90381 636.79272 482
-12695.01953 8030.58984 884.28674 497
-13179.53027 8332.66504 1168.74890 498
-13202.95898 8348.41504 1431.00293 443
-13205.71875 8346.19336 1686.50977 443
-12775.97754 8191.62012 391.49200 480
-12690.94922 8134.69238 637.04486 491
-12636.17773 8104.74414 885.01471 497
-13088.27441 8388.29199 1165.64087 444
-13087.76758 8388.44336 1425.15222 444
-13087.60645 8387.56934 1682.31396 444
-12716.67773 8267.54980 389.63202 480
-12633.23828 8208.61230 636.59589 491
-12581.83105 8179.03613 883.83380 497
-12971.95410 8427.93555 1159.28430 445
-12972.40234 8428.03906 1417.49817 445
-12971.85645 8427.31445 1671.56921 445
-12661.80859 8340.59180 391.08707 480
-12575.14453 8285.18555 636.36499 491
-12524.62598 8249.25391 880.87592 498
-12857.28027 8469.15332 1157.56091 446
-12856.08496 8464.69336 1409.92981 446
-12855.47852 8467.82324 1665.01697 446
-12603.11719 8413.73047 392.50888 480
-12519.68359 8358.77539 635.53174 491
-12470.84570 8326.82422 882.26611 498
-12767.21387 8523.46484 1154.39758 499
-12762.56055 8516.46387 1408.13696 498
-12757.13672 8516.29004 1659.33875 498
-12544.88574 8488.91895 390.23978 480
-12464.30566 8432.01562 637.37183 491
-12414.94727 8399.67871 883.94910 498
-12708.52930 8596.12891 1153.27258 499
-12703.49023 8592.88672 1408.30688 499
-12696.82422 8587.85156 1660.09875 498
-12961.04004 8764.42188 1953.76794 479
-12852.40234 8693.98242 2454.38770 333
-12840.76270 8685.08594 2714.85522 438
-12836.37109 8678.79590 2978.12671 469
-12486.17676 8563.94824 389.83728 480
-12405.01465 8506.28125 636.63239 491
-12357.52930 8472.65723 881.80316 498
-12623.23438 8655.90527 1149.45996 499
-12621.24316 8651.20117 1402.91943 499
-12640.00977 8663.17676 1660.98279 498
-12797.65918 8772.17480 1934.64783 305
-12429.65527 8636.54980 389.15158 480
-12351.77930 8580.71777 635.19391 491
-12306.04395 8548.38574 883.89960 377
-12568.12402 8727.58398 1151.46021 499
-12560.09766 8725.08105 1401.17957 499
-12582.20703 8738.69727 1659.90112 498
-12840.24512 8918.90332 1951.18506 479
-12371.43359 8711.18359 391.07385 480
-12291.01953 8654.42480 635.23889 491
-12248.73242 8622.92871 882.40735 447
-12510.43164 8803.79297 1148.61377 499
-12503.63574 8799.60449 1403.87109 499
-12526.79688 8812.49121 1658.48022 499
-12731.04785 8956.08984 1941.02454 478
-12316.82520 8785.93945 390.89139 480
-12238.60547 8728.62988 637.57220 491
-12192.41699 8694.19727 883.21429 447
-12450.96484 8880.96387 1148.05554 499
-12445.02832 8874.99023 1403.94275 499
-12465.88379 8890.52734 1657.95251 499
-12691.90820 9049.90234 1946.85364 478
-12257.55566 8857.02344 392.91376 481
-12178.98730 8802.24902 636.41541 491
-12138.35840 8771.57031 882.06934 464
-12392.97656 8955.21484 1148.03955 499
-12387.00293 8950.76562 1400.24390 499
-12407.36426 8961.73340 1656.38318 499
-12668.11133 9146.47559 1947.70276 471
-12203.18262 8930.29590 392.36053 481
-12122.22168 8875.09180 635.76093 491
-12084.35645 8846.18848 881.67053 424
-12338.03320 9027.05859 1151.14429 499
-12331.51172 9022.60938 1399.96252 499
-12351.03320 9037.96191 1655.53894 499
-12608.48047 9223.73438 1948.46387 471
-12145.78809 9008.30371 392.72687 481
-12067.34668 8949.99707 636.89319 491
-12030.61816 8919.26270 880.71454 424
-12277.95020 9101.16992 1149.29724 499
-12273.67578 9100.12988 1400.43372 499
-12292.60547 9112.51172 1656.37659 499
-12549.42188 9301.85449 1947.97290 471
-12088.85742 9079.20312 389.70789 481
-12011.25391 9021.77832 637.34460 491
-11978.00879 8994.72559 884.34442 424
-12220.29004 9177.20312 1149.21143 499
-12213.88281 9174.68750 1403.68433 499
-12085.56445 9079.17480 1640.51538 349
-12492.37305 9377.16992 1947.21277 471
-12028.56543 9154.41895 390.51236 481
-11953.19434 9094.82715 637.49573 492
-11925.18945 9075.52148 882.81531 302
-12187.39746 9271.56738 1151.86096 499
-12183.64160 9266.15137 1406.15881 499
-11911.09766 9060.04980 1624.27979 499
-12433.23438 9457.86523 1948.05872 471
-11973.08887 9226.23242 393.29791 481
-11900.42188 9168.61230 637.78778 492
-11883.21582 9156.52051 883.72577 296
-12127.75684 9345.30859 1149.24951 499
-12107.75391 9329.43457 1403.88293 479
-11854.65039 9136.80957 1622.38879 499
-12376.19141 9531.83691 1947.54614 471
-11915.95898 9299.89258 391.91537 481
-11841.40820 9244.39941 637.83795 492
-11836.71387 9237.98340 883.55750 296
-11939.09668 9316.86133 1139.64453 476
-11880.63770 9270.04785 1383.28381 462
-11798.04785 9207.32715 1623.48010 499
-12317.36914 9609.43555 1948.35339 471
-11858.55273 9372.31152 390.61243 481
-11784.62695 9315.13672 638.78107 491
-11982.68262 9468.95508 898.60187 499
-12012.55762 9496.03906 1150.26233 499
-12006.75977 9491.76758 1405.50378 499
-11741.13184 9282.10938 1622.74377 499
-12259.60254 9687.74316 1951.07898 471
-11798.35352 9449.20996 390.53546 481
-11728.95801 9390.52148 636.81061 491
-11923.98047 9543.50000 899.04999 499
-9857.73633 7828.31787 834.05914 499
-11950.32910 9566.46582 1404.92908 499
-11683.37598 9354.14844 1623.63708 499
-12200.60742 9764.64844 1947.94885 471
-28691.65430 23165.89258 -9095.23730 1000
-11743.16699 9521.98828 390.40164 481
-11672.34668 9461.81934 636.78662 491
-11864.34863 9619.36719 896.75659 499
-11899.13965 9644.54688 1151.99561 499
-11894.75195 9642.86230 1403.74475 499
-11899.88574 9642.70605 1657.87915 383
-12146.53418 9842.33594 1948.71521 474
-11684.80859 9594.28711 393.60187 481
-11617.72559 9537.53613 636.33716 491
-11808.91895 9694.52637 895.79938 499
-11877.82910 9747.75879 1153.80798 458
-11866.04199 9740.55566 1408.12646 458
-11888.62500 9755.29785 1667.01855 362
-12103.38770 9934.51855 1955.23865 457
-11629.67676 9669.86621 390.63171 481
-11558.29785 9613.13672 636.00317 491
-11750.88672 9766.09473 897.06476 499
-11863.85254 9861.01855 1160.92444 476
-11854.86621 9852.09473 1413.56897 457
-11892.45215 9884.93750 1674.47656 362
-12069.24707 10032.22949 1957.58411 456
-11571.53711 9744.21777 393.37381 481
-11503.56348 9683.48242 635.67694 491
-11691.13281 9840.64746 895.84448 499
-11829.57129 9957.60449 1162.84021 476
-11845.95312 9968.22070 1418.47925 456
-11895.59863 10012.78223 1680.82275 361
-11512.41406 9816.84766 393.43832 481
-11445.45605 9758.09668 640.03613 491
-11633.60547 9915.21484 897.11102 499
-11799.79590 10054.27246 1163.03943 475
-11833.64746 10086.06543 1423.07495 455
-11455.92969 9888.75098 390.11813 480
-11389.60352 9834.52246 637.77777 491
-11605.39355 10017.83398 901.14746 419
-11765.59570 10155.56445 1168.88293 475
-11803.23926 10185.03125 1427.23669 474
-11401.97656 9962.47852 392.89587 480
-11333.03125 9905.34473 640.38220 491
-11591.68555 10131.52930 905.41321 418
-11735.18262 10255.79980 1168.87427 474
-11341.79102 10035.93750 393.63718 480
-11276.17969 9978.38086 639.82800 491
-11577.77832 10242.98828 907.91650 417
-11283.72266 10110.52246 393.95831 480
-11221.62305 10052.62207 637.77319 491
-11564.53613 10358.26855 907.84021 402
-11226.79590 10183.74219 394.19647 480
-11165.26465 10127.39355 639.00012 491
-11531.53223 10457.98730 910.36151 402
-1552.69202 1500.84485 60.73211 482
-1557.61377 1504.83276 97.48309 454
-11170.22266 10260.62695 392.27893 480
-11105.40430 10202.14258 640.02118 491
-11494.61230 10557.68359 914.77588 401
-1543.27979 1510.37085 60.94248 489
-1547.20703 1514.10547 97.11047 487
-1553.95288 1519.55347 133.74687 336
-11112.65527 10332.01953 391.61246 480
-11050.82324 10278.83496 638.96069 491
-11061.96680 10289.81152 889.80585 430
-11054.49316 10406.25781 391.66882 480
-10991.49609 10351.96875 639.38385 490
-11004.30469 10359.28027 889.48590 430
-10996.00879 10482.70410 393.40433 480
-10936.63867 10423.84180 641.75989 490
-10946.14453 10434.90820 888.37421 430
-10939.36426 10555.54004 392.90671 479
-10878.08398 10499.34570 642.61499 490
-10886.99902 10506.06934 890.52069 437
-10879.23535 10628.70215 392.48267 479
-10820.15332 10575.07617 642.61670 490
-10832.93066 10584.71680 891.81055 437
-10822.99707 10703.85938 392.51782 481
-10765.60938 10651.20117 640.84314 490
-10778.33789 10659.74902 889.85339 437
-10764.73438 10780.95605 395.35370 480
-10710.10449 10722.64746 640.45526 490
-10706.51660 10856.68262 393.17130 480
-10649.73047 10798.99316 641.64081 493
-10646.82129 10930.87988 395.98273 480
-10592.27734 10871.94336 643.65179 492
-10591.26660 11004.10840 393.75565 480
-10536.13086 10948.36133 643.51178 492
-10529.32422 11080.16016 394.56973 480
-10475.63770 11024.86816 643.94519 492
-10470.93359 11156.90625 393.57278 479
-10420.14062 11101.94043 643.27728 492
-10414.74805 11230.64551 394.92215 479
-10361.84180 11175.27344 646.99438 491
-10357.09766 11306.64941 396.02966 479
-10306.02441 11253.95215 644.42438 494
-10297.41211 11383.44141 397.87671 479
-10249.04297 11326.40527 645.32666 493
-10236.51270 11458.20605 396.84354 479
-10191.02832 11403.97754 645.68774 493
-10178.20996 11535.35449 398.04367 486
-10131.24023 11481.94824 645.66980 493
-10118.85254 11610.87500 399.10980 486
-10072.15918 11555.05859 646.07843 493
-10059.77051 11687.52051 396.69879 486
-10015.26367 11632.69043 647.97589 492
-10002.71094 11766.30664 398.19949 485
-9957.06641 11710.07422 648.49524 492
-9941.35254 11841.83203 398.24072 485
-9895.94922 11790.95020 648.58514 492
-9884.89941 11919.07031 399.15509 485
-9837.18945 11867.17383 650.45093 491
-9823.38867 11996.24902 399.52338 484
-9780.50293 11946.92285 651.92395 491
-9762.62207 12074.91113 400.69748 484
-9720.52539 12020.67578 654.47028 491
-9703.87207 12151.76660 400.34970 484
-9663.30078 12099.66113 653.48773 490
-9644.50098 12231.14258 398.24701 483
-9604.05273 12178.01074 652.94684 490
-9582.95215 12311.01465 399.30542 483
-9539.67969 12257.97559 653.96783 489
-9522.50488 12387.49805 400.45068 483
-9482.40723 12339.44629 656.96057 489
-9465.26758 12471.99512 399.58197 462
-9423.79102 12416.55566 654.81360 489
-9412.08105 12564.65820 401.50620 462
-9360.90039 12499.33984 659.11139 486
-9357.93652 12653.65137 403.69934 461
-9303.60938 12582.44922 658.44116 485
-9306.50488 12746.23047 404.91129 462
-9248.28906 12667.95312 660.51550 485
-9251.34082 12838.25098 406.65784 461
-9190.29297 12748.87793 661.95349 484
-9199.56348 12931.48926 404.49042 461
-9133.17285 12842.35352 661.04395 467
-9148.39062 13023.62598 404.08865 460
-9084.02930 12935.54395 662.47046 466
-9090.85449 13117.28906 407.06567 460
-9031.72852 13026.87695 664.18622 467
-9040.63379 13215.11621 407.96478 418
-8979.06445 13128.63477 668.53882 466
-9001.52344 13336.09766 407.45941 417
-8931.78418 13229.16113 670.32330 465
-8962.30566 13453.51953 411.48773 416
-8877.44336 13332.23047 670.90442 465
-8924.67676 13578.10547 412.59592 415
-8830.27441 13433.58301 673.94159 464
-8893.06836 13708.58301 414.82150 393
-8777.89453 13534.24902 676.40894 463
-8859.28027 13844.65332 413.54764 366
-8729.10742 13641.53320 674.93268 462
-8838.56055 14000.74121 416.34128 366
-8677.48633 13748.14941 677.34802 406
-8821.66113 14166.57227 420.38120 365
-8645.38086 13884.32422 683.28821 405
-8618.33301 14033.25195 685.04932 404
-8593.00586 14183.45410 691.35278 401
-8567.11230 14336.73828 691.34259 400
-8563.70312 14536.34668 700.19641 341
-6800.32422 45548.28906 3179.18945 1000
84.84228 2306.65601 20.24805 392
98.57173 2286.79053 20.88668 393
98.71603 2323.75903 57.38881 310
112.76132 2330.98730 -19.28432 364
112.46149 2268.05762 21.85000 408
112.98769 2332.43579 57.00148 272
127.09135 2306.57861 -18.02083 365
125.79912 2252.21606 22.35463 435
127.77950 2364.45532 55.90639 290
140.69485 2282.27783 -16.55955 325
139.45110 2240.30127 23.21969 436
153.76396 2262.34131 -15.07602 421
152.99101 2228.96509 23.66366 424
166.57109 2228.07031 -13.00155 289
166.40697 2218.93115 24.12726 424
179.60216 2208.28247 -11.66001 395
179.77237 2209.15234 24.64895 436
192.81439 2196.32349 -10.94379 396
192.96422 2201.14062 25.00291 436
205.34724 2184.28809 -10.10839 396
205.92686 2194.21875 25.18297 380
218.11754 2172.35156 -9.29720 455
219.34840 2188.02124 25.51727 378
231.04509 2162.68604 -9.05333 465
231.94104 2182.11963 25.72957 379
243.30005 2154.17896 -8.69083 466
135.79776 1909.90234 -93.26744 383
258.81561 2180.86523 -46.21693 456
255.95515 2145.96094 -7.85447 467
258.18283 2175.40234 26.15442 302
271.71161 2172.14429 -45.42793 457
268.77301 2137.65674 -7.61468 467
271.61197 2173.11597 25.91717 436
284.51508 2163.56665 -44.99065 457
281.04315 2129.17969 -6.80412 468
300.92630 2350.49072 17.24819 474
296.72586 2155.21533 -44.46308 458
293.69830 2121.75464 -6.58329 472
315.75610 2350.45752 16.94123 383
309.42160 2146.14697 -44.09286 459
306.09726 2114.79688 -5.96720 479
314.61267 2197.88086 24.30028 488
321.95438 2139.61792 -43.24589 468
318.32422 2108.22290 -5.76196 479
327.44553 2192.59131 24.95838 489
327.72369 2193.72266 60.81721 489
334.46304 2132.42822 -43.19943 468
330.81226 2101.52319 -5.71766 480
340.64423 2187.10376 25.13944 489
340.95627 2187.90112 60.79608 489
346.60764 2125.56152 -42.25513 469
343.07626 2095.04810 -5.56004 481
353.41245 2181.91333 24.92276 490
358.42645 2221.45117 59.88888 306
359.08463 2117.43604 -41.98564 321
355.61713 2089.55566 -5.25478 485
366.30420 2176.05640 25.11711 490
377.77231 2266.74707 58.59667 305
370.52478 2107.02734 -41.33921 321
367.79611 2083.89819 -4.95032 486
384.65613 2212.72241 23.14993 306
396.43417 2299.82935 57.38932 391
382.34637 2097.04736 -40.58844 322
379.96301 2078.64868 -4.56189 460
404.78992 2257.35083 21.03699 305
4126.22412 28943.53906 3504.57837 1000
4074.70557 28573.77539 5881.45264 1000
394.40225 2086.69849 -39.90797 322
392.04608 2073.59937 -4.60558 461
405.99860 2079.64722 -39.47412 326
404.16180 2068.70581 -4.36653 462
417.99210 2072.52832 -39.01179 327
416.96585 2064.16211 -4.11694 462
430.88840 2153.17188 25.81861 492
429.97241 2065.33594 -38.67933 327
428.83768 2059.05054 -3.74039 462
442.28772 2139.80176 26.67757 492
441.89743 2058.47046 -38.22136 327
441.08783 2054.33350 -3.40422 462
454.93234 2136.94043 26.22223 493
453.51822 2052.23340 -37.69993 429
453.20334 2049.68481 -3.40401 463
469.67337 2142.30396 26.20757 305
465.87363 2046.68274 -37.88481 429
465.36746 2044.54077 -3.09173 463
495.20755 2207.44702 22.65364 415
491.63037 2189.48071 59.86692 417
491.09158 2186.34106 96.63271 493
489.68582 2176.72852 132.66595 336
477.77426 2040.99548 -37.32241 429
477.38428 2040.09460 -3.19125 463
507.01547 2197.75464 59.81935 412
503.00052 2174.60718 132.82875 331
489.62057 2035.35461 -37.26479 430
489.29675 2035.58179 -3.31509 463
501.40341 2030.00195 -36.86595 430
501.34470 2030.69910 -2.70548 464
513.25000 2024.03796 -36.86468 430
513.63184 2025.84167 -2.99846 464
524.88239 2018.56226 -36.54057 431
525.56757 2021.30054 -2.76883 464
535.00568 2066.65405 29.06525 495
561.28888 2187.21802 242.67535 494
536.34705 2013.54492 -36.28772 431
537.53699 2016.60950 -2.73564 464
547.34882 2061.29077 29.24106 495
548.14856 2008.15833 -36.30664 431
549.01068 2011.68091 -2.19207 465
559.94141 2058.99951 29.08841 286
560.20367 2002.18066 -35.80713 431
561.11853 2007.19641 -2.23652 465
591.84564 2136.77979 24.92360 292
571.47266 1997.00110 -35.90487 432
573.25269 2002.37695 -2.04622 465
622.74634 2209.16650 21.07589 297
583.45050 1991.17615 -35.65179 432
584.95728 1997.71790 -2.18847 465
594.80420 1986.15125 -35.47598 432
596.36945 1992.84351 -1.94708 392
13035.96191 50888.21484 1004.70374 1000
606.56641 1981.01086 -34.94395 432
608.76709 1988.75696 -1.88691 392
618.21826 1975.39465 -34.62968 432
620.40564 1984.44092 -1.64019 392
636.09991 2042.55249 29.06408 497
629.75568 1970.23682 -34.73736 433
632.43976 1980.27173 -1.59088 393
654.31433 2061.26904 133.02342 499
656.52533 2069.12061 167.66631 497
641.12860 1964.98486 -34.83912 495
644.30743 1975.73071 -1.64212 393
689.82611 2139.27490 132.89880 499
695.59308 2158.58594 169.30605 497
652.84009 1959.84766 -34.48917 495
655.89648 1971.54004 -1.96310 393
664.21228 1954.99231 -34.25106 495
668.10266 1967.11108 -1.45149 393
675.78094 1950.13000 -34.51339 495
679.73383 1962.89600 -1.81060 393
687.02209 1944.96838 -34.32700 496
691.45276 1958.91528 -1.46509 393
698.92566 1940.28003 -34.12623 496
703.40991 1954.40210 -1.33938 393
710.23816 1935.18066 -34.19611 496
714.95020 1950.20654 -1.52735 393
722.05609 1929.99365 -33.96794 496
727.03387 1945.36328 -1.42900 393
733.50140 1925.34558 -33.63425 496
738.59973 1941.56531 -1.58718 393
744.80597 1920.38062 -33.64571 496
750.44324 1937.00830 -1.46884 393
756.34155 1915.45691 -33.49181 496
762.41943 1932.42578 -1.64525 393
767.52118 1910.64307 -33.44547 496
774.19928 1928.49768 -1.50052 393
779.26562 1906.01294 -33.67677 497
785.66058 1923.95276 -1.24902 393
790.58484 1901.17920 -33.59703 497
797.67743 1920.03210 -1.24766 299
840.51868 2035.50989 26.12228 499
802.10809 1895.75562 -33.22594 497
809.93146 1917.02759 -1.89649 299
813.23370 1891.00806 -33.31207 497
822.53851 1913.99255 -1.47899 299
852.28241 1992.70007 62.91766 499
825.59369 1888.11304 -33.48374 488
914.65613 2115.76221 -16.47301 469
838.25372 1886.62024 -33.77120 488
929.04108 2115.38574 -16.40326 379
851.34705 1885.18176 -34.41735 487
945.21838 2116.80884 -17.34666 378
864.00171 1883.80444 -34.51049 487
877.37000 1882.44092 -34.86786 486
890.49072 1881.76953 -35.01733 427
904.38696 1882.72314 -35.59393 330
27272.00391 27097.91016 -10094.82422 1000
26589.43359 24815.95312 7406.63770 1000
1134.07092 766.45654 -58.83760 447
1138.20972 769.35376 -37.94543 447
1142.22754 772.47711 -16.68055 390
1147.99683 776.69177 4.28937 319
1136.51550 758.22906 -58.49956 499
1140.00415 760.70245 -37.59659 499
1143.57568 763.10797 -16.43423 498
1147.14502 765.98047 4.81239 498
1150.25684 768.19818 25.96802 497
1142.02380 752.37122 -58.64372 489
1145.49817 754.86725 -37.84101 488
1149.57227 757.58685 -16.67000 454
1153.86426 760.75378 4.65899 408
1150.76160 748.72791 -59.57027 400
1156.85962 752.74341 -38.80546 330
16290.44141 10632.52246 1423.09167 1000
26989.47852 8807.73633 4348.04932 1000
4081.91187 783.95685 -133.42902 441
4094.86011 761.28271 -133.35223 446
4113.18701 739.03168 -134.79930 431
4351.89941 782.51013 -78.66945 452
4135.13135 716.99982 -135.90422 414
4342.76416 754.93842 -78.90054 453
4158.24512 695.10077 -137.30666 413
4334.33496 725.85162 -77.46166 453
4181.44971 673.40985 -138.38205 413
4324.67578 698.06403 -77.73024 454
4205.25732 652.28687 -139.43892 406
4316.17871 669.42651 -77.23494 455
4234.39697 630.00763 -140.68651 389
4307.93164 641.48663 -76.03194 455
4266.04688 608.64746 -143.60591 379
4298.00244 613.15869 -74.86481 454
4300.52148 587.76215 -145.41508 369
4309.35742 588.73834 -75.35530 481
4346.79639 566.79877 -147.82692 340
4344.78076 567.48578 -77.03513 374
4405.09814 548.21844 -152.09793 337
4403.11670 547.38580 -80.61244 358
4469.30078 529.58539 -155.26248 342
4707.88672 557.78387 -94.88208 452
4531.35840 509.28500 -159.74475 341
4536.58789 509.35220 -85.93742 358
4595.73096 488.00778 -163.46095 339
4600.61426 488.74033 -89.57796 328
4663.83447 467.70325 -168.54977 340
4689.33398 469.66763 -93.34161 343
4734.92529 445.56055 -173.22942 342
2897.88354 -24.34513 -98.00093 468
2905.47485 -24.82017 -51.75557 431
2898.79810 -42.32056 -97.58327 430
3846.28003 -686.45166 -118.16721 498
3861.74146 -689.94318 -56.73909 263
4750.29932 -1122.17505 -103.76477 433
4727.35205 -1145.79675 -103.48697 465
4709.23633 -1171.75842 -102.67528 480
4690.01270 -1196.49231 -101.89193 480
4672.65088 -1222.74756 -101.21042 485
4657.68799 -1248.60632 -101.12939 466
4641.40869 -1274.50708 -100.61980 468
4627.42090 -1299.90540 -100.89374 434
4612.83496 -1325.92896 -100.42933 438
4599.49658 -1352.85571 -100.32912 438
4744.39209 -1396.66382 -27.32112 314
4679.19727 -1376.26526 53.41773 284
4588.10352 -1379.54858 -100.17380 439
4637.68506 -1394.45483 -23.86139 495
4627.42041 -1391.04150 54.09794 422
4575.56689 -1405.10815 -99.61343 415
4607.89160 -1415.33069 -23.16935 499
4618.44775 -1418.74902 53.55981 423
4562.90088 -1432.47314 -98.70995 415
4597.82422 -1442.61023 -23.54931 499
4608.83301 -1447.14197 54.14451 423
4552.17529 -1458.65894 -99.48069 416
4587.09375 -1469.96118 -23.67249 499
4596.12305 -1473.30518 53.91821 425
4541.20508 -1485.22705 -99.23718 417
4573.88916 -1496.17346 -22.82648 499
4587.79883 -1500.87659 53.91603 424
4530.71387 -1512.43066 -99.26659 442
4564.95020 -1524.06091 -22.61479 499
4559.38086 -1522.63538 53.74830 339
4520.22363 -1539.80884 -99.29416 443
4555.42383 -1551.24463 -23.34496 499
4549.23145 -1549.17310 53.62951 478
4509.92480 -1566.67810 -98.23331 443
4549.66797 -1580.77063 -23.32744 499
4539.46289 -1576.90344 53.57669 478
4500.32617 -1593.52771 -98.79456 443
4542.09961 -1608.30103 -22.95823 499
4529.75635 -1603.91833 54.32621 483
4490.51270 -1619.56018 -99.39105 443
4532.35107 -1635.48987 -23.54727 499
4521.06250 -1632.13464 53.90093 483
4480.56982 -1646.59558 -98.55608 443
4522.39062 -1662.84705 -24.04412 499
4512.76416 -1660.09851 53.96687 351
4620.02148 -1699.49829 131.21359 478
4470.32715 -1673.66150 -98.28946 443
4743.57959 -1779.26575 -31.11732 335
4515.49414 -1690.92102 53.81704 424
4618.60693 -1730.77991 130.77626 385
17635.04688 -6709.75732 1360.12292 1000
4460.39404 -1701.25098 -98.85928 475
4629.92383 -1767.21912 131.37743 486
4450.82324 -1728.36963 -98.41315 473
4630.13770 -1799.03186 131.40181 495
4440.63721 -1755.45020 -98.57154 473
4706.76660 -1896.01343 -114.03600 252
4693.06982 -1922.58289 -113.80434 499
4683.40137 -1952.76978 -113.26479 499
4401.52539 -1864.27856 -99.92706 477
4546.87500 -1927.48840 -27.68359 499
4392.46582 -1891.24231 -98.90015 497
4382.21729 -1918.26172 -99.31863 497
4372.49316 -1945.67395 -100.11884 497
4364.38916 -1972.89990 -100.19141 496
4354.85547 -2000.70007 -100.32993 496
4456.63770 -2049.00342 -27.09785 483
4447.11475 -2077.72583 -106.05645 353
4436.19531 -2072.41724 -25.99189 480
4419.25732 -2096.28296 -105.47166 472
4420.32520 -2097.34570 -26.21356 484
4376.20801 -2107.86694 -25.68070 441
3058.09717 -2103.63232 -47.51546 475
29313.10547 -20999.51367 -8889.08789 1000
2197.96558 -1967.54321 -57.29440 373
2180.70996 -1951.48816 -8.49693 362
2165.83716 -1962.05383 -55.51066 376
2148.32202 -1945.06311 -7.03256 385
2133.92163 -1954.97461 -53.27615 376
2117.45239 -1939.56384 -5.91400 386
2103.06665 -1949.67676 -52.08271 378
2086.71167 -1933.40308 -4.51867 388
2072.32812 -1943.91724 -50.46534 371
2056.69019 -1928.55786 -3.53214 389
2043.64087 -1938.49878 -48.95328 372
2027.63586 -1922.69995 -2.58337 390
2015.06982 -1933.92505 -46.91049 374
1998.40906 -1917.25232 -1.38946 392
1987.03162 -1929.45239 -45.68998 375
1970.11719 -1912.10742 0.19920 393
1959.04419 -1924.62317 -43.65430 376
1942.27869 -1907.27014 1.01744 394
1931.84827 -1919.62085 -42.35656 377
1915.17725 -1902.19299 2.12939 395
1905.55688 -1915.35461 -40.92395 378
1887.76917 -1897.02539 3.35416 396
1878.48230 -1910.31079 -39.51956 371
1861.73547 -1891.81934 4.14892 398
1853.08899 -1905.66528 -38.17080 372
1835.48657 -1887.06299 5.69607 399
1842.66650 -1894.94653 47.52296 401
1827.42737 -1901.13904 -37.16504 373
1809.56641 -1882.04089 6.72953 400
1817.75488 -1890.46326 47.81968 403
1802.08118 -1897.25208 -35.47153 375
1786.26697 -1879.33752 7.22900 428
1792.50940 -1886.20728 48.94106 417
1778.07849 -1893.27673 -34.45018 383
1764.60547 -1878.85474 8.23716 439
1770.99890 -1885.85291 49.03314 438
1756.58105 -1892.40112 -33.23179 401
1744.63062 -1879.03040 8.91395 446
1752.04016 -1887.72681 49.40610 490
1736.85742 -1892.97705 -32.50726 406
1725.56323 -1880.60840 9.60306 452
1740.11841 -1897.18542 49.44837 486
1717.33447 -1894.48352 -31.36884 410
1707.42151 -1882.80994 9.82717 457
1729.70630 -1908.16174 49.38188 428
1698.77551 -1896.29053 -31.03423 410
1689.18018 -1884.60339 10.18996 463
1725.33618 -1927.65625 49.30716 427
1680.90137 -1898.27417 -30.06446 416
1671.70789 -1887.34253 11.14373 462
1721.79272 -1946.98242 49.01060 426
26576.98047 -31716.81445 6948.49805 1000
1662.97070 -1900.57434 -29.62561 409
1654.58679 -1890.11194 11.61695 467
1717.15869 -1965.89807 48.41471 425
1646.58923 -1903.46497 -28.99950 415
1637.96155 -1893.55701 11.57863 474
1713.65503 -1986.41321 47.89144 424
1629.11951 -1906.92871 -28.94773 415
1622.39539 -1898.06433 11.86265 469
1709.63428 -2005.84448 47.77129 424
1613.76819 -1910.89624 -28.32102 426
1606.76221 -1902.47021 12.62502 473
1705.51672 -2026.62158 46.96099 423
1597.82349 -1915.30542 -27.92541 432
1591.46509 -1907.13745 12.54807 473
1700.99438 -2046.69458 46.69677 422
1582.97705 -1919.60620 -27.69819 432
1576.04346 -1911.42700 12.80299 474
1697.16455 -2067.34399 46.30924 421
1567.38708 -1924.78296 -27.13717 432
1561.43933 -1915.93115 13.29676 468
1693.05469 -2088.03101 46.07688 420
1552.31787 -1928.95288 -26.61012 439
1546.08154 -1920.51929 13.40306 469
1537.04187 -1933.04248 -26.10826 439
1531.62061 -1925.70825 14.12219 467
1521.72192 -1937.02234 -25.97531 442
1517.10571 -1931.08057 13.94063 468
1515.72986 -1954.23755 -26.72765 282
1502.65845 -1936.77051 13.97546 466
1516.89551 -1981.03601 -27.96223 282
1489.40100 -1942.32385 14.71226 467
1474.97241 -1948.06604 14.76876 462
4673.41016 -31349.57031 -2506.06958 1000
2347.08105 -20750.12891 -1262.27576 1000
3004.84839 -62132.57812 -6071.95312 1000
28.03771 -3115.07983 230.68234 365
9.46847 -3116.52393 26.51710 360
-802.90497 -14046.40430 -2446.24243 1000
-310.49899 -2475.57349 47.15011 453
-310.18921 -2475.14429 88.18475 454
-310.66489 -2474.84058 129.07643 399
-310.71286 -2476.27271 170.09766 330
-7511.06982 -44798.27344 -8188.69531 1000
-11708.12012 -56751.49219 8665.49023 1000
-1313.80872 -6569.53516 -205.36324 1000
-615.11340 -1828.01465 66.15717 373
-614.08173 -1825.24353 98.37099 434
-613.24176 -1822.92859 130.05057 435
-612.37982 -1821.39014 162.05006 478
-611.72736 -1819.61011 194.15268 478
-611.40088 -1818.15393 225.86760 498
-610.68958 -1816.58301 257.83096 494
-626.94696 -1825.85193 66.02725 275
-5589.50781 -12524.87305 2159.63892 1000
-6031.77832 -6806.18652 2104.64551 1000
-15789.29199 -15980.92480 -5135.75732 1000
-3786.67432 -1910.25769 202.01505 490
-3140.61377 -1568.47827 130.91545 487
-3147.43579 -1571.32605 189.87868 484
-2528.20435 -1252.64539 131.23338 495
-2533.31079 -1255.28650 178.87640 494
-50512.53125 -17903.24805 123.32088 1000
88.42995 -3.48422 127.54543 256
90.12417 -2.98281 128.35539 376
88.42718 -3.48237 128.10075 256
-15.56821 -3.73600 -3.45945 256
90.10468 -3.00161 127.99776 377
90.10519 -3.00015 128.24802 377
89.65070 -3.10973 128.38524 306
88.50182 -3.37736 128.38744 302
90.20794 -2.90127 128.01404 378
90.20946 -2.89913 128.26309 379
89.68652 -3.01740 128.38742 306
88.53696 -3.27818 128.38786 302
90.30949 -2.80052 128.03256 379
90.30809 -2.79800 128.28065 380
89.72276 -2.92879 128.38786 306
88.57201 -3.18232 128.38719 302
90.40723 -2.69857 128.04990 381
90.40870 -2.70043 128.29588 381
89.76092 -2.83793 128.38792 306
88.61012 -3.08508 128.38719 302
90.50536 -2.60138 128.06552 382
90.50717 -2.60005 128.31097 383
89.80098 -2.74961 128.38777 306
88.64706 -2.98759 128.38503 302
90.60503 -2.50517 128.08215 383
90.60384 -2.50303 128.32516 384
89.83930 -2.65721 128.38687 306
88.68418 -2.89000 128.38800 302
87.34213 -3.15994 128.38609 298
90.70157 -2.40804 128.09677 384
90.70142 -2.40792 128.33890 385
89.87924 -2.56864 128.38744 306
88.72199 -2.79352 128.38718 302
87.38081 -3.05396 128.38525 298
90.79558 -2.31084 128.11295 386
90.79610 -2.31081 128.35440 386
89.91932 -2.47651 128.38583 306
88.76183 -2.69498 128.38712 302
87.41654 -2.94793 128.38824 298
90.89195 -2.21757 128.12755 387
90.88995 -2.21586 128.36847 387
89.95815 -2.38602 128.38632 306
88.80212 -2.59748 128.38737 302
87.45621 -2.84331 128.38521 298
90.98344 -2.12296 128.13971 388
90.98423 -2.12436 128.38084 389
90.00044 -2.29796 128.38615 306
88.84249 -2.50087 128.38644 302
87.49530 -2.73903 128.38629 298
91.07848 -2.03105 128.15410 389
91.04792 -2.03459 128.38580 310
90.04226 -2.20638 128.38629 306
88.88374 -2.40402 128.38525 302
87.53444 -2.63188 128.38644 298
91.16910 -1.93802 128.16672 391
91.09056 -1.94978 128.38562 310
90.08464 -2.11541 128.38797 306
88.92575 -2.30430 128.38577 302
87.57745 -2.52403 128.38747 298
91.25958 -1.84830 128.18076 392
91.13541 -1.86821 128.38644 310
90.12725 -2.02404 128.38596 306
88.96736 -2.20807 128.38538 302
87.18506 -2.40521 128.38777 298
91.34937 -1.75634 128.19263 471
91.17856 -1.78180 128.38777 310
90.16985 -1.93351 128.38660 306
88.08172 -2.24978 128.18330 347
87.65949 -2.31459 128.38574 298
86.06361 -2.55232 128.38472 294
91.37103 -1.67606 128.18686 471
91.22356 -1.69968 128.38669 310
90.21565 -1.84350 128.38617 306
87.84465 -2.18621 128.12262 346
87.70292 -2.20624 128.38608 298
86.10871 -2.43895 128.38499 294
91.39211 -1.59781 128.18130 472
91.26918 -1.61552 128.38533 310
90.26014 -1.75401 128.38771 306
87.60021 -2.12226 128.06065 344
87.60213 -2.12158 128.35826 345
86.14911 -2.32311 128.38844 294
91.41544 -1.51679 128.17410 473
91.31335 -1.52997 128.38617 310
90.30293 -1.66402 128.38605 306
87.34836 -2.05422 127.99491 343
87.34743 -2.05356 128.29788 343
86.19269 -2.20698 128.38577 294
91.43600 -1.43595 128.16684 473
91.36073 -1.44621 128.38544 310
90.34859 -1.57341 128.38533 306
87.12820 -1.97869 127.93874 442
87.12704 -1.97880 128.24619 443
86.23483 -2.08892 128.38760 294
91.45706 -1.35449 128.16052 474
91.40738 -1.36186 128.38600 310
90.39553 -1.48231 128.38632 306
87.03488 -1.88419 127.90646 442
87.03381 -1.88440 128.21716 442
86.28143 -1.97549 128.38721 294
91.47966 -1.27413 128.15309 474
91.45363 -1.27642 128.38605 310
90.44244 -1.39227 128.38684 306
86.93861 -1.78977 127.87623 441
86.93884 -1.78902 128.18890 441
86.32487 -1.85675 128.38559 294
91.50123 -1.19235 128.14789 475
91.50059 -1.19212 128.38597 310
90.48978 -1.30119 128.38794 306
86.84377 -1.69108 127.84602 440
86.84190 -1.69140 128.15895 440
86.37360 -1.74365 128.38681 294
91.52258 -1.11028 128.13985 475
91.52306 -1.11261 128.38042 476
90.53603 -1.21147 128.38663 306
86.74571 -1.59220 127.81406 439
86.74389 -1.59474 128.13208 439
86.41904 -1.62555 128.38756 294
91.54572 -1.03003 128.13428 476
91.54414 -1.02858 128.37386 477
90.58536 -1.11876 128.38776 306
86.66015 -1.49077 127.78811 302
86.64203 -1.49288 128.10268 438
86.46620 -1.50916 128.38589 294
91.56779 -0.94643 128.12500 476
91.56776 -0.94823 128.36691 477
90.63522 -1.02919 128.38799 306
86.70711 -1.37717 127.78561 302
86.54227 -1.39225 128.07318 437
86.51379 -1.39557 128.38460 294
91.58868 -0.86528 128.11777 477
91.58993 -0.86576 128.35980 478
90.68367 -0.93885 128.38739 306
86.75751 -1.26106 127.78733 302
86.43964 -1.28827 128.04257 436
86.43817 -1.28702 128.36284 437
91.61042 -0.78295 128.11124 477
91.61057 -0.78305 128.35237 478
90.73490 -0.84900 128.38779 306
86.80322 -1.14776 127.78857 302
86.33401 -1.18350 128.01120 436
86.33371 -1.18334 128.33516 436
91.63268 -0.69860 128.10437 478
91.63437 -0.70059 128.34451 479
90.78465 -0.75882 128.38535 306
86.85503 -1.03399 127.78616 302
86.28201 -1.07086 127.99043 490
86.28524 -1.07375 128.31900 491
91.65636 -0.61506 128.09636 478
91.65552 -0.61458 128.33908 479
90.83784 -0.66794 128.38545 306
86.90203 -0.91744 127.78596 302
86.25470 -0.95959 127.97401 490
86.25320 -0.95987 128.30385 491
91.67870 -0.53201 128.08878 479
91.67762 -0.53245 128.33150 480
90.88930 -0.57689 128.38597 306
86.95451 -0.80253 127.78882 302
86.22446 -0.84653 127.95762 490
86.22193 -0.84467 128.28738 490
91.70154 -0.45020 128.07919 479
91.70011 -0.44872 128.32260 480
90.94076 -0.48739 128.38708 306
87.00742 -0.68967 127.78672 302
86.19326 -0.73161 127.94407 489
86.19316 -0.73324 128.27376 490
91.72365 -0.36516 128.07295 480
91.72208 -0.36391 128.31529 481
90.99448 -0.39665 128.38686 306
87.05704 -0.57285 127.78650 302
86.15866 -0.61573 127.92791 489
86.16254 -0.61533 128.25609 490
91.74599 -0.28097 128.06432 480
91.74488 -0.27957 128.30827 481
91.04811 -0.30749 128.38651 306
87.10921 -0.46213 127.78702 302
86.13193 -0.49829 127.91012 489
86.12985 -0.49915 128.24101 489
85.01007 -0.54458 128.38800 290
91.77000 -0.19477 128.05679 481
91.76978 -0.19398 128.30061 482
91.10050 -0.21668 128.38719 306
87.16430 -0.34428 127.78696 302
86.09840 -0.38290 127.89121 488
86.09701 -0.38211 128.22420 489
85.06503 -0.41467 128.38681 290
-27179.17773 -896.67761 578.25592 1000
91.79140 -0.10849 128.04874 481
91.79158 -0.10995 128.29251 482
91.15522 -0.12618 128.38663 306
87.21955 -0.23090 127.78583 302
86.06419 -0.26339 127.87440 488
86.06567 -0.26138 128.21002 489
85.11967 -0.28868 128.38559 290
91.81451 -0.02451 128.03943 481
91.81551 -0.02453 128.28299 482
91.21014 -0.03790 128.38762 306
87.27469 -0.11719 127.78677 302
86.03265 -0.14505 127.85724 488
86.03482 -0.14328 128.19382 488
85.17702 -0.16199 128.38680 290
91.80431 0.05976 128.02316 484
91.80586 0.06147 128.26860 485
91.26555 0.05242 128.38597 306
87.33002 -0.00412 127.78841 302
86.00327 -0.02091 127.83842 487
86.00129 -0.02300 128.17828 488
85.23322 -0.03523 128.38858 290
91.78284 0.14780 128.00171 483
91.78104 0.14701 128.24759 484
91.32394 0.14158 128.38705 306
87.38750 0.11064 127.78793 302
86.02155 0.09776 127.83465 486
86.02235 0.09984 128.17186 487
85.29507 0.09112 128.38635 290
91.75760 0.23523 127.97937 483
91.75704 0.23400 128.22803 484
91.37975 0.23365 128.38536 306
87.44386 0.22262 127.78562 302
86.05486 0.22250 127.82633 486
86.05526 0.22021 128.16600 487
85.35056 0.22044 128.38673 290
