# .PCD v.7 - Point Cloud Data file format
VERSION .7
FIELDS x y z rgb
SIZE 4 4 4 4
TYPE F F F U
COUNT 1 1 1 1
WIDTH 1073
HEIGHT 1
VIEWPOINT 7044.896973 -1898.364014 142.152695 -0.642475 -0.106374 -0.102721 0.751903
POINTS 1073
DATA ascii
-17480.47070 1029.79395 1000.64679 457
-17555.09570 1142.39526 717.10724 452
-17413.51172 1137.16785 1000.45105 457
-17493.79102 1250.23718 712.73816 462
-17356.21289 1240.12646 997.51263 474
-17437.18555 1352.13184 712.79028 462
-17304.63672 1344.35510 993.69983 471
-17382.62695 1459.55432 710.28009 463
-17247.22461 1447.89600 994.90759 472
-17328.63281 1558.50977 710.17163 463
-17195.43555 1548.45325 991.15643 472
-17273.33008 1665.43005 710.17810 464
-17142.17773 1652.37061 987.45160 473
-17219.22656 1764.73279 709.15936 464
-17088.44531 1753.26953 984.20331 473
-17164.72461 1864.29163 705.02521 465
-17034.51367 1852.69324 984.03882 474
-17112.12891 1970.38782 704.25763 465
-16980.70703 1952.48877 979.24078 475
-17055.76562 2070.17041 702.06409 466
-16929.36914 2051.08374 981.51440 475
-17002.97852 2166.42700 699.37042 467
-16878.55859 2153.01221 977.92377 476
-16951.35742 2270.46973 700.34412 467
-16825.35156 2253.05322 976.50238 476
-16900.03320 2365.29077 697.83167 468
-16770.54883 2348.84302 972.02917 477
-16846.65234 2465.35400 694.91388 468
-16722.77344 2446.91382 971.36853 477
-16791.45703 2562.30908 697.04431 468
-16666.46680 2546.31494 968.88611 478
-275.27902 58.26847 33.35641 319
-16743.49414 2660.82935 693.90186 469
-16616.37109 2644.48853 965.86597 478
-268.98810 59.57795 34.88953 326
-283.36765 61.94581 37.63770 323
-16689.69727 2757.71265 693.81366 468
-16565.95703 2737.86060 964.81256 479
-12945.83594 2144.87354 2095.47437 1000
-264.58023 61.06291 35.99351 350
-279.16461 63.53629 38.60215 347
-295.17450 66.24654 41.19130 341
-16639.77148 2855.56689 694.61853 468
-16517.79102 2834.15308 964.22211 479
-262.59427 62.93979 36.37486 351
-277.06589 65.51492 38.98270 345
-293.27686 68.38148 41.54102 340
-16587.23633 2952.06128 692.19495 469
-16466.03711 2930.16943 960.99536 479
-260.64880 64.87843 36.80903 351
-275.22748 67.49030 39.37487 345
-294.95190 71.16954 41.07397 318
-16536.54102 3049.49854 689.58887 469
-16412.16602 3027.98169 960.39362 480
-258.72775 66.74634 37.15274 351
-275.20920 69.86337 39.13074 321
-16482.27344 3145.37109 688.72754 470
-16362.51172 3120.91748 959.13898 480
-257.22495 68.60327 37.51353 325
-277.08176 72.52209 38.62613 318
-16431.94531 3239.29834 689.61188 470
-16314.79395 3220.05249 957.64703 481
-258.96756 71.23386 36.86825 322
-16383.57520 3336.98438 686.45825 471
-16263.89648 3313.27124 958.24884 481
-260.95511 73.91491 36.18364 321
-16331.11719 3429.54004 687.34222 471
-16211.75879 3405.78857 952.86200 482
-262.85147 76.50575 35.54634 321
-16282.41699 3523.43140 686.60632 471
-16161.53125 3501.66309 952.60431 482
-16231.04004 3619.63721 682.44952 472
-16112.58203 3593.52759 952.82056 482
-16180.36328 3711.98584 684.41193 472
-16065.96777 3688.60791 950.72229 483
-16133.03711 3806.91040 682.36078 472
-16015.20410 3777.78027 948.75421 483
-16082.73926 3900.45679 680.76306 473
-15965.47754 3872.81860 948.65320 484
-16031.77734 3993.49146 678.38391 473
-15917.80469 3964.96021 946.70709 484
-15984.02344 4087.96313 678.64612 474
-15870.03027 4057.90625 942.90741 484
-15933.57031 4180.65430 675.59985 474
-15817.74707 4148.14502 943.41644 485
-16511.20508 4329.82031 1258.81555 479
-16506.02539 4328.82861 1541.27771 404
-15881.99219 4270.70752 677.68280 474
-15771.23828 4240.54150 939.84717 485
-15775.40430 4244.16357 1213.80518 385
-16434.08398 4415.72949 1540.02087 405
-15832.70605 4361.15576 677.06213 475
-15720.63086 4330.78760 939.54956 485
-15724.10156 4332.67236 1209.99463 385
-16360.63086 4505.64746 1533.79944 405
-15784.77637 4454.71533 673.06934 475
-15675.43652 4422.85986 941.92383 486
-15675.86816 4420.96143 1209.02686 385
-16284.17188 4594.07715 1530.25757 406
-15736.35254 4543.96484 675.27051 475
-15625.75488 4511.81006 936.76923 486
-15621.23535 4510.37549 1207.98401 385
-16217.58496 4684.41064 1524.64551 481
-15690.08203 4636.61816 674.49872 475
-15579.48047 4606.13770 936.34540 486
-15575.22070 4601.77441 1206.33203 427
-16148.48926 4771.54541 1521.70813 481
-15640.27051 4725.93652 673.99615 476
-15527.86914 4695.71777 936.02295 487
-15527.78711 4694.05957 1203.87952 426
-16077.76660 4860.50488 1518.95496 482
-15590.21973 4818.82764 671.13593 476
-15481.62305 4784.74609 934.92688 487
-15482.78418 4783.74658 1204.58252 426
-16008.39746 4946.46240 1517.24585 483
-15541.78516 4905.44336 669.66022 476
-15433.28027 4873.00732 936.47058 487
-15435.93066 4876.47217 1202.34497 427
-15953.82617 5037.37500 1512.67224 494
-15494.74609 4998.53955 669.26819 477
-15386.25879 4962.52246 933.55066 487
-15390.92090 4962.27393 1201.51978 427
-15901.08398 5128.86133 1512.78467 495
-15445.22363 5086.03564 667.97906 477
-15338.41504 5053.12793 931.98273 488
-15340.57422 5054.87158 1197.44763 427
-15852.12988 5222.46387 1508.12561 495
-15396.15137 5178.20312 669.76910 477
-15291.73047 5141.46191 929.90234 488
-15811.31250 5314.55664 1233.33215 495
-15798.29688 5311.98682 1510.24023 495
-15350.69238 5267.55908 667.36981 477
-15246.47559 5229.75488 932.68188 488
-15725.00879 5395.85107 1229.33508 458
-15748.70605 5403.07080 1508.80457 495
-15302.16406 5357.54150 668.26703 477
-15198.91406 5320.22021 931.94922 488
-15625.31543 5469.87402 1227.61597 459
-15698.70117 5494.76855 1503.62903 496
-15255.64648 5444.93066 666.38617 478
-15150.90332 5409.79395 928.90485 489
-15529.14648 5541.87256 1221.91162 459
-15650.22559 5586.20215 1505.78784 496
-15206.63184 5532.52832 665.30670 478
-15104.48926 5498.42725 930.23383 489
-15433.21191 5617.97949 1217.00757 460
-15526.05762 5648.38574 1494.42773 368
-15159.78223 5623.48877 666.04602 478
-15054.82520 5583.45605 927.31671 489
-15338.68750 5690.85596 1213.91870 461
-15465.56445 5738.53906 1495.26282 361
-15110.45508 5710.01807 664.98730 478
-15010.45508 5673.61816 925.27100 489
-15261.07031 5770.33350 1210.91553 497
-15411.75879 5826.94971 1493.31995 361
-15527.23145 5869.67383 1775.70325 496
-15065.28613 5799.33105 667.88580 478
-14963.63574 5760.13477 926.72668 489
-15215.31641 5860.37451 1207.54285 497
-15357.85742 5914.52051 1488.98193 361
-15475.88965 5958.54248 1775.35339 497
-15629.62500 6018.97607 2069.89917 460
-15017.96875 5891.41260 667.46539 479
-14913.94434 5849.14795 924.10736 490
-15162.54785 5945.85840 1205.79272 497
-15304.11719 6004.07861 1490.15967 495
-15425.51074 6048.64453 1773.11621 497
-15536.96484 6094.16309 2062.20117 493
-14969.95215 5976.63623 663.49701 479
-14866.53418 5937.73486 925.60876 490
-15115.79883 6037.93945 1207.18347 497
-15347.44238 6127.17822 1496.34277 497
-15355.79199 6133.52002 1771.74536 439
-2828.15601 1180.37305 132.39366 487
-2833.22388 1182.36401 184.49168 498
-14923.83789 6064.29688 662.68536 479
-14822.47852 6025.08398 926.30328 490
-15065.99023 6122.37744 1203.80542 498
-15249.82422 6196.63330 1492.95752 440
-15239.26074 6195.19238 1763.09216 440
-14872.72656 6155.48145 664.74255 479
-14773.29980 6114.48291 923.25067 490
-15019.86133 6214.48096 1203.00696 498
-15132.08887 6260.76074 1484.62878 441
-15119.80371 6255.10938 1753.64709 441
-15259.43359 6314.34814 2043.27087 355
-14828.20703 6240.01123 665.44159 479
-14728.56250 6198.21143 921.21338 490
-14971.27539 6299.36230 1204.05029 498
-15017.43555 6321.36670 1474.93384 442
-15002.08984 6317.42773 1746.35999 442
-15132.42090 6370.55762 2033.98596 356
-14783.10352 6328.37646 664.57233 479
-14680.74707 6289.67041 924.45898 490
-14920.77539 6387.62939 1205.27844 498
-14951.77637 6401.86328 1475.26672 498
-14942.14648 6396.93701 1743.34509 498
-15033.06641 6439.71777 2023.83301 391
-15096.85449 6464.23242 2307.52148 468
-15088.01074 6460.42041 2583.16724 444
-15077.41797 6455.63770 2854.83521 444
-15067.97754 6455.30762 3132.56274 443
-15062.89746 6452.42090 3409.76587 340
-14733.07910 6415.10156 665.05920 480
-14635.63477 6373.37012 923.19647 490
-14873.44531 6479.76904 1203.58252 498
-14875.90430 6477.52881 1473.44714 498
-14864.83496 6475.32471 1737.72742 498
-14982.18555 6525.86328 2023.72998 391
-15197.73047 6619.66650 2327.72632 485
-14686.95801 6504.78467 663.69269 480
-14589.69824 6460.83203 920.55920 491
-14824.90820 6565.77344 1199.97375 498
-14829.83789 6568.65283 1472.64563 498
-14815.73633 6562.68408 1738.97937 498
-14932.85449 6614.43164 2023.80005 391
-15148.71875 6709.98975 2327.15381 485
-15556.04688 6889.41748 2671.78906 332
-14641.35156 6592.75488 660.84100 480
-14543.12402 6548.85938 920.14941 491
-14775.39258 6652.73779 1201.64587 499
-14781.05469 6658.28857 1470.60913 498
-14766.77734 6648.70605 1735.26074 498
-14878.82129 6701.54297 2021.38049 392
-15066.34277 6783.32520 2320.79272 453
-14592.24902 6679.94971 660.72552 480
-14493.76465 6634.90820 922.67682 491
-14724.99805 6742.52295 1201.73242 499
-14733.03125 6743.87793 1467.34106 499
-14719.52051 6738.82422 1734.57410 498
-14832.53027 6790.42822 2019.98840 392
-15011.76562 6872.56592 2317.04639 453
-14546.74707 6767.42920 659.59180 480
-14449.14160 6723.84570 920.54456 491
-14677.15430 6827.42920 1200.89209 499
-14682.11523 6830.15430 1467.18066 499
-14672.54785 6828.34229 1736.03223 499
-14780.89258 6878.19385 2020.82788 392
-14999.71191 6977.88086 2320.79883 486
-14499.21777 6853.26855 659.92090 480
-14401.99121 6808.72461 918.12476 491
-14626.93457 6916.95801 1198.28247 499
-14633.61914 6919.21631 1465.70483 499
-14625.87598 6912.45752 1733.30334 499
-14728.67578 6962.12158 2016.09326 392
-14947.92285 7069.52588 2321.95288 486
-14450.84766 6940.26709 658.87744 480
-14354.99219 6897.96729 919.68268 491
-14581.37793 7003.80176 1201.54529 499
-14587.36328 7006.81299 1469.22192 499
-14575.85547 7001.79346 1733.81787 499
-14680.11426 7052.20117 2018.52307 392
-14404.75391 7030.97754 658.72229 480
-14309.33008 6983.49121 921.20709 491
-14530.47949 7091.81445 1200.65808 499
-14537.70312 7092.67578 1465.13403 499
-14525.06543 7091.21338 1733.87012 499
-14627.88965 7137.16016 2016.32141 392
-14358.45020 7116.50635 662.78241 480
-14263.66992 7072.56250 918.09558 491
-14485.22656 7180.85791 1196.37341 499
-14517.75098 7197.22070 1469.02795 499
-14504.33691 7190.06006 1737.61584 499
-14581.86621 7228.05713 2014.03235 392
-14312.88086 7205.27393 660.81659 480
-14216.73730 7156.03809 917.73322 491
-14433.58496 7265.17920 1198.55786 499
-14467.87500 7280.82471 1467.61499 499
-14458.74316 7275.29102 1735.33191 499
-14530.06250 7315.93506 2012.61279 392
-14265.36035 7289.52979 662.08038 480
-14171.68066 7243.21680 919.66730 491
-14386.26270 7352.43701 1198.62183 499
-14280.55078 7297.11328 1455.16626 479
-14222.04590 7271.53809 1712.51636 465
-14481.85742 7401.40479 2015.93408 392
-14219.14941 7376.53564 660.77545 480
-14124.74023 7328.88428 917.00867 491
-14339.50879 7442.06006 1195.77649 499
-14369.80371 7456.91260 1467.98621 499
-14362.32031 7453.00830 1732.99866 499
-14429.60547 7486.99902 2011.22290 383
-14169.08496 7464.86475 661.01324 480
-14080.08203 7418.28857 918.65491 491
-14290.29297 7526.92773 1199.32959 499
-14322.11035 7545.33350 1465.92761 499
-14310.26270 7537.48828 1734.87292 499
-14377.53125 7573.67822 2010.79517 383
-14122.61914 7553.08105 660.03693 480
-14030.64062 7505.05811 917.60651 491
-14239.82910 7613.36768 1196.56360 499
-14276.73047 7632.08154 1468.04724 463
-14268.01367 7627.46436 1735.81348 463
-14346.75488 7671.65283 2012.43726 365
-14075.17480 7637.11475 658.28638 480
-13986.87109 7592.36426 920.18176 491
-14195.16309 7700.10547 1196.36450 499
-14280.20801 7751.34180 1471.67004 462
-14272.21875 7744.93408 1740.47375 462
-14365.21484 7795.05176 2024.48669 365
-14030.96387 7725.13867 659.03943 480
-13940.04980 7676.21973 920.28522 491
-14146.78320 7787.89600 1195.34204 499
-14279.99707 7864.44775 1474.96924 480
-14279.77051 7863.33838 1747.45715 461
-14383.44141 7917.32031 2029.16931 366
-13984.73340 7812.84473 659.35309 480
-13891.30566 7764.03174 918.63422 491
-14098.89941 7877.90283 1199.09729 499
-14264.59082 7968.12109 1477.82495 479
-14284.06055 7983.23584 1752.83337 461
-13936.79883 7898.15723 657.79510 480
-13848.08984 7848.01904 918.22095 491
-14051.01660 7961.64844 1198.30774 499
-14245.80566 8073.29492 1482.32507 479
-14282.85938 8097.65479 1759.66406 478
-13887.25977 7987.94434 662.32574 480
-13799.65527 7935.88037 918.72003 491
-14047.87305 8078.31689 1201.54663 423
-14226.86914 8177.97266 1485.52563 478
-13843.71973 8073.30029 659.80377 480
-13752.77246 8022.90430 917.21478 491
-14048.44141 8194.12695 1206.28503 423
-14208.27930 8285.43066 1487.94397 478
-13793.35645 8160.08057 662.11884 480
-13705.72168 8111.46484 917.65454 491
-14048.88672 8310.36133 1206.42883 422
-13746.29102 8246.96289 662.17273 480
-13662.17871 8194.41602 919.13861 491
-14030.49023 8415.57227 1212.07336 405
-13701.40918 8334.87109 658.52295 480
-13612.62988 8281.14941 920.85394 491
-14003.52637 8519.43652 1213.88123 405
-13653.79297 8422.42773 658.19604 480
-13569.02148 8371.21973 918.22607 491
-13979.22070 8622.09473 1212.26611 404
-13606.82129 8508.17383 662.46014 480
-13521.48242 8457.85645 920.08862 491
-13954.56055 8726.80176 1217.72131 404
-13558.51562 8596.09961 662.38556 480
-13473.43555 8541.83008 918.97290 491
-14799.13965 9377.37012 1288.43140 423
-13514.63379 8686.32422 660.58466 480
-13427.16992 8631.73340 920.66858 491
-14742.88770 9473.10156 1287.96472 423
-13465.24805 8770.99609 660.63397 480
-13380.13086 8716.98340 920.40118 490
-14689.78320 9565.13379 1288.08557 423
-13416.96191 8859.37500 660.13800 480
-13332.25977 8803.48340 921.57062 490
-14639.07715 9659.53711 1285.24756 423
-13371.40430 8944.87598 662.44928 479
-13287.86719 8892.36914 922.05463 490
-14583.52832 9751.95020 1289.09485 423
-13323.76953 9033.65625 663.87018 479
-13240.17090 8976.96191 919.91370 490
-14532.44141 9849.18555 1287.47314 423
-13275.92480 9120.89355 660.28937 479
-13194.92188 9067.92578 923.08325 490
-14475.97363 9940.70508 1288.29736 423
-13228.62598 9212.73828 663.64966 479
-13146.05469 9153.45996 922.29218 490
-14424.94824 10037.20605 1290.63855 423
-13180.97949 9299.84570 664.42023 479
-13100.57324 9240.27539 923.83380 490
-14366.75098 10132.80762 1287.69312 423
-13131.10742 9388.51074 661.18689 479
-13051.07324 9327.91992 922.34021 489
-14313.41309 10222.96777 1287.75696 423
-13084.71973 9473.79590 665.39990 478
-13004.46875 9419.03711 922.69135 489
-14257.26172 10320.18945 1290.59973 423
-13036.71875 9561.54688 661.75177 478
-12957.72266 9505.78613 924.79535 489
-14206.17480 10415.41016 1292.39685 423
-12987.72949 9651.43945 666.29059 478
-12909.99219 9592.35254 924.66095 489
-14153.38086 10507.07812 1290.23926 423
-12939.58203 9740.37598 665.80530 478
-12864.13770 9680.65625 926.01440 489
-14093.63770 10605.45703 1293.90405 422
-12895.13184 9831.62305 666.93433 478
-12814.58887 9768.57812 928.53394 488
-14043.89453 10697.73242 1291.37622 422
-12846.85156 9916.77832 667.83838 477
-12765.95703 9859.49121 927.80359 488
-13985.35059 10792.37305 1293.58179 422
-12796.11230 10007.27637 667.08905 477
-12721.83105 9946.94434 927.46411 488
-13933.42090 10890.39062 1296.78809 422
-12748.64746 10098.41699 664.91351 477
-12673.46973 10035.70703 928.98694 488
-13876.32324 10984.68945 1296.08911 422
-12698.74414 10185.33496 667.59930 477
-12623.27637 10127.82715 928.49677 487
-13823.20703 11078.02051 1295.45483 422
-12653.75195 10274.94824 665.81097 476
-12573.08105 10215.82715 932.34436 487
-13763.61719 11173.36621 1299.17993 422
-12602.14453 10368.81348 668.95020 476
-12526.24707 10302.69434 930.95331 487
-13710.20215 11272.68457 1299.15881 421
-12555.70215 10454.80859 667.44135 476
-12478.02539 10393.08789 935.19476 487
-13652.75195 11367.36621 1299.42456 419
-12504.42676 10548.25879 669.49640 476
-12431.51855 10485.10645 933.07800 486
-13595.20215 11463.70801 1299.78760 495
-50096.16016 42533.67188 -11840.71680 1000
-19333.82227 16466.79102 -702.47632 1000
-12454.96875 10636.07520 669.55383 475
-12381.39160 10573.91895 932.73151 486
-13535.55469 11553.27637 1300.35864 495
-12406.46973 10727.91406 669.81317 464
-12332.09277 10665.70020 936.02716 486
-13479.76074 11650.22949 1302.93176 495
-12365.99805 10829.56445 672.73975 464
-12282.12793 10756.97461 935.37872 485
-13417.27734 11742.32324 1306.11414 494
-12328.91309 10929.72266 671.23438 464
-12232.60742 10846.35156 940.09045 485
-12288.97949 11032.84375 675.58862 466
-12194.12109 10946.36719 941.93567 466
-13294.36914 11927.05566 1308.17395 476
-12249.96191 11132.87305 677.42096 465
-12158.93652 11051.59668 943.83612 466
-13208.08691 11998.68457 1307.74158 495
-12211.85938 11237.34961 677.63257 465
-12116.64844 11153.28125 945.57758 465
-13167.01465 12106.51758 1306.73718 367
-12175.99121 11340.55273 679.16205 464
-12082.59180 11256.34180 946.88281 464
-12040.63379 11216.06738 1212.97253 485
-12140.29102 11448.41699 681.49207 424
-12040.72754 11357.31152 949.02411 464
-12000.47559 11316.05371 1215.46033 485
-12122.60449 11571.67480 682.63306 423
-12003.07617 11460.35938 950.76758 463
-12964.00000 12370.28516 1311.46790 451
-12110.04395 11704.12793 684.26831 401
-11964.21289 11565.20312 952.64148 464
-12894.33105 12459.85156 1309.43970 451
-12101.72656 11841.33008 689.15594 400
-11926.18555 11674.53906 954.90863 424
-12092.25195 11979.60449 691.97028 399
-11909.21875 11799.06250 956.87988 423
-12088.58301 12122.00879 692.09070 373
-11887.47949 11927.51562 960.85419 422
-12156.91113 12340.96191 701.38202 304
-11868.96680 12053.83594 964.89709 421
-11853.30469 12182.05762 970.42181 399
-11843.09082 12326.25098 975.03479 373
-11740.34180 12221.68262 1246.82324 404
-11852.54199 12489.66504 978.32233 372
-11724.06836 12348.74219 1250.59302 403
-11861.41699 12648.94336 987.59363 371
-11706.95410 12484.68262 1257.05493 417
-11709.32129 12642.00391 1264.04944 384
-11710.86621 12801.88672 1270.61499 372
-1302.01343 2139.03174 131.94737 303
-1339.85425 2196.74902 174.64691 286
-1267.00781 2113.68115 131.41145 353
-1313.79883 2186.04614 174.52560 281
-1277.57227 2159.76025 89.37714 336
-1237.15894 2095.89575 131.38358 379
-1315.99048 2219.36768 174.90919 322
-1242.63306 2132.52808 90.41560 333
-1211.85376 2084.56445 131.39302 372
-1309.73730 2240.56250 175.21017 364
-1212.94409 2114.86963 91.15978 372
-1187.64563 2074.41431 131.71266 373
-1300.53748 2255.96484 175.27440 310
-1178.69336 2088.19556 91.61993 274
-1164.90833 2065.28857 131.30360 385
-1143.61707 2058.51147 92.50620 349
-1142.92969 2058.16992 131.45087 386
-1118.07422 2045.21973 92.59905 350
-1121.86780 2051.72021 131.24605 348
-1094.31726 2033.03174 93.22527 365
-1102.39563 2047.28125 131.33142 349
-1071.91943 2023.55225 93.03681 366
-1082.84705 2043.19397 131.74826 351
-1051.05273 2016.17163 93.77333 423
-1063.64380 2037.61560 131.66377 378
-1031.65564 2010.92273 93.67040 424
-1044.90125 2034.14539 131.51076 390
-1087.15332 2109.90723 171.16078 434
-1012.13934 2004.92029 94.33363 425
-1068.12976 2105.99414 131.74631 435
-1068.11340 2105.15894 170.77057 435
-993.32782 2000.06824 94.27618 435
-1048.49304 2101.12207 131.61797 436
-1059.62671 2121.66382 171.00208 380
-975.28571 1995.85559 94.75737 436
-1036.66089 2110.14893 131.69370 414
-1055.04236 2144.09058 171.22571 379
-957.44598 1991.77625 94.55469 437
-1031.59607 2132.59229 131.84225 413
-1049.66870 2166.01831 171.77104 378
-939.24237 1987.53284 95.06568 438
-994.19916 2093.09619 131.69957 439
-1044.77393 2189.10962 171.82104 377
-921.65680 1983.38782 95.01112 439
-976.17932 2088.77881 131.40546 440
-1039.07788 2212.21362 171.96028 376
-904.24707 1979.55286 95.23367 440
-954.47375 2078.04077 131.42209 441
-954.02179 2077.33618 169.32712 441
-887.23016 1975.05676 95.58465 441
-939.44989 2079.81494 131.58536 408
-937.83508 2077.28564 169.45691 408
-11927.50488 24115.86914 5488.10693 1000
-869.91534 1971.13977 95.52872 442
-934.22949 2101.82153 131.45744 407
-932.84998 2099.00269 170.09801 407
-853.33661 1967.54211 95.87103 443
-924.29114 2115.04785 131.37976 272
-932.83752 2131.92578 169.97879 444
-931.57318 2129.44189 247.37878 356
-836.61200 1963.85681 96.06069 444
-864.66089 2022.81250 131.26608 445
-905.19171 2108.32812 246.01292 357
-838.35803 1998.98608 59.15334 413
-820.25494 1960.25012 96.14928 445
-847.38519 2018.73547 131.26357 446
-847.48718 2018.31958 168.16208 446
-883.90790 2096.91748 245.06404 404
-886.45105 2102.32983 283.43594 481
-821.28796 1994.35388 59.85183 414
-803.55212 1956.60938 96.20327 445
-833.74847 2021.89575 131.72566 397
-833.33179 2020.13623 167.69847 397
-878.74854 2119.30884 246.01833 403
-804.54126 1990.18848 60.22311 415
-787.41583 1952.83496 96.65446 446
-822.15759 2029.36719 131.81306 448
-828.32220 2043.27307 168.02084 395
-872.99231 2142.50854 247.11005 401
-787.40759 1985.79797 60.25179 415
-771.28680 1949.71118 96.59535 447
-824.53540 2067.84937 131.70622 400
-823.36877 2066.83008 168.35477 400
-855.58997 2137.97778 362.01047 400
-771.01422 1981.24402 60.90211 416
-755.29993 1945.87524 96.66367 448
-818.71564 2090.73853 131.82355 399
-818.33575 2089.40259 168.72728 399
-754.81628 1976.82031 60.99550 417
-739.57776 1942.61584 96.88850 449
-813.85858 2113.64160 131.78639 398
-813.24341 2112.32324 168.89510 398
-738.41693 1972.91736 61.58946 418
-724.26947 1938.97583 97.26479 450
-756.49591 2014.97241 131.47057 452
-807.33685 2136.15454 169.41272 396
-721.34674 1966.14294 62.02514 314
-708.57080 1935.47754 97.41655 451
-802.49164 2160.83691 131.79707 401
-802.36969 2159.61035 169.79131 401
-746.75037 2027.58215 203.61658 468
-746.09723 2024.82983 239.55183 473
-15157.20703 37219.55078 -4501.54053 1000
-704.72015 1960.12073 62.30141 314
-693.38647 1931.89209 97.18539 452
-796.50830 2184.34399 131.54967 400
-795.70935 2182.35132 170.05865 400
-740.16437 2046.81958 240.43376 394
-737.71051 2040.48438 312.38019 477
-688.26685 1953.55847 62.60168 315
-678.23633 1928.64624 97.62427 453
-738.41290 2079.32471 168.31799 373
-734.77209 2069.93481 241.05667 393
-671.50171 1947.55908 63.04036 315
-662.96478 1924.97729 97.36054 453
-733.00488 2102.82056 168.36461 372
-729.92438 2094.37378 242.02325 324
-655.39935 1941.60876 63.54364 315
-648.07397 1922.19873 98.05235 430
-727.37817 2126.78516 168.54811 371
-725.19476 2120.56104 243.37245 323
-639.18140 1935.65442 63.66553 316
-633.29364 1919.15259 98.11922 431
-722.03760 2151.62646 169.24648 370
-715.60400 2135.55615 318.49164 474
-623.40698 1929.47766 64.25174 316
-618.57922 1915.72424 98.27984 432
-608.15344 1923.85840 64.35615 316
-604.30304 1913.07288 98.13327 432
-592.74591 1917.67529 64.71071 317
-589.94946 1909.83740 98.55109 433
-576.94214 1912.57874 64.89519 405
-575.26025 1907.30542 98.15008 434
-562.55219 1908.34033 65.16940 406
-561.12628 1904.40894 98.27278 434
-548.18823 1904.64563 65.59194 406
-546.96063 1901.36816 98.87567 464
-535.52283 1906.32092 65.90800 352
-534.69946 1903.11511 98.51863 464
-524.10620 1911.26270 65.50498 352
-522.05426 1904.40527 98.44102 465
-512.69324 1915.74695 65.60690 352
-510.35855 1908.17224 98.73133 404
-553.29492 2043.99939 131.53519 464
-527.73419 2004.53076 62.79527 262
-499.24246 1913.73010 98.65752 326
-516.26471 2012.74939 62.68651 262
-536.33966 2077.89551 95.81045 370
-510.32825 2038.11755 61.74294 373
-530.48132 2104.16602 95.43954 369
-504.32645 2063.78198 60.98784 372
-524.20166 2131.90454 94.81463 368
-498.42432 2090.45557 60.53535 370
-510.84888 2135.37476 95.18564 464
-488.98904 2107.83398 59.80802 365
-495.62112 2132.10693 95.15890 465
-488.43558 2156.83057 58.40776 351
-481.72375 2132.70801 95.28191 490
-468.17422 2134.06836 95.46625 469
-454.81491 2135.49268 95.54301 469
-441.43942 2137.91772 95.28344 394
-44.55353 854.04865 17.53235 431
-45.25535 857.59534 31.68675 369
-46.41587 865.15759 45.31263 296
-38.60434 851.13281 18.09193 475
-38.95425 853.18140 32.16847 475
-39.26489 855.71240 46.34327 431
-39.88191 858.40149 60.40668 431
-40.86285 864.48560 74.15454 286
-276.86566 2402.30688 -352.21143 1000
-33.27894 850.37665 18.31759 497
-33.52850 852.14380 32.56507 498
-33.61077 853.76178 46.47056 498
-34.07892 855.82025 60.72132 492
-34.35163 857.84998 74.80712 471
-34.58731 859.99042 88.93951 431
-35.35041 863.78088 103.01150 320
-27.84036 851.35498 18.29296 495
-28.13129 852.84943 32.51240 495
-28.25175 854.39618 46.63599 495
-28.61767 856.04913 60.73641 489
-28.73451 857.22339 74.91421 499
-29.12725 859.05212 88.98476 497
-29.31431 860.55652 103.15296 497
-22.96573 853.85590 18.11447 468
-23.21021 855.50012 32.29002 468
-23.28553 857.12701 46.32845 468
-23.51329 858.97223 60.47129 428
-23.70385 860.18005 74.68893 437
-24.18447 862.05267 88.76160 422
-24.33119 863.92218 102.93258 425
-18.24664 858.82532 17.52552 420
-18.47381 860.81543 31.69043 420
-18.93275 863.84766 45.87875 355
-19.55748 869.49506 59.58083 281
-643.96136 35969.23828 -4011.91577 1000
99.47704 911.33929 146.45508 1000
309.02881 681.94464 49.65857 1000
12945.60352 40848.81641 -6940.78125 1000
22033.54297 59392.75781 13801.98340 1000
8821.29590 10962.54980 -1955.30615 1000
28124.32422 27497.74609 2038.46082 1000
45485.92578 42397.50000 12450.61230 1000
31027.15430 21062.60352 -2954.17578 1000
27971.10352 17996.68555 -1513.26123 1000
27871.43750 17934.02734 3373.06958 1000
2875.52490 1324.90698 -20.64981 358
2942.94531 1335.07812 -75.46333 287
2884.49072 1307.87292 -20.22029 425
2932.35742 1308.73523 -74.23931 287
2899.13257 1293.30151 -21.18806 442
43213.74609 19563.71094 -6119.61426 1000
2921.44995 1282.72168 -72.89400 288
2913.87744 1280.11389 -21.06985 454
2937.61816 1269.48755 -72.98591 429
2929.14648 1265.87683 -21.27250 453
3135.02222 1357.09326 21.46725 435
2955.63574 1256.97571 -73.75739 424
2944.49536 1251.46497 -21.93614 461
3130.09521 1333.45471 22.12815 436
2972.46606 1243.15564 -74.69623 423
2961.64795 1238.54932 -22.57977 460
3124.80005 1308.83325 22.79524 440
2989.96729 1229.75171 -75.08072 417
2977.88843 1224.88367 -23.21898 468
3121.05957 1285.57446 22.87392 336
3009.65649 1216.47791 -75.97543 406
2994.78369 1210.79150 -23.59115 465
3116.45752 1261.36768 23.61773 438
3029.96118 1203.92773 -77.19184 399
3013.83154 1197.22424 -24.14705 454
3112.49048 1237.50940 24.44106 437
3050.68237 1191.72314 -78.37876 399
3033.81177 1184.51318 -24.75983 448
3108.08032 1214.42480 24.80294 438
3073.53931 1179.24414 -78.66711 396
3055.00293 1172.66797 -25.85182 437
3097.67480 1167.53503 -80.68929 386
3078.37622 1160.71277 -25.99705 436
62866.14844 24401.21875 3417.54712 1000
3124.41431 1156.80139 -81.90509 361
3102.70435 1148.61438 -26.87074 424
3158.35889 1148.58337 -83.74722 362
3129.51953 1137.42651 -28.27798 412
3194.50708 1140.51733 -85.91212 361
3162.47681 1128.51782 -29.37951 379
3231.79565 1131.80054 -87.72477 360
3201.05322 1120.57593 -30.93026 378
3269.28442 1124.14355 -89.47423 374
3240.02783 1113.08691 -33.03227 377
3308.26709 1115.56543 -91.84071 373
3279.42944 1105.99121 -34.83287 375
3347.31763 1106.76660 -94.18414 371
3319.96265 1097.78040 -36.80970 374
3386.92188 1097.49438 -96.41630 370
3362.02881 1089.10938 -38.56878 373
3428.79077 1088.27258 -98.96129 369
3404.61450 1080.36646 -39.86768 371
3471.63232 1080.59229 -101.74725 362
3447.51245 1072.45947 -41.96655 370
3517.44336 1070.93396 -103.86763 362
3492.25293 1063.43176 -43.83095 369
3563.38208 1062.81665 -106.39307 359
1808.61426 357.23895 -41.11475 452
1814.12537 358.10544 -12.34623 454
1818.45129 359.01385 16.08954 395
1808.66980 346.22806 -40.84201 486
1814.06055 347.17685 -12.14313 483
1819.32935 348.17892 15.99594 449
1817.79089 337.17313 -41.61037 394
8107.74072 959.90485 1462.97839 1000
2836.84448 -161.06422 -93.74593 467
2845.02344 -161.75226 -49.09842 461
2837.22412 -178.54434 -94.09358 431
3840.14136 -452.89648 -53.79774 366
3845.80835 -477.12177 -115.93829 453
3798.85425 -470.29984 -51.47013 421
3807.56201 -495.32651 -114.25736 286
3788.24219 -492.20627 -51.22440 443
3787.93555 -515.96649 -112.98597 359
3779.15674 -513.77997 -51.62088 421
3768.57593 -536.03357 -111.40565 360
3770.99121 -536.57111 -51.17566 393
3753.39600 -556.68829 -110.90868 418
3764.31201 -558.03918 -51.12740 400
3739.53760 -577.12982 -109.86121 465
3757.70337 -580.35724 -50.10463 352
3728.62183 -598.96985 -110.05574 466
3752.85620 -602.60529 -50.58414 345
3717.68506 -619.79120 -109.08511 467
3759.21338 -626.35004 -50.46370 256
3707.46777 -640.57562 -109.20293 491
3697.91943 -661.40417 -108.60026 492
3838.05176 -687.07623 69.02724 321
3688.81152 -682.81970 -108.01977 494
3766.35059 -697.25079 -51.60961 326
3765.31445 -697.34357 70.49778 322
3680.41357 -704.58698 -107.89024 494
3730.48877 -714.09259 -50.17452 492
3709.60059 -710.16766 71.87299 410
3672.27783 -725.98718 -107.42496 496
3719.65967 -734.92883 -49.94507 492
3779.38989 -747.38281 8.26064 327
3698.01489 -730.83020 71.76736 483
3665.29785 -746.74335 -107.80781 496
3710.05273 -756.34869 -49.68442 493
3715.33862 -757.93518 11.07731 328
3694.32471 -752.95227 71.68815 483
3662.91919 -768.99042 -107.17809 499
3700.24438 -777.39160 -49.18251 493
3702.29175 -778.17352 11.48527 499
3690.34619 -775.22552 71.75600 483
3656.17261 -791.42670 -107.17320 499
3695.22119 -799.79645 -49.47340 499
3697.94678 -800.57611 10.60614 499
3686.31592 -797.69305 71.74136 483
3647.01123 -811.54938 -106.76886 499
3691.52417 -821.97119 -49.08287 499
3693.52417 -822.05542 11.04738 499
3681.59302 -819.96271 71.17891 483
3642.04761 -833.62225 -107.59668 499
3687.31909 -844.15149 -49.88492 499
3689.45972 -844.33270 10.66866 499
3677.91260 -841.90527 71.84614 483
3639.29272 -855.80835 -107.72478 499
3676.55884 -865.15167 -49.02905 499
3679.80298 -866.19977 10.95701 499
3673.92578 -863.83173 71.30817 483
3697.51270 -870.27899 131.87131 474
3699.91870 -870.38873 193.15271 474
3634.75977 -878.20184 -107.34196 499
3673.85962 -887.89325 -48.95189 499
3677.09106 -888.44946 11.38933 499
3669.58765 -886.88062 71.26740 483
3627.10913 -898.88043 -107.32354 499
3669.81812 -909.58771 -49.93382 499
3673.17603 -911.11292 11.47089 499
3666.09497 -909.51105 71.88583 482
3625.45801 -922.12231 -107.01602 499
3665.92383 -932.89954 -49.67707 499
3668.71606 -933.49365 10.85451 499
3662.17773 -931.21600 71.46525 482
847.60120 -201.73581 2.93255 1000
3621.71655 -943.73505 -107.88593 499
3667.08521 -956.52863 -49.36440 499
3669.79077 -957.11670 11.03229 499
3657.44849 -953.28137 71.47665 482
3615.52930 -965.19672 -107.25480 498
3663.35962 -978.78455 -49.44904 498
3665.33691 -979.37085 10.54219 498
3653.95728 -976.19366 71.23962 482
3611.32568 -987.40234 -107.18080 498
3658.68896 -1001.09338 -50.53682 498
3661.78540 -1002.16919 10.15500 498
3649.73853 -998.44397 71.83548 482
3609.82153 -1010.39270 -107.94977 498
3655.17896 -1023.85510 -49.69263 498
3657.69653 -1024.80835 10.51472 498
3645.17847 -1021.28119 71.35440 482
3791.41772 -1062.22266 132.26616 260
3605.82666 -1032.94507 -108.52684 498
3650.83862 -1045.75195 -50.68999 498
3653.77808 -1046.99890 10.73957 498
3641.16089 -1043.16064 71.01468 482
3754.75610 -1076.95789 132.49292 260
3599.18262 -1054.87061 -108.15045 498
3637.61450 -1065.49011 71.59881 480
3597.71655 -1077.25586 -107.87412 498
3593.77710 -1099.65015 -108.80070 497
3781.93188 -1159.17468 132.07359 459
3770.80957 -1155.78064 195.36995 486
3589.71240 -1121.85107 -109.08138 497
3764.78735 -1178.83154 131.86154 358
3582.77832 -1143.30054 -108.42384 497
3581.98022 -1167.34338 -109.69495 497
3577.81738 -1190.16931 -109.18346 497
3570.43311 -1211.16785 -109.32414 496
3566.42139 -1233.76477 -109.85614 496
3737.93188 -1294.72205 5.58764 496
3564.90210 -1256.93738 -110.17503 496
3718.22412 -1312.56421 -57.03905 496
3561.50269 -1279.75476 -110.64412 496
3554.88354 -1301.40125 -110.46645 495
3553.32739 -1325.41907 -111.25297 495
3606.18433 -1345.48328 -52.83557 495
3548.64917 -1348.19946 -111.39368 495
3755.91895 -1428.68726 -61.48270 315
3542.56738 -1370.63501 -111.20274 494
3598.17188 -1392.06604 -52.96051 495
3539.62061 -1393.49561 -111.84250 256
3638.56763 -1433.37524 -56.09139 497
3584.48975 -1437.37305 -115.85723 494
3627.03760 -1454.45300 -55.76536 498
3629.59448 -1480.59338 -119.44052 434
3615.47266 -1475.49573 -55.75934 497
3611.20117 -1498.42517 -56.11782 474
7937.83301 -4108.81689 567.41711 1000
2273.57178 -1674.04065 -93.55489 498
2280.38721 -1679.62988 -48.89803 488
2270.87354 -1693.60510 -94.18165 385
37613.73438 -39723.68750 -1654.99207 1000
1470.79773 -1696.66956 -83.46630 396
1451.81042 -1694.61987 -81.63506 420
1435.48462 -1695.90381 -80.76448 413
1427.65393 -1685.60950 -44.01330 417
1417.12256 -1693.45935 -79.38956 414
1409.17944 -1683.03857 -43.24080 418
1399.03271 -1691.47156 -78.35387 415
1390.57886 -1681.23328 -41.97428 425
1406.47620 -1701.17395 -8.44254 410
1380.75415 -1689.23926 -76.90846 415
1372.54883 -1679.20752 -40.91140 420
1388.45178 -1699.17285 -7.72966 431
1362.46228 -1686.96191 -75.85842 417
1351.63721 -1672.74902 -39.48838 386
1369.91174 -1697.31628 -6.97210 441
1344.58057 -1684.89832 -74.93609 418
1334.61694 -1671.68860 -38.78979 387
1359.71057 -1704.89819 -7.24317 391
1327.15088 -1683.18604 -73.61392 417
1317.82397 -1670.11072 -37.81483 434
1360.39111 -1728.05212 -8.05614 417
1309.50732 -1680.68469 -72.33356 418
1302.54248 -1670.81665 -37.04544 435
1357.94812 -1747.40222 -9.28163 416
1292.74365 -1678.61096 -71.01492 419
1286.04980 -1669.19104 -36.05960 436
1351.24670 -1760.91650 -9.81787 399
1275.27295 -1676.57373 -69.88285 409
1269.02905 -1667.71692 -35.27855 437
1366.35400 -1805.01025 -12.87740 414
1259.18713 -1675.16162 -68.91599 410
1252.67859 -1665.95947 -34.60542 439
1363.75305 -1825.23096 -13.94427 413
1242.59326 -1673.46570 -67.84229 411
1236.24731 -1663.93481 -33.25880 440
1362.10901 -1846.49133 -14.55918 410
1226.61841 -1672.22253 -67.20741 411
1220.17615 -1662.42395 -32.49622 440
1227.41797 -1673.24988 -0.50854 426
1210.86572 -1670.54480 -65.76456 412
1203.99304 -1660.83594 -31.88138 441
1344.02283 -1869.16125 -15.00356 332
1194.90637 -1668.89490 -65.08916 413
1188.45374 -1659.11340 -31.18122 442
1341.89124 -1890.75366 -16.36637 409
1179.31677 -1667.89832 -64.10320 414
1172.33325 -1657.54810 -30.17605 443
1337.03198 -1908.89465 -17.00795 498
1163.51074 -1666.29224 -63.15571 415
1157.23364 -1655.80945 -29.05271 444
1330.41699 -1924.48499 -17.96398 444
1148.59021 -1664.67725 -62.30572 415
1141.64136 -1654.37354 -28.66821 445
1312.10583 -1922.76709 -17.35823 445
1132.95959 -1663.13135 -61.33182 410
1126.38904 -1652.83728 -27.50074 446
1294.60645 -1920.68286 -16.43122 446
1117.26843 -1661.41382 -60.20344 410
1111.31030 -1651.17700 -26.87169 447
1116.00977 -1659.12427 4.09072 294
1102.43005 -1658.97949 -59.45042 411
1096.15210 -1649.80225 -26.40068 448
1100.69287 -1656.81409 5.12450 450
1087.32104 -1657.25964 -58.41599 407
1081.41345 -1648.31616 -25.53723 449
1086.13745 -1655.42078 5.78015 451
1072.30127 -1656.18933 -57.68410 408
1066.92725 -1646.64465 -24.74019 450
1071.39380 -1654.33069 6.14053 452
1057.79810 -1654.73291 -56.56822 409
1052.22375 -1645.13953 -23.81100 451
1056.72546 -1652.80066 6.81619 453
1043.39075 -1653.59790 -55.99227 411
1038.41492 -1644.40259 -23.40158 458
1042.36816 -1651.51208 7.44752 454
1021.98627 -1651.65137 -53.93613 416
1017.10950 -1643.33594 -21.79177 471
1020.66504 -1649.66333 8.97524 468
1008.12872 -1651.50964 -53.31080 421
1003.73334 -1643.97656 -21.34620 472
1007.63702 -1650.68018 9.08172 477
995.06610 -1651.57520 -52.52694 428
991.31995 -1644.61621 -21.20883 479
995.34906 -1651.81799 9.67350 478
982.72504 -1652.96509 -52.06237 429
979.03656 -1646.11780 -20.34099 480
982.59717 -1652.46875 9.67220 477
970.24097 -1654.02124 -51.56943 431
966.68774 -1647.83386 -20.32694 484
973.71527 -1660.02710 9.60543 487
957.99799 -1655.84338 -51.65561 430
954.90204 -1650.06641 -20.02063 487
964.21246 -1667.03809 9.26750 487
946.08752 -1657.40625 -50.87067 433
943.26538 -1652.29688 -19.54385 488
957.80603 -1680.09021 8.93314 380
934.56036 -1659.67847 -50.45021 432
931.81915 -1654.33936 -19.34774 489
955.11169 -1700.05835 7.91321 379
967.83893 -1723.97119 37.87188 376
2115.97876 -3954.53320 1248.18103 1000
922.47675 -1662.13000 -50.27431 433
920.02936 -1656.63794 -18.96634 488
952.70935 -1720.90588 6.50098 378
965.22192 -1744.96387 37.37326 376
911.40942 -1664.75562 -50.11084 436
908.56165 -1659.44592 -18.82060 488
949.80231 -1741.56470 5.86589 377
962.64594 -1767.57544 36.28340 375
899.96051 -1667.41772 -49.67972 436
897.60645 -1662.00732 -18.45663 490
946.54846 -1762.03455 4.32540 375
959.86237 -1789.29382 35.19645 374
888.43420 -1670.17273 -49.51109 439
886.09778 -1665.23938 -18.68455 491
943.86212 -1783.56311 3.26550 374
956.81573 -1811.41003 34.53046 373
877.65710 -1673.21179 -49.15580 439
875.10052 -1668.22766 -18.50488 489
938.53522 -1801.78564 2.53849 450
954.32928 -1833.69983 33.49946 372
866.54474 -1676.20386 -48.89863 439
864.18884 -1671.88562 -17.98912 490
932.11938 -1815.91138 1.93416 290
951.33832 -1856.90369 32.40678 370
855.51434 -1679.89331 -49.25466 444
853.50085 -1675.67603 -17.98489 490
926.52441 -1832.89795 0.97898 290
845.12073 -1683.65698 -48.99787 444
126.50395 -278.68634 -25.00721 491
920.73077 -1850.17615 0.30554 290
834.26776 -1687.79468 -48.71918 445
832.77838 -1683.53491 -17.80096 491
913.04144 -1863.36023 -0.49173 299
824.09943 -1692.17578 -48.72133 445
821.92487 -1687.83704 -18.03733 491
813.64032 -1696.40662 -48.78900 445
811.72992 -1691.70557 -18.03456 491
803.05225 -1700.52148 -48.71895 440
800.94092 -1695.86792 -17.64658 486
792.82178 -1704.72632 -48.95829 440
790.48242 -1699.49878 -17.89413 484
782.03278 -1708.99487 -48.92571 440
780.03778 -1703.97717 -18.02899 484
771.70703 -1712.93994 -48.86543 450
769.37689 -1708.46741 -17.90165 482
761.26917 -1717.46045 -48.67369 452
759.24579 -1713.04724 -17.63957 478
750.80176 -1721.35144 -48.94487 458
749.24573 -1717.68628 -18.02170 476
740.22382 -1725.83948 -48.71218 459
738.67297 -1722.43994 -17.86714 474
736.16858 -1747.01331 -50.35369 260
728.68915 -1727.24878 -18.18259 474
718.56903 -1732.30798 -18.13538 471
708.16321 -1737.20398 -18.02595 471
19937.49805 -64807.58594 6830.50146 1000
-2067.88745 -25793.25391 3119.46533 1000
-9388.78418 -53481.73047 9119.42188 1000
-7596.57422 -39152.57422 5399.46631 1000
-572.69684 -3149.16089 -24.35583 366
-572.77264 -3149.70020 27.96277 474
-572.38647 -3150.71704 81.02115 497
-572.74207 -3151.78003 133.61717 496
-573.72522 -3154.21265 186.50641 495
-17868.66602 -50586.91797 5437.11084 1000
-13649.39746 -37244.13281 8042.02393 1000
-1004.12994 -2563.80542 -3.61990 319
-14938.02148 -22912.74023 5590.49316 1000
-35280.14062 -51824.04688 3231.55005 1000
-1403.73389 -1972.01550 11.32605 448
-1403.05798 -1970.58191 52.23077 485
-1402.27502 -1969.70166 92.67061 486
-1401.15723 -1969.30762 132.51160 486
-1400.80774 -1967.70959 173.12836 499
-1400.23181 -1966.97437 214.01126 499
-3566.27246 -3413.14062 -359.55807 1000
-27950.30664 -15971.83496 -8510.94727 1000
-4528.90430 -2520.60449 132.29205 428
-3946.25684 -2106.94116 132.46524 327
-49569.46484 -24002.97461 -14641.47461 1000
-3338.17554 -1658.31226 132.00092 475
-9629.23242 -4552.28613 -1459.35693 1000
-22263.46094 -5945.46289 3179.11768 1000
-256.90070 -74.80923 35.34479 321
-254.79921 -72.18187 36.08991 321
-252.84607 -69.50344 36.68233 322
-273.08578 -73.54975 37.78097 318
-253.06406 -67.37110 36.79762 352
-270.78470 -70.76303 38.44146 321
-254.87422 -65.48956 36.30539 351
-269.40872 -68.17229 38.82714 345
-290.65149 -72.27279 40.30933 318
-256.74261 -63.61412 35.90745 351
-271.17862 -66.25612 38.46305 345
-288.63394 -69.47970 40.80530 318
-258.63470 -61.76382 35.52442 350
-273.11292 -64.26720 38.06876 347
-289.17761 -67.13627 40.81174 341
-260.60049 -59.78918 35.07660 326
-275.15753 -62.25979 37.68402 346
-291.02386 -64.93594 40.44530 341
-266.26450 -58.53074 33.55791 320
-280.42593 -60.80111 36.45690 323
-298.96997 -63.84974 38.60767 256
-272.53616 -57.17864 31.93783 319
-195.99898 -10.79209 53.32680 324
-195.98561 -9.02768 53.32779 324
-195.99463 -7.21202 53.32164 324
-195.95030 -5.45478 53.34011 324
-195.90610 -3.59254 53.28327 324
-195.90768 -1.80718 53.32659 324
-195.87535 -0.06357 53.29897 324
