# .PCD v.7 - Point Cloud Data file format
VERSION .7
FIELDS x y z rgb
SIZE 4 4 4 4
TYPE F F F U
COUNT 1 1 1 1
WIDTH 1066
HEIGHT 1
VIEWPOINT 7178.776367 -877.396545 141.488693 -0.666495 -0.103775 -0.098750 0.731617
POINTS 1066
DATA ascii
-18536.47461 63.44812 737.11780 457
-18521.38672 64.20372 1037.50049 452
-18479.69336 177.56729 732.26166 463
-18494.97852 176.22459 1039.52905 341
-18429.55469 290.97485 729.47034 464
-18379.78516 401.60614 730.33563 464
-18327.73438 512.06647 727.75000 465
-18279.68359 626.03632 728.27161 465
-18224.12891 736.92767 723.11230 466
-18178.24609 843.76398 724.44342 466
-18124.44922 955.83124 721.31836 467
-18074.96875 1064.30798 720.84961 467
-18026.32227 1175.12903 716.78754 468
-17977.51953 1279.21167 719.95221 468
-17926.68164 1391.32141 716.67261 469
-17876.26172 1494.55469 716.60327 469
-17830.81641 1604.32324 712.69635 470
-17778.46875 1711.01184 710.31427 470
-19599.04492 1881.21802 1097.41040 404
-17730.14258 1815.98022 711.67902 471
-19538.23633 1998.97705 1094.30945 405
-17683.51758 1920.92969 709.42865 471
-19481.26367 2115.00903 1093.39001 405
-17636.65430 2026.62256 707.88733 472
-19425.67188 2228.16138 1087.52515 417
-17590.29492 2131.85791 706.28223 472
-17558.14258 2129.07690 1000.07678 299
-17539.48828 2232.14111 705.57391 473
-17501.33203 2227.88867 993.73425 299
-17493.46680 2340.69946 706.88953 473
-17446.12891 2333.10498 995.29425 299
-17444.35938 2440.69141 705.63824 474
-17388.04102 2431.92993 992.02356 299
-17399.68164 2543.67603 702.83160 474
-17332.07031 2537.20752 990.81897 299
-17348.92383 2646.92725 702.21130 474
-17281.74023 2639.01733 985.59021 417
-274.88626 58.20631 33.14056 319
-17305.04883 2749.68091 698.57318 475
-17234.98633 2738.87842 986.90112 418
-268.51746 59.38134 34.76054 326
-282.95621 61.83913 37.52811 323
-299.51611 64.51217 40.12228 256
-17256.67969 2850.47192 697.91760 475
-17187.47656 2841.08203 986.90656 418
-264.06772 60.97076 35.89709 350
-278.66287 63.43358 38.51382 347
-294.63535 66.19596 41.17204 341
-17212.18945 2953.58521 696.96167 475
-17141.85547 2940.97314 981.95685 418
-262.19485 62.89531 36.27301 351
-276.51642 65.43221 38.84587 345
-292.69797 68.28593 41.49132 340
-17162.46289 3051.16016 699.82458 476
-17090.32617 3042.19214 982.27307 419
-260.26010 64.75236 36.76217 351
-274.71732 67.36228 39.18882 345
-294.23355 70.95594 40.97846 318
-17120.39258 3155.98999 696.71173 476
-17042.68555 3139.34741 980.36676 419
-17783.82812 3274.43188 1313.92981 477
-258.29822 66.57698 37.08790 352
-274.49509 69.67900 39.15950 322
-17073.72461 3254.07324 697.61621 477
-16998.26172 3241.88892 978.48297 419
-17715.88281 3375.80054 1310.09216 478
-256.53467 68.50277 37.45828 325
-276.35675 72.40202 38.51036 319
-17025.29297 3357.72900 695.73291 477
-16948.18555 3342.92114 978.97211 419
-17642.70508 3478.29736 1307.88611 478
-258.37112 71.05671 36.87665 322
-16981.34766 3455.37939 694.50806 477
-16901.79102 3441.11230 977.79736 459
-17578.98438 3577.02051 1307.67065 479
-260.30817 73.68770 36.15618 321
-16934.36914 3555.74219 691.29987 478
-16854.61328 3539.87524 973.08807 459
-17507.49219 3676.74561 1302.29333 480
-262.21198 76.35050 35.49620 321
-16888.95703 3654.23853 691.77319 478
-16810.61133 3639.76147 974.24268 459
-17439.83594 3773.53223 1298.59009 480
-16844.39844 3752.60620 693.96100 478
-16764.38867 3738.14844 970.12335 493
-17373.07031 3873.60107 1295.57202 481
-16799.38477 3855.01196 692.83484 478
-16721.34375 3832.71143 970.32660 494
-17308.83203 3970.40186 1294.54346 493
-3950.35449 948.10895 130.51035 319
-16750.39453 3951.74438 691.29346 479
-16677.49023 3934.81787 972.66034 494
-17263.29102 4070.30713 1292.58386 494
-3935.26343 971.40771 130.88760 455
-16706.00391 4048.95801 690.31769 479
-16628.95898 4032.57568 968.97839 494
-17213.12891 4170.24902 1291.26978 494
-15026.79688 3644.82642 1913.94739 1000
-16662.32227 4149.41748 689.84583 479
-16586.94531 4128.04639 968.50677 494
-17167.74414 4271.65137 1286.98022 494
-16615.92383 4245.17285 686.38586 480
-16540.68555 4224.62598 965.70453 494
-17115.80664 4373.73730 1290.23694 495
-16573.08203 4343.31250 687.30249 480
-16495.22070 4324.28516 964.11121 494
-17070.38477 4471.45361 1287.02527 495
-16527.40625 4440.73291 688.67029 480
-16450.68750 4422.36719 965.90161 495
-17021.17578 4572.26318 1282.60754 495
-16481.53711 4539.02051 685.19562 480
-16410.57227 4516.74658 962.63843 495
-16868.80078 4645.75000 1274.53455 496
-16438.22656 4632.85596 685.79211 481
-16364.52441 4613.08398 964.77014 495
-16823.93945 4741.37646 1274.22131 494
-16393.25000 4730.18311 686.92810 481
-16321.60645 4711.49658 964.06317 495
-16775.49219 4839.20361 1275.58240 489
-16913.49609 4883.30518 1574.44580 496
-16345.99707 4828.74512 683.96759 481
-16275.08008 4808.55615 964.48041 496
-16729.76367 4941.89258 1271.47571 490
-16870.20508 4979.88086 1574.01672 496
-17022.98828 5029.08887 1879.28516 458
-16302.55566 4925.62402 685.61633 481
-16234.44238 4903.39307 963.58813 496
-16679.52734 5035.30029 1272.20398 490
-16823.76562 5078.64014 1570.53906 496
-16951.48047 5118.79004 1876.47266 398
-16260.95117 5018.99756 683.09662 481
-16189.12500 4998.57471 960.06775 496
-16737.30664 5167.06250 1277.48230 436
-16728.46875 5165.79932 1569.07507 436
-16217.13379 5116.76807 685.65466 482
-16143.81641 5093.86914 959.86273 496
-16613.45508 5240.37305 1272.21936 437
-16609.31641 5241.20703 1559.90356 437
-16742.57812 5282.40527 1863.61963 352
-16170.08984 5214.39453 684.96307 482
-16102.32129 5188.70557 960.99146 496
-16492.69727 5315.59326 1264.24817 438
-16484.76367 5314.90869 1550.48450 438
-16603.68164 5353.36475 1851.05981 353
-16126.29883 5309.57373 681.06763 482
-16057.68066 5286.14795 957.73895 497
-16395.11328 5394.83643 1262.69922 497
-16389.22656 5395.27930 1548.10071 497
-16469.68359 5422.89014 1840.35425 354
-16082.75879 5403.59668 682.21906 482
-16014.21777 5383.66406 960.91064 497
-16350.08984 5495.30615 1261.40820 497
-16340.91016 5490.77588 1543.39636 497
-16418.07617 5518.27686 1838.85632 390
-16040.53906 5499.27148 683.41388 482
-15970.32324 5476.91748 957.48816 497
-16272.82129 5579.79395 1256.57397 498
-16268.91602 5576.11426 1540.61536 498
-16370.08789 5616.45752 1836.26404 391
-16622.56445 5700.71191 2154.49780 484
-15993.10059 5592.95312 680.05780 482
-15927.75391 5570.88477 958.36243 497
-16229.24609 5677.05176 1257.60950 498
-16221.51074 5674.78516 1539.97583 498
-16322.83105 5712.18848 1837.24817 391
-16577.24805 5797.08984 2151.94458 485
-15949.31055 5691.32568 681.03333 483
-15883.94238 5665.23193 958.60919 497
-16185.70020 5774.54883 1255.22302 498
-16173.83984 5769.99170 1538.11609 498
-16275.98926 5805.32617 1832.34241 391
-16490.84961 5882.64893 2145.55688 452
-41247.37500 14666.02539 8092.17773 1000
-15905.30957 5786.72949 680.10004 483
-15842.91992 5761.11670 957.34454 497
-16138.37793 5868.24023 1254.66675 498
-16129.48535 5866.75635 1539.08496 498
-16228.83496 5904.12158 1830.95569 391
-16481.03320 5996.67676 2149.39819 485
-15864.37109 5879.07617 680.00092 483
-15797.45117 5857.66748 956.47699 497
-16090.05273 5967.63965 1252.89893 498
-16087.07422 5964.61426 1535.44397 498
-16182.83496 5999.61182 1830.05420 391
-16436.25391 6090.57178 2150.16724 485
-15817.28809 5976.86328 678.37329 483
-15753.78906 5953.68408 954.21198 497
-16045.20703 6061.81592 1252.36951 498
-16038.76465 6059.21631 1535.73157 498
-16133.74316 6094.19824 1831.37720 391
-15772.78320 6071.04102 678.06555 483
-15712.87207 6046.05127 954.42847 498
-15999.77539 6157.28271 1255.26819 499
-15992.74805 6156.11523 1536.79211 498
-16088.86719 6189.65479 1831.92957 391
-15729.17383 6164.12646 678.05597 491
-15665.08887 6141.22949 953.52405 498
-15984.93359 6266.55127 1255.26196 499
-15974.09082 6263.55029 1537.12427 498
-16042.29785 6286.89355 1829.25391 391
-15688.70605 6262.98584 680.69342 491
-15625.82520 6234.62939 956.67578 498
-15790.49805 6302.96484 1246.46960 279
-15703.65527 6268.20264 1519.06909 265
-15996.46973 6385.14648 1830.55334 391
-15644.19336 6353.80615 677.60352 491
-15581.70508 6331.93652 955.63190 498
-15742.64551 6395.68896 1242.98340 480
-15689.84375 6373.68066 1518.33948 467
-15864.01172 6444.10986 1823.56873 383
-15599.92383 6451.29492 680.58685 491
-15539.06250 6426.38379 955.68097 498
-15847.80566 6554.17725 1251.30286 499
-15841.36035 6548.98779 1536.86121 499
-15896.24121 6573.77051 1827.37891 383
-15558.59570 6545.33008 680.94470 491
-15493.45605 6517.66113 956.53900 498
-15802.56152 6645.44873 1253.83081 499
-15794.81836 6643.69873 1534.05298 499
-15848.02832 6667.80469 1824.43481 383
-15512.05469 6638.20898 678.18622 491
-15453.34375 6611.55957 955.67285 498
-15777.87305 6752.32080 1253.83386 466
-15776.00098 6752.56152 1537.78870 466
-15847.92383 6779.90723 1827.56970 367
-15468.16016 6735.87012 681.16687 491
-15408.90039 6705.45361 954.65808 498
-15794.37500 6872.57910 1258.28040 482
-15789.32227 6873.08057 1542.86768 465
-15871.20801 6909.77393 1836.74915 368
-15428.38672 6829.97705 679.80115 491
-15362.92676 6803.73926 954.27588 498
-15782.98145 6983.18604 1259.04089 481
-15801.33203 6996.46631 1549.87659 465
-15898.92090 7037.62598 1843.55493 368
-15384.40234 6923.99023 681.32245 491
-15320.27051 6896.32520 954.47949 498
-15767.65430 7095.33008 1263.04211 481
-15817.15332 7117.58594 1552.29016 480
-30264.65820 13803.05762 -7086.46240 1000
-15341.02344 7017.09619 677.16913 491
-15278.00586 6992.68750 955.17676 498
-15757.16211 7208.62354 1264.73816 480
-15806.84863 7232.65283 1554.86230 479
-15298.15430 7112.62744 677.61151 491
-15234.84961 7084.61523 955.33331 498
-15746.16992 7320.53760 1268.28284 480
-15251.32422 7206.58350 681.13226 491
-15193.75293 7178.88086 952.66846 498
-15208.28516 7303.95947 679.69592 491
-15150.13672 7275.34326 955.09607 498
-15164.29590 7397.13037 679.70685 491
-15104.40430 7367.38818 955.42029 498
-15123.50098 7490.45654 681.79932 491
-15061.10645 7462.98828 952.70984 498
-15079.92188 7585.13818 679.01257 491
-15020.74414 7554.72607 956.09656 498
-15034.91895 7681.05127 678.68726 491
-14977.97363 7651.28955 953.96259 498
-14993.32031 7775.18262 679.08264 491
-14932.97266 7743.86328 956.86554 498
-14947.50879 7871.06934 678.79193 491
-14889.24902 7837.51025 954.77808 498
-14905.66113 7962.38574 679.46674 491
-14848.10352 7931.86230 953.94470 498
-14858.38867 8058.60059 681.46948 491
-14801.94629 8026.86328 953.16858 498
-14816.02930 8152.96289 678.51544 491
-14759.86523 8124.41943 953.84882 497
-14771.40625 8247.34473 680.48798 491
-14715.91309 8219.20605 954.15613 497
-14728.13867 8345.32812 681.99072 491
-14671.88965 8314.50977 955.67181 497
-45570.19141 26075.88281 -2475.45898 1000
-14686.31348 8438.15625 679.91180 491
-14629.50977 8406.83496 957.87018 497
-14642.58887 8537.13184 681.47009 490
-14585.31738 8504.13867 958.01770 497
-14596.53613 8630.27734 681.97247 490
-14542.36719 8596.89746 959.96027 497
-58211.19922 34731.61328 -12248.52441 1000
-14552.19531 8725.99805 683.17322 490
-14498.30078 8695.25195 959.40173 497
-14508.98730 8821.68945 684.59314 490
-14455.65918 8789.88477 961.36023 496
-14464.44922 8919.61230 681.38153 490
-14408.89551 8886.49121 957.80182 496
-14420.41406 9014.22266 682.91907 490
-14370.03809 8982.84863 962.17072 376
-14375.04102 9107.60742 681.65210 489
-14325.62891 9075.91016 959.13794 376
-14333.03418 9207.59570 685.41852 489
-14281.23047 9175.57422 964.25385 376
-14288.33105 9302.32031 687.48126 489
-14239.94336 9271.95801 965.01379 375
-14243.35938 9400.54688 684.21906 489
-14198.17383 9367.95508 964.23346 375
-1120.04834 806.49622 36.11789 400
-14200.26074 9495.34668 684.00116 489
-14153.50391 9467.18359 966.27985 375
-1110.53687 810.84406 36.35812 488
-1113.63269 813.38226 59.82333 488
-1117.90710 816.28241 83.48955 464
-14153.61914 9591.22461 687.63104 488
-14115.11621 9565.51758 966.09393 375
-1105.39355 818.30170 36.28289 484
-1107.90527 819.89447 59.98423 484
-1111.08276 822.29346 83.73568 497
-1113.29395 823.84802 107.41723 497
-14108.49902 9690.81348 685.71527 488
-14069.36914 9663.15039 968.42493 375
-1104.41516 828.76001 35.92456 390
-1107.77173 830.84296 59.61262 390
-1111.72437 833.85168 83.60608 390
-14062.44531 9788.92383 688.10822 488
-14029.86816 9760.27539 966.32269 375
-14018.61914 9884.99023 687.87451 488
-13982.88672 9861.69922 970.37604 375
-13975.22559 9982.25879 689.67700 487
-13941.85938 9958.39746 971.24976 374
-13941.24121 10088.23730 688.40808 470
-13897.86816 10060.05762 970.52930 374
-13907.97852 10194.71094 689.95074 469
-13856.43555 10156.27930 969.99512 443
-13877.80664 10303.43555 692.55945 469
-13811.43066 10254.67480 973.00983 443
-13840.11328 10411.67676 695.45648 470
-13763.72461 10356.31738 976.40015 442
-13810.64941 10518.84082 696.39404 469
-13726.70215 10458.37695 977.65533 410
-13773.61816 10631.35742 695.66028 469
-13694.26172 10567.01660 979.00360 469
-13739.57617 10741.20410 699.29492 468
-13665.10254 10680.28223 978.36951 468
-2412.95386 1971.03394 130.83632 307
-13718.32520 10859.96289 698.33838 429
-13640.55664 10797.20215 983.44366 467
-2357.38721 1952.35864 130.48909 327
-13707.83496 10988.92578 702.25940 428
-13611.84570 10908.64844 986.71942 467
-41162.29297 33257.27344 -1625.87756 1000
-2355.67261 1975.48914 79.19219 316
-2316.00488 1943.31348 131.07420 322
-13696.55176 11115.17871 701.95190 428
-13584.85645 11026.05273 987.48169 466
-2252.01636 1916.02100 81.45808 319
-2281.64819 1939.57056 130.38939 291
-13686.22363 11250.29395 707.40350 406
-13557.93164 11143.88574 992.31927 469
-2203.77393 1899.77344 81.79489 320
-2257.82007 1944.00439 130.54115 392
-13683.38672 11392.02832 710.36536 405
-13527.70508 11259.82324 992.18079 468
-2164.66772 1891.00525 83.01424 370
-2419.86255 2104.50635 130.31825 467
-13693.49512 11542.64160 711.04071 379
-13500.35254 11378.67676 994.29041 467
-2130.53442 1885.53296 83.26919 382
-2251.56006 1988.46973 130.54579 384
-2245.44263 1983.40295 180.69577 328
-13716.16309 11700.62402 714.76373 379
-13497.69141 11520.02832 998.12787 410
-2097.65430 1880.86670 83.80655 383
-2217.20044 1983.65735 130.99223 385
-2254.57446 2016.04590 181.63356 459
-13780.55469 11904.34277 720.80756 284
-13502.73535 11666.43164 1005.61566 409
-2065.20239 1876.51501 84.31312 385
-2195.71069 1990.12671 130.96042 458
-2251.38428 2038.68921 181.80417 459
-13503.87207 11814.66309 1007.10504 408
-2033.70093 1872.18787 84.89926 386
-2192.84229 2012.30212 131.01639 457
-2248.36450 2061.27710 182.17888 458
-13511.80664 11969.49707 1012.74957 407
-2002.18799 1867.57690 85.21506 387
-2115.34985 1968.27905 131.12811 389
-2245.18140 2084.16113 182.43102 457
-13547.60645 12150.49512 1019.32758 361
-1972.41333 1863.79431 85.54334 390
-2093.97681 1973.83057 130.91937 456
-2241.61133 2106.69775 182.67471 479
-1942.82361 1860.28027 85.61002 391
-2008.50793 1920.03040 131.10144 392
-1913.59558 1856.16345 86.45683 393
-1984.11963 1921.64551 130.60249 450
-1885.32800 1852.49854 86.24023 394
-1973.03638 1934.79932 131.06700 469
-2049.33374 2006.62183 226.92639 483
-1857.42920 1849.45068 87.22600 395
-1979.21667 1964.92078 130.53528 448
-1829.18616 1845.91760 87.41936 396
-1976.32117 1987.04993 130.68692 452
-1802.77698 1842.44458 87.99928 398
-1973.76208 2008.84766 130.53795 451
-1900.26733 1937.50562 176.79959 367
-1897.31885 1934.45557 221.68042 497
-1775.65540 1839.47900 88.40665 384
-1970.69360 2030.69019 130.76006 450
-1750.69348 1836.77258 88.63941 385
-1967.51917 2052.19824 130.62077 449
-1724.85962 1833.51331 88.58492 386
-1964.05383 2074.34570 130.58028 452
-1700.56470 1830.73779 88.93004 387
-1950.45813 2086.51953 130.90599 468
-1679.25916 1831.51379 89.07751 437
-1661.47229 1836.27673 89.54628 395
-1879.05933 2063.68164 224.69487 349
-1646.28052 1842.14868 89.21999 396
-1703.95386 1927.43250 87.58645 439
-1701.06543 1948.15759 87.90031 438
-1698.52856 1969.10767 87.31161 437
-1700.86157 1972.12085 130.71143 496
-1695.27820 1990.96875 87.05560 435
-1692.44727 2012.75208 87.07175 434
-1690.01538 2034.47876 86.60994 433
-1686.88159 2056.95996 86.11432 432
-1672.82520 2064.97900 86.58190 414
-1649.89978 2064.57959 86.54549 461
-1631.05396 2067.48926 86.62960 441
-1612.94934 2071.88599 87.27126 447
-1595.98047 2076.70386 87.29551 392
-16901.84375 28999.99609 1221.21643 1000
-2929.85181 9900.15430 -2284.68555 1000
-8295.75195 33178.86328 -3813.11255 1000
4243.09863 17134.37695 3937.72217 1000
12832.16602 35819.37891 -4242.60352 1000
1743.96045 1447.50110 -11.70059 468
1753.98364 1438.61230 -11.58169 468
1768.00977 1450.47205 23.17843 483
1765.02966 1430.17676 -12.01211 466
1776.58801 1440.67163 23.02464 389
1775.77954 1421.43701 -12.22764 458
1786.05286 1430.55298 23.10671 407
1786.62439 1413.61853 -12.33600 451
1796.33350 1421.16199 23.10354 418
1798.21289 1405.13220 -12.74986 449
1806.15137 1411.61963 22.79876 437
1809.96204 1397.42432 -12.76224 446
1816.14587 1402.51892 22.77307 443
1821.24817 1389.32739 -13.24608 445
1826.84595 1393.90942 23.09835 443
1833.01721 1381.18323 -13.63929 445
1837.89563 1384.96936 22.69584 457
2008.00256 1520.47632 52.20805 402
1844.97925 1373.39343 -13.52604 445
1848.72290 1376.07056 22.73780 473
2005.66687 1499.60571 52.73473 406
1856.85608 1365.08301 -13.70934 444
1859.92664 1367.79041 22.59477 473
2002.61926 1477.87842 53.06764 407
1869.31213 1357.11804 -14.60154 441
1871.32104 1359.03540 22.52790 485
1999.25635 1456.90454 53.47594 408
1881.53638 1349.27783 -14.49310 440
1883.10999 1350.75427 22.03145 484
1996.29395 1436.60486 54.43299 409
1894.44678 1342.10229 -14.91956 433
1894.82593 1342.16675 22.04285 478
1993.57861 1416.13208 54.63795 410
1908.43591 1335.25830 -15.50254 428
1908.21973 1335.07288 21.33095 477
1990.93408 1395.87219 54.75976 411
1922.25916 1328.46082 -16.21778 428
1921.52783 1327.78577 20.90134 473
1987.47595 1376.22998 55.53919 412
1936.59619 1321.55188 -16.38487 421
1935.13464 1320.34351 21.03701 472
1985.12732 1356.50415 56.10775 413
1951.61670 1314.94495 -17.21239 423
1949.23694 1313.70312 20.44225 463
1981.98279 1336.81067 56.10885 414
1966.83997 1309.00342 -17.33770 417
1963.82996 1306.65039 19.85080 463
1984.35681 1320.59985 56.81366 487
1982.67847 1303.01196 -18.34804 414
1979.23877 1299.96301 19.74940 459
1992.52649 1309.46326 56.48097 489
1999.86389 1297.18286 -19.09706 411
1995.04504 1293.93884 19.20156 453
2003.12610 1299.88770 56.64101 450
2018.25647 1292.51501 -19.92609 398
2011.61951 1288.08496 18.80708 443
2020.27246 1293.96838 56.53674 444
2038.08948 1288.52124 -20.46768 389
2029.10242 1282.60889 18.05055 424
2038.99109 1289.47974 55.77546 417
748.48627 427.83362 -23.12826 343
755.01398 432.05859 -11.23464 267
2059.28906 1285.60742 -21.86343 387
2049.46313 1278.96460 17.49869 414
2060.00830 1286.20776 55.48028 416
745.14117 420.00864 -21.75715 410
747.47394 421.60040 -9.24437 410
749.84503 422.99646 3.46177 410
752.61853 424.84143 15.98970 343
758.74091 428.81186 28.16714 268
2080.33423 1281.87915 -22.97667 386
2070.70239 1276.10144 16.42270 413
2080.70093 1281.86963 55.07501 415
745.24475 414.39178 -21.11977 461
747.00165 415.46722 -8.57020 461
748.86481 416.63525 4.15945 461
750.60925 417.84998 16.84698 461
752.47278 419.10855 29.52849 461
754.43707 420.30081 42.19313 463
756.94373 421.80566 54.82851 410
760.45544 424.11398 67.47272 343
2102.97363 1279.10193 -23.87734 386
2093.03760 1273.05530 15.63101 412
746.51654 409.50699 -20.83424 492
748.24890 410.71747 -8.13240 492
749.90643 411.64441 4.53042 492
751.46625 412.70392 17.07055 492
753.18427 413.95224 29.87227 492
754.72479 414.86020 42.46699 482
756.42694 415.87671 55.08492 481
758.32446 417.14566 67.89401 488
763.56915 420.33014 80.42505 378
2115.01636 1269.48718 15.13845 411
748.68958 405.44901 -20.90920 499
750.54572 406.47537 -8.04948 499
752.06427 407.64447 4.58932 499
753.74646 408.68063 17.12902 499
755.64197 409.78415 29.89570 499
757.22021 410.77383 42.46246 499
758.92877 411.91934 55.27937 481
760.89038 412.91565 67.85840 495
2149.24951 1273.37988 -26.13539 391
2137.84448 1266.21118 14.16240 409
751.88452 401.91086 -21.05735 480
753.83716 402.98990 -8.20727 481
755.65869 404.14597 4.36395 481
757.54437 405.24832 16.94052 480
759.46796 406.56195 29.69515 440
761.40845 407.71805 42.25262 474
764.14960 409.45786 54.96575 389
2171.68140 1269.90149 -27.61338 390
2160.39429 1263.24829 13.47487 408
756.07654 398.98083 -21.44010 439
758.43219 400.38718 -8.81191 439
760.77673 401.69846 3.80080 439
763.11249 403.30087 16.52824 380
766.68475 405.29120 29.00198 380
2195.11987 1266.82080 -28.69448 389
2183.78296 1260.19775 12.04191 407
762.15881 397.02594 -22.27558 380
765.48651 399.10135 -9.79049 380
770.59106 401.99078 2.35410 308
2218.05493 1263.16199 -29.55350 388
2207.60474 1256.70435 11.12716 406
2241.94507 1259.65417 -30.69947 387
2231.45166 1253.16785 10.54471 405
2266.01245 1255.59192 -32.11536 386
2255.62476 1249.80847 9.63138 403
2290.80054 1252.04785 -33.38781 385
2280.74487 1246.09119 8.58954 402
2317.11572 1248.84863 -34.46275 389
2305.36597 1242.21582 7.38074 401
35413.87109 19849.75586 5468.37256 1000
2343.24561 1245.68225 -36.37830 391
2331.06689 1239.12305 6.48625 400
2369.56128 1242.08545 -37.55677 388
2356.86133 1234.89246 5.44903 398
2397.06006 1238.52478 -39.23600 389
2383.40796 1231.62585 4.33221 397
2424.60962 1234.74695 -40.51889 387
2410.67041 1228.02258 3.73493 394
2448.64551 1228.96301 -42.02377 384
36887.97656 12765.87793 -500.71454 1000
42610.75391 11327.56641 9641.20312 1000
24632.36523 5893.94678 -3186.77441 1000
1808.29089 -26.64374 -36.63883 457
1812.16553 -27.06086 -8.79162 457
1816.41663 -26.91072 19.69677 407
1805.44812 -37.32143 -36.27173 499
1809.81763 -37.44080 -8.23419 484
1814.98474 -37.45876 19.65677 485
1810.28528 -47.76597 -36.82787 445
31557.68555 -2435.79810 3245.84790 1000
2825.79028 -261.71088 -2.12606 372
2820.47900 -278.04083 -47.01160 289
2798.30103 -275.90845 -0.91342 427
2802.81982 -293.23889 -46.13695 363
2789.52979 -291.98727 -0.87088 481
2789.80664 -308.58450 -45.46376 386
2780.61597 -308.03802 -0.31438 492
2780.69189 -324.42804 -44.85221 417
2774.56250 -323.30640 -0.43766 487
2876.79590 -336.35556 41.06533 499
2771.31299 -339.80884 -44.53828 418
2767.81885 -339.66714 0.17923 469
2761.30640 -355.25476 -43.84437 462
2761.98584 -355.24197 0.36064 469
2753.11133 -370.97888 -43.57754 462
2755.67554 -370.88962 0.65397 470
2746.15015 -386.62619 -43.42251 467
2751.09741 -387.35028 0.55261 434
2739.08496 -402.19855 -42.92607 491
2745.91724 -403.27881 0.80773 434
2732.36133 -417.76480 -42.77688 491
2741.79907 -419.55582 0.73270 439
2726.46729 -433.43646 -42.44927 491
2737.16309 -434.90222 0.92808 412
2720.17212 -448.58667 -42.17777 494
2732.92725 -451.49823 1.17121 412
2714.80176 -464.39777 -41.77864 494
2729.03442 -467.40671 1.01600 416
2850.82642 -488.46289 132.92532 307
2708.57129 -480.14993 -41.68806 494
2725.36401 -483.48810 0.97397 416
2807.12598 -497.96640 132.78699 339
2703.16602 -495.67700 -41.65188 495
2721.81470 -499.08429 1.11956 361
2828.82812 -519.61969 41.17189 267
2765.66895 -507.39841 132.28767 292
2698.50342 -511.23822 -41.67113 496
2719.33398 -515.59204 1.27725 361
2831.35596 -537.83569 86.83111 337
2773.46289 -526.35419 132.68405 299
2693.26465 -527.06519 -41.25447 496
2717.22363 -531.55310 1.18427 361
2790.93042 -546.37463 87.59341 338
2728.29199 -534.37939 132.78818 300
2690.65063 -542.75781 -41.24240 459
2714.80225 -547.90173 0.76776 361
2809.64673 -567.80237 42.05166 337
2746.15918 -554.74127 88.53254 437
2714.72974 -548.24854 132.51031 406
2685.95679 -559.04968 -41.62897 499
2712.80518 -564.38696 0.72380 361
2768.87891 -576.73627 43.16834 339
2722.97510 -566.76941 88.58868 498
2722.60059 -566.78949 132.46223 423
2683.39111 -574.49347 -41.28143 470
2721.42480 -583.12903 0.14623 496
2729.38452 -585.19342 44.49088 340
2721.12378 -583.11914 88.77529 498
2720.55542 -583.14282 132.93922 423
2680.53003 -590.65112 -41.37710 499
2716.25171 -598.91370 0.53266 498
2717.06177 -598.98950 44.32959 499
2719.21851 -600.02155 88.53426 498
2718.73267 -599.34717 132.65779 423
2677.08667 -606.54803 -41.74924 499
2714.52417 -615.72931 0.45732 498
2715.94702 -615.97156 44.45605 498
2716.94629 -616.60907 88.81965 498
2716.02051 -616.18805 132.47786 423
2670.93457 -622.02740 -41.03958 468
2712.63916 -632.03247 0.21064 498
2714.09229 -632.84479 44.40741 498
2714.70435 -633.11340 88.43040 498
2714.29370 -632.27985 132.35176 423
2667.20850 -638.24902 -40.95026 499
2710.89355 -648.97937 0.34407 497
2711.03760 -649.15344 44.53805 496
2712.76074 -649.02789 88.46825 498
2711.94580 -649.49689 132.83733 423
2666.79297 -654.40985 -41.67809 455
2708.71704 -665.54333 -0.09332 497
2709.83740 -665.73138 44.30952 497
2709.91016 -665.94751 88.31516 282
2709.69995 -665.60352 132.71553 422
2664.34302 -670.74084 -41.54183 498
2706.02319 -681.79797 -0.26277 497
2701.60864 -681.05536 44.51167 498
2703.02124 -681.30615 88.22552 499
2708.05762 -682.25958 132.36870 422
2661.29785 -686.78174 -41.43714 498
2703.71216 -698.79260 -0.19687 497
2700.86646 -697.33307 44.38248 497
2702.31055 -697.61102 88.54475 497
2705.72119 -698.81763 132.84787 422
2656.82886 -702.89099 -42.06675 498
2701.66602 -715.17377 -0.36773 497
2698.93896 -714.15387 43.81636 497
2700.36597 -714.34155 88.09441 497
2703.79663 -715.92096 132.25764 422
2654.22412 -718.89893 -42.14950 497
2699.66675 -732.06665 -0.30451 496
2696.62012 -730.58032 44.34940 496
2698.19922 -731.21246 88.02900 496
2701.64868 -732.13965 132.66002 422
2654.53369 -736.15582 -42.14376 496
2698.27148 -748.24701 -0.21607 496
2694.07935 -747.23132 43.61860 496
2478.69312 -712.35376 -41.78784 496
2699.71509 -748.79218 132.79549 422
2652.56934 -752.96381 -42.51347 496
2695.87451 -765.03406 -0.48370 496
2696.92456 -765.54584 43.95142 498
2698.01929 -765.70306 88.45042 498
2697.46826 -765.84399 132.87509 422
2863.63818 -814.89294 180.04927 411
2650.52344 -769.42535 -42.33948 495
2693.74902 -781.96790 -1.17684 496
2694.69775 -782.49194 43.76204 495
2697.25415 -783.13916 87.89535 496
2695.43115 -782.74622 132.28044 421
2836.65259 -825.15625 179.68745 487
2645.90015 -785.24133 -42.55214 495
2691.62402 -799.18860 -1.04871 495
2692.75122 -799.29144 43.61922 495
2695.47192 -800.10205 88.10749 495
2693.18286 -799.15210 132.98085 421
2644.52710 -801.82001 -42.85693 495
2689.87598 -815.76617 -1.14447 495
2691.24609 -815.98059 43.71966 495
2693.04077 -816.67877 87.87556 495
2691.18433 -816.35400 132.26717 421
2778.47339 -843.67535 178.93091 275
2814.38916 -854.71375 225.77948 317
2645.15527 -819.32446 -43.46304 495
2688.85205 -833.02386 -1.32168 495
2688.86646 -833.33539 43.36939 494
2690.95508 -833.67090 88.16661 495
2689.29736 -833.18451 132.93195 421
2750.77441 -852.98602 178.55627 495
2794.40527 -866.80200 225.67090 472
2643.23999 -835.30011 -43.74450 494
2686.63013 -850.21069 -1.40518 495
2686.81958 -850.29718 43.56711 492
2687.78589 -850.39032 87.62767 491
2686.68188 -849.95239 132.50290 421
2748.52051 -869.78247 178.55501 494
2790.03418 -883.51117 225.45784 465
2640.67480 -852.35376 -43.39822 494
2679.37134 -865.00751 -1.21711 258
2685.60620 -867.11908 43.38187 494
2687.18457 -867.37000 87.87415 494
2679.50537 -864.97235 132.54298 431
2767.19336 -894.36908 178.49751 494
2636.25464 -868.44470 -43.76389 494
2669.36719 -879.32178 -0.95455 258
2690.11865 -886.34497 42.74671 494
2692.21411 -887.30981 88.02567 390
2682.54517 -883.87128 132.63222 420
2767.56201 -912.86261 178.60902 498
2634.49121 -884.89233 -43.56539 494
2663.90942 -895.55396 -1.57659 307
2762.69458 -929.60956 178.77287 497
2811.06567 -946.72400 226.67816 467
2634.85059 -902.70575 -44.00670 493
2661.11646 -911.79016 -1.38919 307
2762.86987 -948.00806 179.21278 480
2815.14551 -966.28699 227.34825 479
2633.36401 -919.63031 -44.78884 493
2657.73853 -928.80792 -1.74780 307
2807.36987 -982.82751 180.15697 408
2801.80029 -980.71362 227.18710 412
2630.91870 -936.83118 -44.75173 261
2654.69604 -945.43402 -1.29142 307
2773.27271 -989.40320 179.77769 361
2625.01562 -952.41565 -45.11752 489
2651.83545 -962.21277 -1.57142 307
2623.02515 -969.49402 -44.91621 489
2621.03979 -986.71375 -45.42061 489
2619.13599 -1003.22467 -45.46860 488
2905.22241 -1117.38464 -16.48181 491
2617.11719 -1021.00366 -45.98944 488
2886.85718 -1130.03882 -15.30101 315
2615.59961 -1038.02942 -46.40938 487
2779.60303 -1105.53381 -9.78953 487
2780.81836 -1106.26587 37.01645 499
2613.35352 -1055.61414 -46.32779 487
2740.09058 -1108.63708 -8.63935 457
2908.26953 -1179.04260 32.65578 393
2611.21802 -1072.95947 -46.72567 486
2658.39038 -1092.34937 -4.78304 303
2906.04517 -1198.41858 32.26906 478
2609.13794 -1090.07019 -46.97419 486
2628.41626 -1098.46899 -3.60586 392
2903.38037 -1217.66943 32.05458 478
2607.30688 -1108.05139 -47.25835 486
2625.47803 -1115.93274 -3.15251 391
2901.16284 -1236.88464 32.06971 478
2604.95630 -1125.27673 -47.66425 485
2623.16943 -1133.29797 -3.38384 391
2603.52734 -1142.99304 -48.08287 485
2620.00708 -1151.14331 -4.23327 391
2815.40112 -1239.60339 34.22894 344
50368.33594 -23259.54102 -9939.48438 1000
2601.02954 -1160.35132 -48.38181 484
2617.85938 -1168.52991 -3.91378 391
2642.07251 -1179.63257 40.33439 391
2599.37915 -1178.37622 -49.28723 484
2614.70850 -1185.96729 -4.60532 390
2639.92090 -1197.74036 40.73820 391
2596.89648 -1196.00977 -49.06723 483
2612.14355 -1203.63416 -4.91900 390
2699.89990 -1245.30750 37.80440 499
2594.45898 -1214.59485 -49.61996 483
2609.41992 -1221.09644 -5.17439 390
2691.82446 -1261.70752 38.10630 499
2600.98950 -1236.65515 -51.01532 395
2681.27563 -1276.43787 -9.03719 499
2684.54004 -1277.88403 37.98249 499
2871.90137 -1369.60791 81.88494 482
2697.03931 -1303.91211 -58.10166 443
2641.25659 -1276.03479 -7.31847 407
2676.33325 -1293.69690 38.02764 499
2672.22729 -1311.10181 -10.04537 459
2675.43823 -1313.21362 37.52026 466
2674.92407 -1332.44141 -10.22834 451
2637.00024 -1312.92249 38.55367 403
23387.42383 -12751.40430 -2480.03662 1000
50630.22656 -45040.27734 6805.57275 1000
10157.05957 -12366.29688 3577.14478 1000
1352.89709 -1571.29785 -32.77294 494
1355.12317 -1574.01221 -0.34857 492
1356.92090 -1575.95581 33.07727 494
1343.73962 -1579.58704 -33.26172 478
1347.12866 -1584.34424 -0.51448 434
1843.72925 -2545.49780 539.42816 1000
3384.22290 -5626.49316 1765.73438 1000
20499.17188 -48901.89844 -12201.29395 1000
521.65942 -1648.51038 -6.51089 342
509.77386 -1644.53735 -5.99615 473
498.73209 -1644.14551 -5.73804 473
488.22034 -1643.24768 -5.73865 473
486.85968 -1639.55481 22.52344 433
477.23001 -1643.00293 -5.66221 474
476.15903 -1638.26721 22.70098 489
465.65881 -1638.62793 -5.00484 478
465.41602 -1637.68347 22.78419 490
455.55374 -1640.57007 -4.89877 471
454.68280 -1637.52271 22.83610 490
444.76898 -1639.86755 -4.54409 470
444.32672 -1636.93433 23.06163 491
457.93558 -1698.31763 47.86251 271
434.48730 -1639.71069 -4.36822 471
433.42062 -1636.19104 23.61250 491
437.79266 -1655.86072 49.68514 456
423.85721 -1639.10388 -4.05802 471
422.99677 -1635.63293 23.44339 491
432.86884 -1682.77014 48.50963 314
413.36740 -1638.69702 -4.00887 470
412.42737 -1635.27063 23.57390 492
427.94260 -1712.18774 47.27687 497
402.57983 -1637.65039 -3.52363 471
402.19962 -1634.84546 23.97436 492
435.66754 -1807.01587 42.43717 486
392.18527 -1637.45740 -3.61119 471
391.43649 -1634.27734 24.20398 493
424.38379 -1807.11035 42.80697 495
381.78180 -1636.91162 -3.53002 471
380.99161 -1633.97717 24.37184 493
383.31833 -1645.54395 50.17057 491
371.14386 -1636.20886 -3.25947 472
370.98767 -1633.53052 24.14165 493
372.50397 -1641.44885 51.24770 485
360.74869 -1635.53479 -3.21195 472
360.29639 -1632.83716 24.41239 494
361.89255 -1641.02051 51.05912 485
350.36404 -1634.93469 -2.64432 472
350.15958 -1632.34521 24.61519 494
351.64319 -1640.88464 51.46582 485
340.16754 -1634.48230 -2.46011 473
339.82568 -1631.92517 24.93139 494
341.07224 -1639.93054 51.66043 485
329.69577 -1633.95154 -2.61153 473
329.35721 -1631.49219 25.12284 495
330.85568 -1639.44238 51.48946 486
319.60760 -1633.35107 -2.50079 473
319.06393 -1630.88464 25.15370 495
320.44806 -1639.24280 51.45844 486
309.48553 -1632.58264 -1.95340 473
308.92996 -1630.49377 24.94416 495
310.20013 -1638.88013 51.80827 486
298.97815 -1632.06421 -1.94366 474
298.93536 -1630.00232 25.10233 495
300.01712 -1638.07324 51.98796 495
288.94208 -1631.86633 -1.68831 474
288.76376 -1629.40088 25.49230 496
319.50439 -1874.98242 40.47355 495
278.88306 -1631.08276 -1.56392 474
278.58008 -1629.06116 25.47551 496
307.95621 -1874.58167 40.45189 495
268.40579 -1630.71545 -1.35406 474
268.21347 -1628.07898 25.49511 496
296.42227 -1874.15515 40.25381 496
258.45065 -1629.78394 -1.31514 475
258.33380 -1627.74829 25.67981 496
284.81317 -1873.54932 40.56156 496
248.16451 -1629.86328 -1.49312 454
248.01752 -1627.35596 25.85186 497
272.83969 -1872.99487 40.59805 496
238.25853 -1629.82983 -1.23063 455
238.01726 -1627.02942 25.97268 497
261.08466 -1872.08984 40.87540 496
2968.59814 -30367.64648 6731.05762 1000
228.20442 -1629.72961 -1.25154 455
228.12570 -1626.37036 25.89421 497
249.82697 -1871.65063 40.81495 496
217.97667 -1629.57129 -1.11437 455
217.73035 -1625.87573 26.27553 497
238.67856 -1875.88306 40.61245 497
208.10948 -1629.22083 -1.25142 455
208.03502 -1625.17334 26.09312 497
227.10306 -1874.80005 40.56303 497
198.22644 -1628.96606 -0.98632 453
197.69046 -1625.05176 26.12175 498
215.18501 -1874.24072 40.73973 497
188.15704 -1628.27234 -1.01786 453
187.79897 -1624.24109 26.15545 498
188.07700 -1629.04065 52.87073 498
178.15860 -1627.86450 -0.62489 453
177.77895 -1624.03076 26.13412 498
178.00854 -1629.28088 52.83313 498
167.98424 -1627.58533 -0.62447 453
167.71022 -1623.54358 26.44564 498
168.40228 -1628.78857 52.66408 498
158.19005 -1627.07922 -0.45248 453
157.72861 -1622.75696 26.27629 498
158.34390 -1628.65430 52.72822 499
148.23262 -1626.38245 -0.51380 453
147.85838 -1622.52112 26.30245 498
148.08356 -1628.20081 52.70547 499
138.24988 -1625.96106 -0.46979 441
137.82202 -1621.88171 26.54507 498
138.32957 -1628.09961 52.85186 499
146.46780 -1881.30981 71.49892 497
128.32841 -1626.09937 -0.37768 441
128.12840 -1621.36682 26.63414 499
128.34474 -1627.34326 52.93422 499
135.07089 -1881.06677 71.50698 497
118.42363 -1626.09033 -0.62681 441
118.01193 -1620.80920 26.52644 499
118.46528 -1627.36218 52.92076 499
123.50185 -1880.14270 71.31022 497
108.36360 -1625.92102 -0.64873 442
108.33878 -1620.84546 26.43818 499
108.15078 -1627.01367 52.93446 499
108.36220 -1626.81787 79.83772 499
98.26936 -1625.90283 -0.65123 442
98.25771 -1620.67493 26.47992 499
98.39806 -1626.78601 53.00193 499
98.46645 -1626.93713 79.62041 499
88.59500 -1626.52014 -0.55117 444
88.32976 -1621.53979 26.44557 498
88.55981 -1627.23999 52.83519 498
88.33791 -1628.04822 79.41337 498
78.55821 -1627.39978 -0.69112 444
78.62669 -1622.28650 26.52890 498
78.71322 -1628.99060 52.76989 497
78.69234 -1629.49951 79.41593 498
68.77674 -1628.79700 -0.62875 443
68.68450 -1623.61377 26.60514 496
68.42050 -1630.06104 52.87899 496
68.34296 -1630.02173 79.73241 497
58.70779 -1630.40845 -0.68562 438
58.67477 -1625.52295 26.30835 496
58.78261 -1631.95569 52.54632 496
58.42306 -1639.00354 79.15431 419
48.77637 -1632.21484 -1.20897 438
48.66092 -1627.00781 26.27711 493
48.67099 -1637.31372 52.45333 430
48.09089 -1648.87122 78.91025 429
38.43949 -1634.29211 -1.12302 434
38.93344 -1628.73865 25.89362 492
38.46119 -1645.51392 52.08122 431
34.33390 -1781.69592 74.54576 261
28.46359 -1636.72302 -1.32018 431
28.90315 -1631.03918 25.72100 490
26.68938 -1688.22351 49.83390 260
18.46911 -1639.38391 -1.78189 431
18.57595 -1633.73010 25.87570 488
16.19880 -1688.11560 49.70879 398
7.99806 -1642.43909 -2.00683 428
8.30103 -1636.36365 25.59962 488
0.12599 -1818.70312 43.43072 342
-2.16292 -1645.45789 -2.12654 428
-1.49896 -1638.74976 25.51472 484
-11.67118 -1829.19946 42.93105 495
-12.24693 -1648.54993 -2.37647 426
-12.04854 -1641.52417 25.01607 482
-22.92210 -1826.40210 43.02435 495
-22.51441 -1652.10876 -2.73063 425
-22.32918 -1644.16052 24.83744 482
-33.71566 -1823.29321 43.37451 492
-32.87986 -1655.85278 -3.38177 425
-32.50573 -1647.30945 24.72285 478
-44.57328 -1820.02039 43.04222 492
-43.32686 -1659.95178 -3.84033 423
-42.66699 -1650.66504 24.35046 477
-55.58199 -1815.44629 43.61879 479
-54.24703 -1663.87463 -3.85480 422
-53.08800 -1653.76001 24.26608 469
-66.18872 -1810.02332 43.53746 479
-64.59182 -1668.22742 -4.58317 417
-63.85575 -1657.88318 23.59210 469
-77.05804 -1804.07312 43.95652 475
-75.63244 -1673.36963 -4.88093 417
-74.39264 -1661.95044 23.35349 465
-87.47417 -1798.07336 44.10629 474
-86.52908 -1678.80676 -5.49422 409
-84.99261 -1666.62183 23.13917 459
-97.65845 -1791.76135 44.62579 474
-97.41338 -1684.40137 -6.02579 408
-95.97316 -1671.27417 22.49157 457
-108.36022 -1785.24866 44.50536 474
-108.32801 -1690.66040 -6.58191 408
-106.56005 -1675.70337 22.14984 456
-118.38808 -1778.97656 44.81351 476
-119.48267 -1696.44519 -7.14285 407
-117.51045 -1680.52930 22.11072 456
-120.53482 -1704.57385 48.42435 269
-130.93631 -1701.99963 -7.73784 419
-128.48143 -1684.91516 21.32830 455
-130.77945 -1703.06238 48.55889 373
-142.14543 -1707.52441 -8.53051 419
-139.68498 -1689.06494 21.10019 273
-142.18102 -1709.20569 48.00224 348
-153.60829 -1712.71802 -8.79094 416
-150.68921 -1691.31018 20.63112 457
-153.77710 -1714.70679 47.97997 335
-161.90161 -1696.11621 20.43365 408
-165.30612 -1720.42651 47.29109 377
-173.45946 -1702.12561 20.07244 448
-176.91591 -1727.56311 46.97172 376
-184.75986 -1708.17053 19.37769 447
-189.00288 -1733.82959 46.63324 367
-196.91714 -1714.94849 18.84230 442
-200.66946 -1738.76746 46.12155 387
-208.60736 -1722.68188 18.28332 363
-221.36519 -1733.67761 17.16386 430
-2649.56616 -9988.31250 -2640.52637 1000
-5357.93604 -10722.97754 -2054.47339 1000
-9377.27051 -18634.74219 2539.56689 1000
-11268.78711 -13398.18066 -154.04515 1000
-16910.06641 -14554.01172 865.54364 1000
-10922.97949 -8969.56055 1531.62817 1000
-5383.01367 -2856.72266 132.72539 408
-4832.82275 -2380.62256 131.94374 488
-4297.53271 -1926.11841 131.98805 483
-61733.77344 -26671.32227 -14411.45312 1000
-257.37134 -75.10048 35.37881 321
-255.31226 -72.43391 36.03214 321
-253.28647 -69.80901 36.69603 322
-273.63956 -73.88599 37.65962 318
-253.11873 -67.50810 36.77913 352
-271.34055 -71.08490 38.37317 319
-255.01662 -65.67694 36.38894 351
-269.59326 -68.45332 38.91848 321
-256.89206 -63.82502 35.96025 351
-271.23923 -66.43444 38.61457 345
-289.18246 -69.69685 40.77356 318
-258.72803 -61.89235 35.62421 350
-273.22928 -64.47957 38.21899 347
-289.33084 -67.27083 40.87861 341
-260.57285 -60.02591 35.20109 350
-275.21051 -62.52168 37.71098 346
-291.17435 -65.15526 40.46531 341
-265.93152 -58.69357 33.82097 320
-280.18427 -60.98122 36.52510 323
-296.60071 -63.60888 39.28126 313
-272.22116 -57.33561 32.15822 319
-196.36691 -11.08702 53.29382 324
-196.38153 -9.23018 53.36438 324
-196.39896 -7.47675 53.35751 324
-196.37379 -5.62333 53.32784 324
-196.39508 -3.88407 53.31243 324
-196.33990 -2.02331 53.37189 324
-196.30563 -0.25589 53.31692 324
-18583.62891 -37.19069 743.31433 457
