# .PCD v.7 - Point Cloud Data file format
VERSION .7
FIELDS x y z rgb
SIZE 4 4 4 4
TYPE F F F U
COUNT 1 1 1 1
WIDTH 742
HEIGHT 1
VIEWPOINT 4171.412109 -4092.800537 126.067078 -0.000852 -0.128831 -0.003324 0.991661
POINTS 742
DATA ascii
-31221.95117 1656.25684 6351.09277 1000
-17190.09180 1242.80249 -3618.67773 1000
-276.25668 58.08147 33.05037 320
-269.97400 59.33963 34.63492 321
-284.27719 61.68056 37.33745 323
-264.90527 60.73849 35.88533 350
-279.44055 63.22866 38.53429 347
-295.39240 65.95417 41.17775 341
-263.01413 62.57559 36.33332 351
-277.40527 65.17126 38.85304 347
-293.50415 67.96889 41.48899 340
-261.12216 64.50222 36.75547 351
-275.59604 67.08453 39.30363 345
-294.63727 70.57990 41.15170 318
-259.24442 66.38243 37.11692 352
-275.07214 69.31328 39.33917 321
-257.46454 68.22523 37.52012 350
-276.80063 72.03837 38.73495 318
-258.88223 70.69135 37.02060 322
-284.97421 75.94532 36.54220 260
-260.82892 73.36497 36.32979 321
-262.83240 76.04133 35.69739 321
-29448.57617 13664.61035 6605.21826 1000
-24798.31836 13229.34570 4314.31592 1000
-50734.93359 37547.75781 -16786.21484 1000
-16381.90820 20751.08984 -1159.65625 1000
-290.33160 1946.30896 35.56048 452
-290.75143 1949.66504 67.77726 497
-277.85501 1946.88367 35.29404 484
-1260.90393 41072.94531 9022.74414 1000
1191.30908 15386.62207 388.61499 469
1291.71777 15453.50195 138.65913 468
1283.09656 15348.14746 386.90540 473
1385.07910 15414.55176 138.60526 455
1375.19507 15313.97363 386.26920 477
1376.22693 15321.64160 640.45239 460
1474.43506 15382.17480 135.82648 474
1467.25842 15280.91992 389.63626 477
1473.42505 15343.07129 640.56079 303
229.25636 1459.83459 36.38492 379
1566.09424 15350.08496 137.20984 474
1558.83130 15249.36621 387.13629 477
237.36569 1450.88599 36.65736 479
237.95773 1454.70801 60.52242 479
238.48808 1458.93481 84.60668 437
1659.31226 15318.04883 135.32712 475
1650.82397 15217.43359 385.12732 478
246.23784 1449.52881 37.02919 492
246.95459 1452.61719 60.55444 492
247.02376 1456.01672 84.51380 487
247.67995 1459.91125 108.30602 416
1751.69006 15287.38672 134.34209 475
1741.36792 15184.99707 387.07172 478
256.06747 1454.43994 36.63038 412
256.51859 1460.82080 60.33218 346
1842.02698 15255.60254 135.95653 475
1832.12646 15156.04590 386.43744 478
1935.32971 15224.14844 136.08212 476
1920.17407 15125.06934 385.24979 478
2023.33887 15191.06445 134.75208 476
2012.66858 15093.90527 385.06497 479
2114.85156 15162.11914 133.95844 476
2102.36279 15061.83008 383.84888 479
7327.39795 51735.91406 -11136.40039 1000
7457.90771 52672.41406 -5092.24561 1000
2203.68115 15129.39648 137.63107 476
2190.89697 15032.42773 384.16058 479
2297.12524 15096.64062 137.47559 477
2282.35132 15001.95410 384.43744 480
2383.79688 15066.78320 136.55090 477
2371.28955 14969.28516 384.32935 480
2473.74731 15037.46680 137.30756 477
2457.68970 14937.90430 384.50061 480
2565.18921 15007.15039 136.06429 477
2546.92700 14908.99805 381.56769 480
2654.20801 14974.71875 133.84409 478
2636.51367 14876.16504 384.28864 481
2744.95020 14942.69336 134.39240 478
2726.16260 14848.64160 382.69638 481
2830.95825 14911.12793 135.05490 478
2816.10303 14817.62207 382.15329 481
2920.96265 14882.71289 135.90744 478
2902.39478 14786.31055 381.01816 481
3011.23267 14851.78418 133.45085 479
2991.46069 14754.13770 381.17902 481
13242.24512 66874.52344 9120.69727 1000
3099.51147 14822.93066 134.32590 479
3078.92529 14725.31250 379.35181 482
3187.86084 14792.39160 136.29933 479
3165.46509 14694.50293 380.95862 482
3276.93799 14759.08301 136.75136 479
3254.75415 14662.83398 379.10196 482
3362.99683 14730.93652 136.21803 479
3342.35693 14635.00000 381.24255 482
3450.95117 14700.66211 133.58263 479
3430.66748 14604.99121 382.27966 482
3819.91748 16309.46875 683.93231 433
3541.21191 14668.48438 136.97711 480
3515.07544 14576.13379 382.10532 482
3914.08691 16269.47070 684.22095 433
3627.31519 14638.52246 134.80147 480
3603.99609 14543.54688 381.61655 483
4010.74731 16232.72754 680.06232 433
3715.94727 14606.01953 135.20129 480
3691.47485 14515.03809 378.19882 483
4111.01270 16199.40039 682.22784 434
3800.81714 14578.97949 135.38051 480
3778.59058 14485.33691 380.47653 483
4203.33984 16158.90430 679.21838 434
3888.91675 14549.03516 133.85641 480
3864.25049 14452.20801 379.22241 483
4303.81494 16121.94141 679.41864 415
3976.27612 14519.39160 135.89163 480
3953.31445 14423.10059 379.85620 483
4397.64600 16085.52637 681.54767 415
4062.85425 14485.66016 134.38741 480
4040.87354 14394.10352 377.07422 483
4495.09619 16049.21094 678.52100 426
4152.46875 14458.56348 136.49915 480
4123.86572 14363.29785 379.76538 483
4588.62891 16017.26367 679.06647 440
4237.22998 14427.83984 136.24503 480
4210.97363 14335.74023 379.17444 483
4688.03516 15982.94629 678.75409 441
4326.90820 14397.87598 136.46843 481
4300.74658 14302.38184 379.29916 483
4484.08545 14936.10840 645.89661 493
15234.34277 51457.12500 9901.44629 1000
4412.80908 14368.09863 136.46500 481
4385.82471 14272.59570 379.38156 484
4384.87305 14279.23340 621.08502 296
4585.50293 14943.44238 899.73364 494
4498.42334 14337.07812 133.46875 481
4472.58545 14243.40234 377.67575 484
4474.09912 14246.26855 623.71466 296
4673.04785 14895.38965 900.11511 494
4588.73145 14305.05957 135.61502 481
4557.44922 14214.47168 376.21756 484
4555.17236 14210.83008 621.09436 302
4758.39209 14845.81641 898.71606 494
4675.39600 14274.50684 133.76466 481
4646.75195 14182.80176 376.12494 484
4640.46240 14178.07422 623.73840 302
4840.63281 14798.17773 897.67908 494
4762.45312 14245.04102 136.36623 481
4730.98877 14153.15625 376.11111 484
4728.26562 14144.49023 622.76135 302
4927.74658 14751.31445 898.62549 495
3374.94971 10019.16113 998.17017 1000
4850.18652 14215.04395 135.44495 481
4816.93457 14125.67480 377.08356 484
4811.28369 14108.67676 622.80890 302
5011.56055 14706.61426 895.96509 495
4936.90283 14185.63281 133.16211 481
4905.34131 14095.96387 378.00159 484
4897.32764 14073.35742 621.13318 302
5098.17041 14660.36621 894.65228 495
5021.11865 14158.32227 135.33427 481
4988.53027 14063.66211 376.73303 484
4984.44141 14041.07812 619.36664 302
5181.40820 14609.51270 895.33514 496
5110.12012 14126.70996 132.63152 481
5076.39258 14036.24414 377.80835 484
5067.59131 14008.72949 621.20367 302
5263.51025 14566.52148 895.10535 496
5197.32812 14096.25293 134.73225 481
5164.13086 14004.06152 377.31079 484
5153.72412 13976.02832 622.58844 302
5351.19873 14517.98828 893.07349 499
5282.53955 14065.47656 135.06429 481
5250.32910 13975.33496 377.55325 492
5235.14746 13939.53613 622.25214 302
5438.18115 14487.96484 894.12921 499
5370.62061 14034.58105 134.61021 481
5336.03125 13943.87012 375.59763 491
5322.32080 13911.36133 618.76630 424
5527.57959 14454.38867 892.16193 499
5456.95654 14005.74219 135.23058 481
5423.33984 13917.85254 379.01663 491
5407.09814 13880.83789 622.03772 424
5616.93750 14422.24316 891.65729 499
5545.91504 13975.03125 134.33469 481
5507.76660 13886.95215 375.62180 491
5495.31250 13848.80859 620.44238 424
5708.35840 14391.93262 893.58344 499
5632.06055 13946.39551 131.67451 481
5597.09521 13857.72949 377.12286 491
5579.73340 13820.71484 620.27203 424
5794.10400 14356.73730 892.52991 499
5719.22900 13915.77637 132.20206 480
5681.47754 13828.12207 375.51517 491
5666.13086 13787.69824 619.94684 424
5886.30225 14326.53906 894.60815 499
5805.20068 13886.10059 131.49025 480
5769.60840 13796.64844 375.82477 491
5753.19678 13759.39648 621.82629 424
5975.10645 14296.28613 893.76471 499
5892.90234 13854.60156 132.53867 480
5857.79736 13769.39746 376.34064 491
5840.11768 13726.12109 619.70471 424
6052.09961 14236.36133 891.48480 260
5981.94629 13823.12598 135.24455 480
5944.46924 13737.27344 375.76450 491
5927.43652 13696.85742 620.28333 424
6109.34717 14129.94629 886.74719 493
6066.89307 13794.21582 133.91379 480
6028.01807 13709.11816 378.47821 491
6010.76611 13667.11816 621.12354 424
6198.46191 14100.59668 889.98816 404
6260.75684 14235.95996 1151.64429 499
6153.07520 13765.17090 134.20720 480
6118.32080 13677.66602 377.17114 491
6099.06201 13634.68555 619.86871 424
6289.77100 14071.04199 888.07202 404
6349.81299 14202.93945 1151.19202 498
6418.84814 14363.19336 1420.03577 470
6240.59180 13734.76172 135.19072 480
6202.80420 13648.85059 377.47412 491
6185.43506 13605.42969 619.56073 424
6380.27588 14037.92188 888.85712 404
6440.17773 14171.45410 1152.25439 498
6488.26074 14285.45117 1418.06873 483
6328.84424 13703.27832 131.08365 480
6291.08691 13619.53711 379.34326 490
6273.16553 13575.13184 620.92523 424
6469.93945 14005.96191 888.21381 404
6527.95020 14137.23926 1150.71790 498
6417.39551 13675.50391 133.72682 480
6377.08252 13587.14941 378.37366 490
6356.63672 13545.62402 623.58252 424
6599.13721 14066.68848 893.09113 498
6600.43750 14070.74512 1149.25623 469
6604.39014 14073.22559 1405.29541 373
28668.35938 60761.73047 -3162.40503 1000
6505.22510 13642.68848 134.75815 479
6467.65137 13559.13965 377.03189 490
6446.64648 13514.15625 623.91815 423
6664.91309 13983.04688 892.78119 470
6665.38477 13981.57031 1146.98291 470
6666.28027 13980.92480 1398.76379 373
6592.77051 13613.56445 134.42439 479
6551.73145 13526.18164 376.72324 490
6534.03760 13482.19238 622.31488 463
6732.70654 13899.29004 888.16937 471
6731.22119 13897.79199 1144.38806 470
6727.54004 13892.78516 1394.77136 470
6682.61523 13584.12695 132.41646 479
6641.11084 13497.17480 379.70959 490
6618.65088 13454.09766 622.62518 463
6794.71045 13812.09375 885.36188 471
6792.92676 13812.22070 1139.27673 471
6793.31738 13808.32910 1392.21484 471
6771.24658 13552.75586 131.22125 479
6727.08447 13468.00000 378.18585 490
6706.64258 13424.45020 623.58917 463
6865.22168 13747.89355 887.45850 498
6866.53564 13742.75684 1137.38391 497
6865.81592 13744.46387 1388.40332 497
6953.39502 13920.80566 1662.50928 465
6952.30762 13919.37500 1917.93970 465
6951.68262 13915.18652 2176.32373 487
6949.42969 13913.46973 2433.27148 487
6948.38086 13913.53809 2694.99561 486
6858.95654 13520.28906 134.47820 479
6814.71875 13435.61035 380.21884 489
6794.97705 13391.85156 623.16180 462
6957.31299 13714.50684 888.05933 498
6955.87354 13714.42871 1138.89404 497
6951.49072 13710.95801 1391.22839 497
7101.26416 14002.21289 1674.25500 478
6946.52393 13491.57715 132.26021 479
6906.60596 13405.62012 377.67908 489
6880.35693 13363.14551 622.70862 462
7030.84863 13653.59277 886.22540 497
7028.64893 13652.35938 1137.63904 497
7043.05859 13679.23242 1390.85962 497
7190.71387 13967.38281 1676.13245 478
7037.91260 13458.83301 133.67282 478
6991.96631 13378.34375 380.59137 489
6970.08301 13331.21973 624.90912 462
7118.36084 13621.85059 884.53870 497
7118.60596 13619.75879 1137.45203 497
7131.71777 13647.13672 1393.29224 497
7249.04590 13876.99512 1670.60986 454
7123.36377 13431.54102 134.57117 478
7081.29980 13344.53125 377.97067 489
7056.99170 13301.97754 623.05792 462
7210.80908 13592.79199 887.18152 497
7208.87891 13588.39062 1139.44385 497
7222.07568 13612.26660 1392.39563 496
7351.75488 13858.26660 1671.50110 467
7214.83789 13397.30859 132.89355 478
7167.91406 13313.33691 377.53595 489
7144.61377 13272.11230 626.00549 444
7298.97949 13560.47656 887.22681 497
7299.10498 13557.75684 1139.94385 496
7311.95215 13580.25879 1393.17358 496
7463.54443 13867.01562 1677.73132 469
7301.25586 13367.30957 133.55145 478
7260.18896 13283.18555 379.23068 488
7234.69922 13240.54883 623.41028 444
7387.15283 13526.89160 889.64771 496
7387.79199 13525.38086 1141.61621 496
7401.23633 13549.24219 1393.46924 496
7556.99414 13834.40234 1682.10205 469
7391.16455 13337.81348 133.85304 477
7346.33984 13254.53320 377.50766 488
7324.89062 13210.23828 625.85565 444
7478.76367 13492.62500 890.08191 496
7478.99609 13491.57324 1139.43359 496
7488.95654 13515.86719 1396.66138 496
7645.58398 13800.09863 1681.13794 469
7483.81787 13307.03125 130.92122 477
7435.51074 13225.47461 378.61551 488
7411.74023 13181.88086 623.98169 444
7568.32568 13463.81836 891.03601 496
7565.60107 13461.27246 1139.94995 496
7580.48828 13486.30176 1395.92322 496
7738.23438 13768.45801 1684.07214 468
7570.39209 13274.82324 131.89348 477
7525.09229 13193.55078 378.37646 488
7500.05225 13149.91602 627.15747 443
7657.31787 13429.62109 889.11694 496
7659.62402 13428.15430 1142.68628 496
7594.24756 13311.34766 1384.32971 389
7831.42188 13734.20312 1683.07605 468
7661.36865 13243.19238 133.57794 477
7613.86523 13163.99902 381.89163 487
7589.08496 13118.15820 625.07416 443
7762.78369 13421.34375 892.43402 496
7761.89404 13422.34277 1143.83142 495
7605.68604 13146.56055 1373.91406 391
7925.27100 13703.44629 1686.81897 468
7749.80127 13213.27148 134.07323 476
7702.55762 13130.06250 380.52789 487
7679.16113 13091.67090 626.44720 443
7855.61475 13391.07129 893.69714 495
7841.09277 13365.06445 1142.60352 474
7681.07861 13091.93359 1371.01526 495
8018.77246 13668.41113 1689.16370 468
7844.01904 13183.52539 143.34091 476
7794.33350 13098.27930 392.79807 487
7768.53564 13059.97168 639.89911 443
7862.15381 13211.99805 894.66595 424
7820.13672 13144.87988 1143.98840 491
7771.51416 13061.51660 1385.11157 494
8108.08008 13637.27148 1701.04773 470
7934.74854 13148.61035 143.99097 476
7884.08838 13067.78613 393.60483 486
7858.76270 13026.98047 640.80811 442
8038.13330 13321.52051 904.16309 495
8035.67480 13323.24805 1162.15930 494
7859.37061 13029.05078 1387.59106 494
8203.42090 13603.93848 1705.65344 470
8023.78223 13117.86914 141.55112 476
7975.26514 13037.00195 393.65683 486
7950.73096 12998.98340 641.01617 442
8126.28369 13291.35645 905.51709 494
8126.22900 13287.39453 1161.42981 494
7951.08057 12993.98633 1390.68640 494
8296.15527 13568.07715 1707.73022 470
8115.84668 13085.19824 144.43839 475
8064.70508 13007.25000 392.82736 486
8039.39307 12965.28809 642.95197 442
8219.19629 13255.72852 907.60846 494
8219.26367 13254.02246 1162.31995 494
8207.28809 13232.84082 1418.14429 329
8402.33105 13554.87695 1711.46423 440
8205.72656 13056.07227 145.01033 475
8156.06445 12973.48145 393.88187 485
8130.85400 12934.82812 643.23987 442
8346.77441 13280.19531 913.82031 428
8344.68164 13279.99414 1168.07922 428
8344.74902 13278.56934 1423.96643 343
8518.13477 13557.33691 1716.94031 441
8299.62305 13025.02246 144.94789 475
8248.76367 12945.75586 394.99966 485
8223.11523 12904.68262 644.35132 441
8463.89551 13285.93164 915.62036 456
8474.45020 13306.74707 1176.32983 427
8486.25781 13323.62305 1435.17505 343
8390.45117 12992.31348 142.72441 474
8339.93164 12910.55566 394.81161 485
8315.06836 12876.14648 641.85455 441
8576.27832 13285.94043 919.36273 456
8611.04492 13336.74316 1183.27075 426
8631.02930 13373.43359 1443.73572 342
8482.34473 12960.37207 145.32954 474
8430.43164 12879.99023 395.32761 484
8403.84375 12842.80273 643.30951 441
8690.70410 13283.72266 920.24371 455
8724.24316 13334.15625 1186.86877 454
724.84259 969.30243 18.64432 372
8574.01172 12926.23633 144.85126 474
8519.95312 12848.39941 396.10303 484
8495.66699 12813.26562 645.22327 441
8809.49414 13283.10156 923.41583 454
725.95526 958.14624 19.40945 434
727.83563 960.83350 38.24062 434
729.80243 963.81799 56.90688 434
733.45502 969.21332 75.62850 314
8667.85742 12895.27539 143.35159 473
8615.38672 12817.89844 393.57623 484
8587.73828 12781.37305 646.27637 440
730.24969 951.91455 19.71117 498
731.78082 954.07080 38.50578 498
733.22870 956.31464 57.35850 497
734.87799 958.66357 76.13020 483
736.45093 961.00415 94.96672 477
8760.55762 12865.49121 144.93050 473
8705.89746 12784.62891 396.74521 483
8682.54395 12747.55078 648.47522 440
736.16345 948.27307 19.59844 494
737.81915 950.41150 38.56015 494
739.33942 952.54907 57.18682 493
741.01331 954.95337 75.95392 477
742.55243 957.26190 94.92397 466
8854.75879 12833.31445 145.44812 473
8797.97070 12751.75000 395.04074 483
8775.37793 12717.64844 647.24139 440
743.85175 946.85364 19.59107 465
745.95538 949.53571 38.29094 416
748.22821 952.86371 56.95161 416
8947.49512 12799.63574 141.52679 472
8892.12891 12721.20801 397.84915 483
8869.27246 12683.90723 646.54535 439
756.49408 952.69794 18.30288 275
9039.16602 12766.92578 143.33374 472
8984.43164 12688.90625 398.88315 482
8959.25000 12653.80176 648.39423 439
9133.11133 12733.53027 144.15634 471
9077.41113 12658.37402 397.25647 482
9055.34277 12623.16211 651.78998 439
9231.06641 12700.72754 144.60902 471
9173.50684 12625.00195 399.54611 481
9147.18750 12589.74219 651.83197 438
9321.59180 12670.22070 141.68689 471
9266.73633 12592.98047 396.30618 481
9242.52051 12556.62500 651.55450 438
9418.77637 12634.55859 144.99507 470
9360.93262 12558.86816 396.71988 480
9336.48926 12525.03125 654.08716 438
9513.74316 12604.96191 143.99823 470
9457.03613 12526.03223 400.30524 480
9431.28027 12491.31250 654.54877 437
9612.68066 12571.34473 144.33540 469
9554.87695 12495.34863 397.84381 480
9529.64160 12458.14160 653.84851 437
9707.38477 12536.37109 143.60292 469
9647.13672 12459.76270 401.43732 479
9621.81934 12427.82715 658.01355 436
9802.24023 12503.64160 142.74229 468
9745.71680 12426.45508 398.31958 479
9718.31445 12395.70020 656.88971 436
9902.91602 12467.83984 141.35545 468
9841.73242 12392.69629 402.80014 478
9816.80762 12363.29297 658.22614 436
9997.38184 12433.81543 143.08559 468
9938.75195 12361.73633 403.05148 478
9913.53027 12327.25000 659.59637 435
10096.60059 12403.97559 143.87762 467
10034.18750 12324.87891 403.94724 477
10011.74902 12294.98047 659.89185 435
10194.23438 12366.03320 141.31311 467
10135.10840 12291.90137 404.36624 477
10107.71094 12263.01074 660.74493 434
10295.21973 12333.29199 141.82709 466
10234.11133 12261.04980 401.15436 476
10208.57129 12228.96875 660.16077 434
10394.08203 12298.81738 145.03661 466
10330.57520 12224.36523 402.70340 476
10306.90820 12191.82812 665.01910 434
10492.46973 12264.00781 144.04848 465
10429.35547 12192.62305 403.20697 475
10401.78223 12157.29492 666.03998 433
10591.12207 12229.53711 142.50165 465
10528.37109 12154.75098 406.28928 474
10504.95898 12126.85449 664.19818 433
10694.21680 12195.42578 140.89639 464
10628.49023 12121.52637 404.65466 474
10601.46777 12089.50781 666.72528 432
10796.74219 12158.20996 145.09268 463
10729.74902 12085.90332 407.50769 473
10706.22363 12058.32617 667.73950 432
10897.84668 12123.36523 144.06158 463
10833.69727 12050.52637 405.23645 473
10803.47070 12021.64062 669.62000 431
11001.58887 12090.79785 144.92049 462
10933.43066 12016.55957 405.85583 472
10907.36816 11988.44043 669.30695 431
11104.45605 12053.05469 141.98668 462
11037.56641 11982.21680 409.52176 472
11010.73926 11952.48633 671.35272 430
11205.52734 12019.79395 141.92656 461
11140.43945 11946.32129 407.38428 471
11111.10254 11915.24219 672.23920 430
11310.02930 11981.61523 140.61716 461
11242.87598 11909.64160 410.46082 470
11213.17578 11882.12793 674.87744 429
11414.50781 11945.09082 143.62894 460
11344.14453 11874.93359 411.50836 470
11319.43555 11845.94629 676.30420 429
11521.32812 11908.69629 140.24159 460
11451.67578 11838.47070 408.87543 469
11424.58496 11806.27637 676.74072 428
11631.06445 11877.55273 143.81996 443
11554.58594 11800.63184 411.11414 469
11528.14551 11773.45117 680.71051 428
11751.21582 11853.47363 142.65057 442
11663.34961 11763.34082 412.92401 468
11638.92578 11741.49023 682.12170 395
11867.62988 11829.14941 140.75516 442
11775.44727 11735.14551 415.16602 443
11748.65820 11712.28223 685.40173 395
11989.05859 11805.86914 143.08801 442
11897.12598 11712.75488 416.38770 442
11863.26074 11680.37402 683.89679 394
12112.56543 11780.13770 141.93678 441
12018.12109 11688.92383 413.70746 441
11977.04688 11650.38574 684.97211 394
12233.93262 11757.51074 140.87978 440
12141.10352 11665.21387 416.74738 441
12092.49707 11617.98730 689.07227 393
12380.50098 11752.22754 143.67349 394
12264.95898 11640.66016 418.63956 441
12206.75098 11583.73926 691.03778 393
12551.12988 11766.66406 141.80666 371
12387.38379 11615.38379 417.47092 440
12325.54395 11552.80176 695.52277 437
12722.28613 11784.10352 143.93640 370
12513.61133 11588.93750 419.52509 439
12453.84473 11538.49414 695.81555 439
12897.76758 11804.28125 141.42398 369
12666.47363 11588.62402 424.43945 393
12586.31641 11517.82031 700.90991 438
12822.51562 11591.37402 425.73590 392
12722.23926 11498.07324 699.86523 317
12984.30859 11594.91992 426.30002 369
12863.30664 11483.01855 703.60626 317
49547.01172 43924.20312 -11863.34277 1000
13163.93457 11612.66211 429.00269 369
13005.94043 11469.91895 707.41150 284
13380.78125 11658.97559 429.98178 341
13158.11621 11466.70312 711.53339 284
36950.87500 31541.43164 -3817.54370 1000
39666.37891 25872.29492 -11686.81445 1000
30785.18555 18488.23047 -2199.49707 1000
33986.35156 19577.02930 -6971.77930 1000
3244.90015 1007.26367 514.31177 1000
3656.97778 902.23041 73.11978 291
3654.97021 878.89423 72.60691 421
45201.88672 4260.10986 1624.66724 1000
62770.62500 3980.43335 11572.44727 1000
62042.64453 -253.99304 15660.79102 1000
4939.65186 -407.06155 52.40586 439
4917.05811 -435.22189 53.48207 440
4874.21680 -460.84238 54.44236 308
4855.71094 -489.16443 54.23416 426
4839.10840 -516.14240 54.13039 427
4828.24756 -544.96014 55.16965 493
4819.07129 -573.41168 54.83115 493
4811.02637 -601.41168 54.10832 496
4804.71729 -629.38367 54.69233 496
4797.48486 -658.22198 55.21825 496
4868.56494 -668.01556 132.81586 342
4792.90820 -686.81476 54.65517 497
4788.13086 -715.78735 55.16182 497
4785.27783 -744.96832 54.41512 496
4782.34131 -774.24146 54.98759 495
4780.82324 -803.25787 54.24907 495
4897.05713 -823.92786 212.68224 495
4778.88037 -833.23663 55.16314 495
4940.77686 -862.43073 212.54984 398
4939.00879 -862.13019 294.19815 398
4776.07275 -862.90607 54.44671 495
4775.06445 -891.29242 53.96136 495
5009.20361 -936.68256 131.78912 497
4773.16992 -921.25092 54.83325 494
4770.70312 -950.14813 53.64865 494
4769.45703 -979.85498 54.01101 494
4935.03613 -1015.20117 131.98409 283
4941.85156 -1016.15057 213.95045 464
4766.80371 -1009.17279 54.41096 494
4764.57910 -1039.12830 53.74932 494
4763.18506 -1068.76074 53.42606 493
4761.31494 -1099.42273 53.35217 493
4759.21143 -1128.22729 53.59919 493
4758.24756 -1158.69446 53.42622 493
4756.19238 -1188.56580 53.05524 492
4754.29590 -1218.67651 52.80627 492
4756.04736 -1249.65308 53.89966 468
32805.01953 -8763.58691 1242.32043 1000
4763.44922 -1282.40686 53.12243 467
4771.08594 -1316.37708 52.08241 466
3775.23682 -1930.99438 63.50108 490
4667.74756 -4730.90869 25.12084 469
4646.49023 -4767.50391 23.39314 447
4627.86963 -4805.23584 24.06523 443
4608.10010 -4844.56836 24.18920 443
4590.64697 -4886.98291 24.02631 431
4576.33301 -4929.98682 21.95448 419
8143.93359 -8849.71582 3129.42603 1000
3554.11450 -3853.31177 46.88929 483
4559.91016 -5034.66016 22.62801 390
4561.18164 -5098.55859 20.88932 388
4561.63330 -5164.61914 20.22922 394
4562.92432 -5229.46875 20.36648 399
763.35370 -1032.36682 10.90355 434
763.68878 -1032.33594 31.00441 434
763.77771 -1032.63892 51.36805 434
763.62140 -1032.76733 71.56116 434
763.89984 -1032.79968 91.85947 435
763.97571 -1033.10107 111.88416 435
764.14575 -1032.93909 132.24353 435
764.14557 -1033.36023 152.36200 435
764.07959 -1033.39343 172.86031 434
764.37592 -1033.30469 193.05092 434
764.37170 -1033.67078 213.22459 434
764.30609 -1033.60901 233.48811 434
756.43347 -1035.51489 10.68897 465
756.75616 -1035.63245 31.20193 465
756.86353 -1035.92004 51.56891 465
756.76685 -1036.07202 71.65254 466
756.93195 -1036.17969 91.94878 466
757.07202 -1036.35217 111.91118 466
757.45245 -1036.74500 132.19446 466
757.34985 -1036.90649 152.37323 466
757.72363 -1037.13904 172.60152 466
757.55994 -1037.11377 192.90477 465
757.80872 -1037.40344 213.14572 465
757.91425 -1037.61206 233.65594 465
3072.72510 -5897.00244 22.95218 422
3015.84497 -5874.83496 24.15565 425
2964.72437 -5860.60742 25.60884 436
2915.21558 -5852.71436 25.43084 446
2867.13770 -5841.40771 25.39900 451
2818.02637 -5831.04150 25.47576 460
2771.12256 -5823.37598 26.37345 463
2789.53613 -5864.76807 131.05467 477
2726.61938 -5821.30566 27.65986 469
2746.36548 -5866.24463 131.40526 478
2682.78662 -5817.89014 27.07418 473
2700.25903 -5859.87109 130.77098 478
2639.32764 -5818.81104 27.43440 477
2658.37109 -5860.32471 131.11700 479
2596.63184 -5817.50537 28.70713 478
2618.16040 -5865.15381 131.13684 479
2555.91846 -5818.02637 27.87173 478
2575.59302 -5865.93701 131.11510 480
2513.30444 -5818.75439 27.67170 479
2533.31592 -5866.84717 131.03705 481
1365.03308 -3117.18115 21.46811 267
1440.23865 -3299.76416 73.67267 350
2496.40186 -5879.76758 131.84163 343
2515.95947 -5926.00635 236.32103 481
1319.30420 -3058.49731 24.33459 358
1414.87329 -3295.23120 74.11649 463
2496.32715 -5986.06641 131.14670 342
2485.20386 -5958.96338 237.23117 331
1306.11414 -3079.60547 23.90586 420
1391.90393 -3295.88867 73.55892 463
2498.40698 -6095.38330 132.46201 341
2439.01538 -5949.05518 237.10831 489
1293.32544 -3104.15869 22.57652 401
1368.50940 -3297.95142 74.33048 466
2429.13110 -6029.00635 238.10631 331
1281.96045 -3130.85034 22.31501 393
1345.76697 -3298.77856 73.82063 466
1270.37842 -3157.68799 21.97761 392
1323.40686 -3300.41675 74.28338 467
1257.66296 -3185.05200 20.54283 391
1301.03186 -3302.06470 74.69091 467
1246.29578 -3213.39673 20.32123 384
1278.13782 -3303.12720 74.25085 468
1235.44836 -3246.94946 19.33512 364
1256.39368 -3304.66968 74.94652 468
1225.89587 -3284.92651 17.61592 356
1234.83215 -3308.11084 74.21432 456
1218.03064 -3326.30542 16.55722 341
1217.95886 -3326.16504 74.50138 466
1214.81445 -3385.83960 14.92223 309
1212.26709 -3375.62671 73.84947 319
1219.02368 -3469.81958 12.35769 301
1214.64429 -3454.62402 72.55003 318
1223.05078 -3553.15747 10.13902 308
1222.95154 -3556.37817 70.82204 336
2040.15674 -6112.85010 131.57321 402
1226.86133 -3644.19116 7.00127 304
1244.79114 -3700.06348 68.21788 458
1233.65918 -3744.73804 4.16111 306
464.96124 -1317.55945 244.45627 1000
6987.62695 -26609.38281 4668.66553 1000
6946.67725 -26451.45703 5565.67285 1000
242.76743 -1532.37878 5.69713 407
242.76901 -1532.58228 31.19421 407
242.83051 -1532.84985 56.55957 407
242.90472 -1533.20093 81.52513 407
242.68797 -1533.37659 106.72969 407
242.88042 -1533.67798 132.05403 407
243.04784 -1533.91870 157.49300 407
242.75514 -1534.32080 182.38156 407
242.93146 -1534.47668 207.94252 407
242.82477 -1534.60767 233.11646 339
233.06705 -1532.70483 5.72075 442
233.23711 -1532.62720 31.12868 442
233.50426 -1533.10974 56.24205 442
233.26967 -1532.97559 81.81870 442
233.29706 -1533.51672 107.01387 442
233.16638 -1533.43628 132.24947 442
233.28816 -1533.46790 157.37729 442
233.19217 -1533.94385 182.52922 442
233.27684 -1534.21301 207.65486 442
233.33765 -1533.98828 233.19308 442
-273.35458 -2037.15857 -3.60620 322
-273.17813 -2036.01562 30.23647 322
-272.87100 -2034.75708 64.34932 393
-272.83743 -2034.82373 98.29958 393
-273.07050 -2034.30310 131.88177 449
-272.82034 -2034.02295 166.00899 449
-272.92892 -2033.84851 200.01399 449
-32108.72852 -15554.83691 3064.12061 1000
-262.63342 -74.75455 36.12329 321
-260.65393 -72.11463 36.80050 321
-258.65753 -69.47836 37.40307 324
-278.88617 -73.53751 38.48909 318
-259.01605 -67.37254 37.44383 349
-276.80191 -70.85646 39.12889 321
-260.89886 -65.50964 37.06678 351
-275.41119 -68.25758 39.52730 345
-262.82642 -63.58292 36.59398 351
-277.23849 -66.26564 39.15139 345
-294.73553 -69.42645 41.54531 319
-264.64923 -61.70188 36.19546 350
-279.12512 -64.28020 38.83179 347
-295.21902 -67.14696 41.42595 340
-268.03165 -60.05767 35.43939 326
-282.21255 -62.46984 38.13214 324
-298.57486 -65.19827 40.83460 315
-273.83310 -58.75742 33.90123 320
-287.89417 -61.07247 36.74664 323
-9116.69531 -869.12842 1349.63550 1000
-2804.37988 -165.77951 179.76387 1000
