# .PCD v.7 - Point Cloud Data file format
VERSION .7
FIELDS x y z rgb
SIZE 4 4 4 4
TYPE F F F U
COUNT 1 1 1 1
WIDTH 1156
HEIGHT 1
VIEWPOINT 7192.455078 -736.104797 138.423599 -0.670631 -0.103535 -0.100807 0.727580
POINTS 1156
DATA ascii
-18579.08008 65.46094 752.83417 463
-18528.67383 176.07489 747.36688 464
-18478.17969 288.71765 747.47284 465
-18427.13281 401.58582 747.68695 465
-18374.69727 516.02771 747.19525 466
-20246.89258 570.67505 1139.50989 443
-18325.39844 629.30017 743.85333 466
-18279.50391 736.86908 740.99353 467
-18230.86328 848.40955 741.65350 467
-18182.48633 958.10846 738.65356 468
-18131.75781 1069.71436 738.94409 468
-19983.01953 1175.88232 1127.83569 295
-18081.54688 1177.03210 736.72205 469
-19913.58789 1295.86499 1123.88940 404
-18036.61914 1285.19934 737.64014 469
-19859.12695 1417.20532 1121.94580 433
-17986.38867 1397.55042 734.61200 470
-19803.70312 1533.82324 1122.56396 407
-17938.33398 1503.78650 732.25586 470
-17900.03906 1497.83936 1026.36279 299
-17894.04102 1611.24365 730.37640 471
-17841.69922 1607.67920 1024.20508 299
-17842.45117 1718.84509 733.28119 471
-17787.74805 1709.56714 1025.01843 299
-17799.42578 1821.62549 731.31415 472
-17731.61523 1817.48181 1020.83789 300
-17750.37305 1927.46216 729.19849 472
-17679.79297 1919.52466 1018.92419 416
-17702.97656 2032.75098 729.36572 472
-17630.10156 2028.50806 1017.82898 417
-17655.72266 2140.33667 726.38330 473
-17580.71875 2132.04980 1014.30145 417
-17612.83984 2247.36914 726.72247 473
-17532.58594 2232.66211 1012.77484 417
-17563.34375 2348.14453 724.91553 474
-17486.65625 2338.36523 1010.71387 418
-17517.25977 2451.30713 721.39099 474
-17435.74414 2442.47705 1011.34631 418
-17473.31445 2555.14038 721.43201 474
-17389.33984 2543.04736 1010.21887 418
-17424.77734 2657.60010 721.73260 475
-17341.22656 2648.14209 1005.09247 419
-17382.34180 2765.21582 722.05084 475
-17296.30664 2750.38354 1004.21191 457
-269.61496 59.51055 34.81646 320
-284.03119 61.84142 37.48615 323
-17333.78516 2865.01367 720.51288 476
-17251.97461 2850.24634 1006.54242 458
-18016.07031 2974.68091 1345.26807 477
-264.98672 60.92495 35.93965 350
-279.51614 63.47034 38.55163 346
-295.70972 66.14690 41.23401 341
-17291.53125 2969.55054 719.49457 476
-17206.21875 2952.62036 1005.74829 491
-17942.64453 3081.04688 1342.25134 477
-262.98389 62.84258 36.42171 350
-277.42734 65.41569 39.02080 345
-293.73245 68.26178 41.63663 340
-17242.72461 3068.93652 716.27936 476
-17160.19336 3054.89795 1003.49664 491
-17878.13867 3181.92285 1337.00061 478
-261.08206 64.70906 36.80147 351
-275.59775 67.36456 39.29230 345
-295.33792 71.04708 41.13576 318
-17201.69922 3170.71484 715.45715 477
-17114.27148 3154.76440 998.86090 492
-17807.38281 3282.60181 1333.81458 478
-259.15308 66.65690 37.20593 351
-275.52774 69.73341 39.24409 321
-17153.65039 3272.23877 714.48767 477
-17072.13867 3255.99219 999.05157 492
-17742.64453 3383.65161 1329.38477 479
-257.41171 68.48252 37.49714 325
-277.41959 72.36538 38.63510 318
-17111.11328 3375.66089 714.51263 477
-17026.04492 3356.28467 996.77557 492
-17671.55664 3481.69678 1328.62036 480
-259.22607 71.05656 36.95013 321
-17065.17773 3475.82056 715.37952 478
-16979.94922 3458.74219 999.39532 493
-17603.49805 3585.09424 1325.23352 480
-261.18643 73.74339 36.30148 321
-17020.34961 3573.20483 716.11835 478
-16936.50586 3557.95850 996.60645 493
-17540.35938 3682.44727 1322.88391 481
-263.13486 76.43491 35.57423 320
-4093.98950 901.73730 134.54590 455
-16973.15430 3672.52368 710.99506 478
-16895.19336 3656.22900 997.32092 493
-17479.77930 3785.23193 1321.33606 493
-4094.96313 928.55261 134.93475 322
-16929.89648 3774.30176 712.18817 479
-16849.95312 3756.11133 993.10858 493
-17437.10742 3883.61255 1318.94922 494
-16886.66602 3876.41504 710.71576 479
-16805.17969 3857.87695 994.98846 493
-17386.75000 3985.66846 1317.64160 494
-16844.49219 3971.42358 709.01990 479
-16763.28320 3953.58154 991.70770 494
-17337.90820 4091.50928 1314.92761 494
-16799.95117 4072.02368 712.12646 479
-16717.96875 4051.18384 990.02979 494
-17295.98047 4191.87891 1313.61108 495
-16755.59961 4172.26709 711.78223 480
-16677.50391 4150.82031 988.08655 494
-17246.24414 4291.93115 1311.39526 495
-16710.95508 4270.49512 709.65784 480
-16630.94531 4252.71143 990.70282 495
-17200.63281 4396.21875 1309.21619 495
-16664.61328 4366.93359 708.51691 480
-16587.29102 4350.59473 986.64447 495
-17048.66992 4467.67627 1302.53638 494
-16621.61719 4465.64600 707.54114 480
-16546.66016 4447.61865 985.93829 495
-17002.28906 4566.43750 1301.27808 489
-16578.87305 4563.49561 706.97919 481
-16504.85938 4542.06348 986.74152 495
-16955.49609 4667.23682 1301.21875 489
-17098.13867 4705.10547 1604.19080 496
-16533.79492 4664.27588 709.64709 481
-16457.83398 4642.13428 987.63129 495
-16910.35352 4765.74902 1299.88794 490
-17047.00586 4805.46338 1601.48962 496
-17183.56250 4843.46680 1909.00464 458
-16491.06445 4761.91211 707.49219 481
-16417.27148 4740.21631 984.33545 496
-16910.80078 4881.39795 1303.53760 381
-17003.42188 4905.88428 1601.44836 496
-17191.22852 4963.33496 1913.11169 398
-16447.90039 4858.34961 707.25836 481
-16371.74512 4836.52930 984.65454 496
-16892.99023 4990.10791 1304.86108 436
-16881.17578 4984.16064 1591.91309 436
-16403.89062 4956.95654 707.95502 481
-16329.53613 4936.01172 985.55463 496
-16768.43945 5065.38965 1294.91455 437
-16759.74023 5061.58301 1584.20972 437
-16884.80469 5100.88281 1888.02881 353
-16361.45215 5052.18652 705.43848 482
-16287.14160 5028.89795 981.88269 496
-16648.38281 5139.90137 1289.32764 438
-16637.18359 5138.40430 1575.85095 438
-16747.08008 5171.09619 1877.55664 354
-16318.28809 5152.84814 705.06848 482
-16243.08203 5125.45068 983.19238 496
-16582.77539 5233.34766 1286.21899 497
-16574.29102 5230.83252 1572.52551 497
-16648.99609 5254.19385 1870.37463 391
-16749.89453 5287.40918 2174.80054 430
-16743.20508 5281.50293 2464.17944 430
-16732.14062 5281.06152 2757.67017 429
-16725.38867 5277.63477 3051.84570 463
-16732.63867 5277.34863 3353.24243 413
-16272.09668 5246.93701 706.37640 482
-16202.18262 5224.02783 982.24493 497
-16506.49023 5320.13525 1284.69128 498
-16496.49609 5319.61426 1569.54919 497
-16600.99414 5352.90039 1871.08521 391
-16854.87305 5431.98193 2189.31519 485
-16230.14355 5343.63135 702.01050 482
-16157.07031 5321.07764 981.11694 497
-16461.74023 5421.63770 1284.85620 498
-16453.35938 5415.16602 1568.71082 498
-16552.57031 5450.54883 1869.66199 391
-16809.18750 5532.48877 2186.12036 485
-17222.42383 5667.73975 2543.00269 484
-17216.50000 5666.37744 2844.03149 483
-16189.53809 5441.86523 704.95813 482
-16116.52832 5419.15186 980.27679 497
-16414.34180 5518.92285 1283.30359 498
-16406.75586 5516.29980 1567.32507 498
-16504.94336 5548.87158 1865.62244 391
-16762.23633 5634.01953 2185.58203 485
-16145.78320 5538.45801 702.94147 482
-16074.04492 5512.56738 979.97943 497
-16372.17285 5616.12012 1281.00305 498
-16363.32715 5611.99316 1569.53772 498
-16462.67578 5646.85107 1865.79089 391
-16677.07227 5716.30566 2179.13696 480
-16099.83105 5633.50098 703.11053 482
-16033.23828 5607.80762 979.74634 497
-16329.01367 5710.18750 1283.68701 498
-16318.95215 5710.17725 1569.25854 498
-16413.46680 5740.07568 1862.49243 392
-16670.52148 5828.59619 2185.82349 485
-16056.22754 5731.32080 701.07434 483
-15987.64941 5705.44287 981.54297 497
-16283.77930 5811.91553 1279.99805 498
-16276.11133 5804.71387 1564.46582 498
-16370.37891 5839.09814 1865.23767 392
-16620.66211 5931.47949 2181.89844 485
-16012.95410 5825.26074 700.66095 483
-15945.80273 5801.67822 982.48645 497
-16238.72461 5905.85791 1283.07104 498
-16230.08789 5903.97217 1567.34131 498
-16324.13672 5937.72705 1860.28723 392
-15972.68945 5924.42773 701.65448 483
-15906.24316 5896.42480 980.35181 497
-16220.90527 6014.54297 1280.45508 499
-16215.14062 6013.87451 1566.42200 498
-16276.56055 6036.37012 1859.12561 392
-15927.27539 6020.48926 702.17194 483
-15862.36230 5992.04980 981.67480 497
-16176.65137 6110.17480 1282.62146 499
-16154.80859 6103.30176 1567.42017 480
-16230.02832 6132.02246 1860.88892 392
-15884.09668 6114.16113 700.43011 483
-15818.56250 6089.65723 978.24615 498
-15978.93262 6149.25537 1268.97644 426
-15908.23633 6122.41797 1546.18665 468
-16181.88672 6228.17529 1858.75598 383
-15840.81250 6210.37109 702.21271 483
-15776.63965 6184.46143 978.30890 498
-16084.65039 6307.71973 1282.99878 499
-16081.35449 6302.28809 1567.86206 499
-16138.53711 6322.97363 1858.39673 383
-15800.61035 6307.05957 700.55115 491
-15736.86816 6280.64697 979.00635 498
-16042.75098 6403.36133 1280.16846 499
-16036.97852 6400.58838 1563.21106 499
-16089.45996 6421.44971 1858.61340 383
-15756.47070 6400.40723 703.06390 491
-15691.44238 6376.80273 976.86340 498
-15999.91016 6502.27197 1279.68481 499
-15992.20508 6496.47217 1565.35632 499
-16047.65820 6519.82910 1858.02148 368
-15716.23535 6499.82275 703.59100 491
-15648.42969 6470.00000 980.90625 498
-16010.28418 6618.03662 1282.65430 466
-16004.28418 6614.75879 1568.41785 466
-16078.78711 6646.03418 1863.30566 368
-15669.95117 6596.81543 703.57758 491
-15607.77148 6567.74219 976.78253 498
-16009.16504 6737.20898 1288.25513 482
-16017.76074 6737.67334 1574.75085 465
-16104.62305 6775.15186 1872.56238 369
-15629.15234 6690.71094 700.29523 491
-15563.81934 6661.79541 977.05481 498
-15996.60156 6844.18896 1289.98462 481
-16033.98047 6864.35352 1581.04944 465
-15586.79980 6785.12305 702.19208 491
-15522.16602 6756.52979 976.71442 498
-15984.22559 6960.83350 1289.89795 481
-16036.46680 6980.17725 1581.40991 480
-15544.91602 6881.39404 703.41998 491
-15479.20801 6855.36719 979.65442 498
-15976.93555 7074.10107 1291.52417 481
-15503.77246 6975.82617 701.26276 491
-15439.29883 6951.74365 977.04755 498
-15962.89258 7183.96680 1297.06348 480
-15459.93652 7073.29980 703.37433 491
-15398.73730 7043.95996 980.56299 498
-15416.07910 7168.19824 704.14258 491
-15353.91504 7139.26025 977.00421 498
-15372.19531 7265.12549 700.40601 491
-15313.55371 7234.85840 979.67627 498
-15332.91406 7361.26074 702.86591 491
-15271.20996 7332.11084 978.56604 498
-15290.05273 7459.14111 701.15955 491
-15229.06641 7425.74707 977.46448 498
-15244.95020 7555.33838 702.09637 491
-15185.65820 7523.80615 980.10345 498
-15204.01074 7651.64941 702.68384 491
-15141.58789 7619.67578 977.07239 498
-15160.09277 7745.70410 704.07898 491
-15098.01562 7714.10010 982.04492 498
-15116.51172 7841.37012 702.16498 491
-15057.97266 7812.33252 979.72565 497
-15074.29980 7937.90820 702.04980 491
-15015.97852 7907.00488 978.76080 497
-15032.51953 8032.00439 703.96686 491
-14972.03027 8001.51270 981.51733 497
-14988.81543 8132.18164 704.40619 491
-14927.47363 8095.92529 979.19086 497
-14946.67773 8224.47852 706.25775 490
-14884.37500 8196.14551 982.55750 497
-14903.13086 8322.02441 704.49939 490
-14843.26855 8291.40625 982.41718 497
-14857.98633 8420.09668 705.05060 490
-14799.26270 8387.32715 984.66046 497
-14817.13965 8517.09668 702.74506 490
-14760.14648 8482.79785 980.92548 497
-1274.13354 792.37305 55.33675 445
-1282.34521 796.95343 80.91258 318
-14775.37402 8611.44336 706.59546 490
-14714.34570 8577.47461 984.64142 496
-1265.26538 798.27960 55.78841 499
-1268.22571 799.91516 81.34656 484
-1272.58325 802.38525 107.18883 460
-14730.58496 8711.73535 705.00507 490
-14672.57812 8676.45312 984.59833 496
-1262.18945 807.45361 55.72553 456
-1264.74756 808.95001 81.24389 456
-1268.46411 811.31195 107.25181 418
-14684.90918 8809.08887 707.19421 490
-14629.73926 8770.88281 982.29315 496
-14643.64551 8904.58789 708.70282 489
-14587.56445 8868.49707 983.94647 496
-14602.07129 9002.15625 707.55664 489
-14543.25781 8966.28027 987.66962 496
-56461.59375 34644.98828 5611.84277 1000
-14558.83203 9101.30273 708.67725 489
-14501.31738 9061.78027 984.88281 496
-14514.26855 9196.19434 708.63342 489
-15748.59180 9973.85449 1050.07227 423
-14471.59473 9296.83594 708.21973 489
-14414.99707 9259.06641 989.83069 495
-14425.04590 9393.14844 708.98755 488
-14371.32422 9355.03809 987.14832 495
-14383.68457 9490.31641 707.91602 488
-14326.17285 9455.90625 988.20490 376
-30882.34180 20308.64844 2582.94287 1000
-14336.43555 9586.79980 712.37970 488
-14288.78223 9553.86328 991.55835 376
-14295.09180 9686.63770 709.51147 488
-14245.45020 9655.71680 990.14233 375
-14251.61914 9788.89746 713.30707 487
-14201.84180 9753.50781 992.95239 375
-14213.70801 9889.75879 711.37408 470
-14162.53906 9855.15918 993.54449 375
-14185.59766 10001.43164 714.45233 469
-14120.54590 9954.40332 993.76190 375
-14152.20801 10111.18359 715.99402 469
-14077.59082 10056.57031 998.64233 491
-2620.92163 1951.01062 134.17656 290
-14121.18262 10218.50293 717.92413 470
-14038.96191 10156.64941 998.50897 491
-2537.84009 1916.80518 133.75386 320
-14090.18555 10330.42773 718.50836 469
-13996.42188 10262.99023 998.19434 491
-2483.13745 1901.02002 134.15471 335
-14055.73242 10436.14746 716.80927 469
-13967.49902 10374.67578 1002.48633 478
-2484.69263 1926.86719 81.05573 325
-2439.84180 1892.90393 133.69113 317
-14026.60742 10548.03027 721.22308 468
-13942.85449 10487.18945 1001.31506 477
-2414.16675 1897.66016 82.48943 268
-2397.97510 1885.95117 133.76613 337
-13999.95020 10668.02637 721.01636 430
-13914.29492 10602.17578 1004.36731 476
-2343.46558 1868.63489 83.75347 326
-2361.85986 1882.51050 133.81168 352
-13992.43262 10795.14355 723.90924 429
-13886.14551 10719.33789 1008.26355 476
-2302.21948 1860.03003 83.85936 342
-2333.72485 1884.44177 134.09129 429
-2423.64624 1954.89038 185.97975 334
-13983.80957 10928.49316 728.65009 428
-13861.10352 10831.43262 1012.28705 467
-2265.09839 1854.43579 84.51145 343
-2386.76880 1950.30432 133.60762 379
-2401.53027 1961.74097 185.62099 418
-13975.07910 11062.53418 728.92621 406
-13834.51562 10951.41113 1011.45752 466
-2229.20020 1849.52454 84.91856 344
-2366.70044 1959.41187 133.66435 462
-2398.11572 1984.18970 186.07449 417
-13974.04492 11202.56641 731.93268 405
-13809.07715 11066.13281 1015.11261 466
-2193.20215 1844.13342 85.83898 345
-2320.27393 1946.52979 134.30861 382
-2395.59229 2006.50269 186.09741 416
-13984.12695 11348.76855 736.30212 380
-13779.91602 11187.89160 1018.84833 468
-2158.24365 1839.12268 85.85361 346
-2276.88403 1935.85474 133.53647 383
-2392.21289 2029.82532 186.44196 416
-14007.17578 11510.61426 738.71387 379
-13773.06641 11322.31445 1022.37341 411
-2123.54199 1833.86914 86.63201 347
-2265.92896 1951.14465 133.53841 460
-2388.78687 2052.16235 186.24405 415
-14078.48242 11714.82031 745.57056 284
-13777.47559 11470.89746 1027.68567 410
-2091.32471 1829.81543 86.97798 384
-2161.47046 1887.59558 133.61386 386
-2382.38501 2073.54590 186.42479 386
-13786.45703 11618.87012 1031.02856 418
-2059.35254 1825.20654 87.78442 385
-2151.60254 1903.55554 133.95993 457
-2258.60254 1993.73303 183.99393 497
-2253.53052 1989.52100 234.76830 498
-13795.67090 11775.70703 1035.25391 417
-850.92865 730.28143 -17.66140 386
-2149.06104 1924.94531 133.40030 456
-2245.71533 2008.50208 184.32938 344
-13816.79688 11938.29297 1043.80298 363
-1997.46558 1817.68250 88.30395 388
-2146.81567 1947.48450 133.76263 455
-2149.83154 1949.62488 182.86638 457
-2214.57227 2005.86243 283.80423 390
-2213.17114 2004.86938 334.55121 499
-1967.41052 1814.12781 88.73760 389
-2144.94800 1969.74353 133.52582 332
-2073.15942 1906.87573 181.04204 496
-2071.18481 1905.11035 228.41890 496
-2071.70679 1905.98975 275.83234 341
-1938.20630 1810.06079 89.45851 390
-2268.96948 2105.64258 133.51970 327
-2139.73657 1989.26941 183.01926 429
-2066.91943 1925.20276 276.30280 455
-1909.07349 1806.69861 89.73909 392
-2236.61841 2102.19019 133.95160 328
-2136.08691 2011.50024 182.64665 428
-1880.53223 1803.03906 90.15716 393
-2205.48096 2099.53589 134.15605 328
-2066.67456 1972.39856 181.86136 427
-1854.36597 1801.05676 90.03860 447
-2174.58545 2097.73291 133.49274 296
-2063.73364 1994.08923 182.22728 426
-1834.05957 1804.79041 90.29221 448
-2144.75952 2096.02515 133.96278 297
-2060.68335 2016.13171 181.66570 426
-1814.24854 1808.27100 90.76720 449
-2116.02490 2093.90186 133.50069 297
-2058.18237 2038.82471 181.86755 405
-2055.43433 2037.29175 230.82449 366
-1794.89514 1811.46704 90.52088 450
-2087.27637 2092.03613 133.66541 297
-1775.29980 1814.96448 90.58313 424
-1870.82532 1908.12512 133.77928 491
-1874.16577 1935.03064 88.08589 444
-2030.34448 2088.78003 133.91393 298
-1871.55859 1956.77905 88.38290 442
-1991.39148 2075.41943 133.35292 365
-1869.42578 1978.22290 88.12891 441
-1867.10278 2000.29468 87.57858 440
-1944.00232 2078.78149 133.32843 459
-1864.86963 2022.66736 87.21988 439
-1915.14844 2075.10718 133.87108 364
-1861.85791 2045.35510 87.33784 438
-1836.39380 2043.47400 87.64123 392
-1860.32312 2068.40479 133.79008 409
-1814.74597 2044.92957 87.99390 440
-1794.40393 2048.45435 87.77149 441
-1777.91821 2056.25928 87.88416 351
-6986.82178 13778.03809 -2941.81567 1000
-4492.07471 60332.66016 -10860.53711 1000
3147.19922 46636.48047 5517.51270 1000
7545.28906 14420.27930 -133.91246 1000
21142.28320 31269.01562 -8013.92969 1000
1578.89075 1473.95447 -5.74495 311
1586.82715 1463.88708 -5.44113 477
1596.51318 1455.20581 -5.34307 473
1605.54639 1463.69580 28.50768 439
1606.71729 1447.08838 -5.72948 464
1615.13025 1455.21875 27.89986 454
1616.44019 1439.02600 -5.82959 449
1624.26990 1446.56372 28.10640 456
1626.79578 1430.92188 -5.80672 449
1634.18347 1437.88440 28.17454 468
1637.33203 1423.25549 -5.84147 444
1644.05896 1429.52795 27.81005 424
1648.44348 1415.50952 -6.43248 444
1654.53662 1421.10193 28.18130 449
1658.96277 1408.25415 -6.32942 444
1664.88977 1413.44116 27.99428 448
1669.56128 1400.54419 -6.78438 444
1675.23267 1405.19641 27.82891 462
1680.55603 1392.54236 -6.84558 443
1685.95410 1397.47839 27.80284 462
1844.17200 1536.20312 55.05632 437
1691.34277 1385.19983 -7.14360 443
1696.39954 1389.09399 27.36906 462
1842.44873 1515.26990 55.49329 403
17094.91797 14562.41895 -5870.13916 1000
595.56372 429.31839 -10.62811 386
598.25104 431.58472 -0.08759 316
1702.28406 1377.39465 -7.08992 440
1707.29639 1381.44531 27.17151 478
1840.23730 1495.20044 56.04882 404
594.65491 423.19360 -9.50073 444
596.22168 424.56906 1.14949 444
598.10962 426.04831 11.96616 387
600.37915 427.94666 22.42160 387
603.29285 430.52679 33.04308 316
1713.85645 1369.70972 -7.54147 439
1718.55750 1373.89099 26.76963 482
1837.04980 1474.32520 56.71543 404
595.32892 418.65216 -9.11006 483
596.75055 419.78333 1.66725 483
598.08344 420.76703 12.45076 445
599.66144 422.10858 23.15877 445
601.22229 423.41913 33.88894 445
602.93079 425.01907 44.53010 446
605.20465 426.78571 55.32468 467
608.44489 429.37207 65.89838 316
1725.28186 1362.61353 -7.69758 432
1729.56201 1366.25647 27.01550 482
1835.70874 1454.35791 57.18665 405
596.68524 414.56909 -8.78184 499
598.15338 415.63861 2.12326 484
599.52631 416.86438 12.82216 484
600.86713 417.90570 23.42148 484
602.03839 418.95901 34.28484 484
603.20392 420.00504 45.10929 499
604.67950 421.18204 55.72257 469
606.29144 422.29840 66.54364 479
607.66107 423.49658 77.24172 442
1737.21167 1355.96313 -8.29093 432
1741.33533 1358.86377 26.40368 433
1833.42725 1434.97949 57.88019 406
599.13629 411.41309 -8.75075 499
600.35846 412.51495 2.10592 499
601.59448 413.41431 12.78213 499
602.89716 414.41351 23.65985 499
604.28516 415.58435 34.30315 499
605.54889 416.55884 45.16205 499
606.72949 417.68494 55.85992 499
608.05554 418.59949 66.50440 499
609.50262 419.78198 77.41084 498
1749.71082 1349.34045 -8.32056 428
1753.28284 1352.26721 26.39150 446
1831.17456 1415.32751 58.39090 407
602.09729 408.57214 -8.78923 490
603.37292 409.78189 2.04032 490
604.78387 410.68018 12.73501 490
606.05267 411.74774 23.50164 490
607.35510 412.95981 34.30296 490
608.81232 414.08234 44.93497 486
610.88086 415.58630 55.63515 431
611.56799 416.23419 66.44066 457
613.35559 417.66125 77.21875 427
1762.94763 1342.75488 -8.96576 427
1766.21606 1345.29163 26.02906 448
1828.67236 1395.68689 58.73932 409
605.60852 406.37561 -9.15715 457
607.24060 407.58841 1.69409 457
608.60291 408.85721 12.28539 457
610.20117 409.93286 23.06979 457
611.64343 411.30811 33.95064 457
613.73474 412.82156 44.56084 399
615.94781 414.46375 55.23142 336
1775.68823 1336.04675 -8.98710 421
1779.28979 1338.97437 25.76040 446
1826.56470 1376.52075 59.26664 410
610.24170 404.98920 -9.69141 456
612.23090 406.37894 0.92563 403
614.21661 408.00174 11.65940 403
616.55988 409.82986 22.25403 334
1789.42603 1330.10742 -9.50304 420
1792.65247 1332.85022 25.20318 466
1824.65991 1358.12817 59.70954 411
617.04449 405.07892 -10.88127 335
620.58386 407.83279 -0.50982 335
1803.40186 1323.93652 -10.04420 417
1806.66418 1326.86548 25.07053 468
1824.95752 1340.57410 59.70904 489
1817.90076 1318.46313 -10.88007 415
1820.43994 1320.78589 24.72375 464
1832.47681 1329.74329 60.03341 490
1833.02710 1313.60144 -11.43017 413
1834.75647 1314.56824 24.51259 457
1840.43567 1319.00842 60.00650 492
1849.23511 1308.69348 -12.17291 400
1850.08875 1309.06543 24.23065 448
1855.77283 1313.92078 59.54625 451
1866.21277 1304.85767 -12.59899 401
1865.97937 1304.68530 23.30474 447
1871.86230 1308.39746 59.28370 435
1884.77979 1301.20154 -13.53466 391
1883.80127 1301.26489 22.63772 429
1890.42688 1305.55225 58.51335 423
1903.72717 1298.49890 -14.59589 390
1903.71289 1298.19690 22.36725 419
1924.33289 1296.53748 -15.41574 389
1923.02014 1295.52710 21.58997 418
1944.99158 1294.08948 -16.54756 388
1943.37329 1292.53748 20.96217 417
1966.01440 1291.57178 -17.51318 387
1963.73645 1289.92920 20.21628 417
1987.11108 1288.78308 -18.83975 394
1984.42712 1287.32568 19.42248 415
2007.46143 1286.07593 -19.81479 393
2007.44775 1286.12402 18.40408 394
2028.35754 1282.69470 -20.60763 399
2028.40051 1282.69922 17.15443 393
2050.43335 1280.06311 -21.89982 398
2050.20166 1279.58508 16.94933 392
2072.87720 1277.88098 -22.63035 397
2071.43799 1276.99585 15.84678 391
2095.34644 1274.81165 -24.03128 396
2093.55298 1273.74744 15.35172 408
2118.76611 1272.48071 -25.34904 395
2116.32251 1270.68909 13.95774 407
2142.45947 1269.38025 -26.71728 394
2138.78613 1267.95581 13.42308 406
2166.27295 1266.76208 -27.91200 393
2162.10083 1264.37109 12.40791 405
2190.05054 1263.96399 -29.10093 394
2185.82397 1261.09399 11.75996 404
2214.57349 1260.72595 -30.04174 392
2209.42822 1258.22644 10.60829 402
2236.78345 1256.05444 -31.36082 360
2233.76562 1254.64490 9.85481 401
2265.56201 1255.57300 -33.28423 393
2292.92358 1253.96265 -34.56455 310
50866.63672 13852.38281 2707.44946 1000
50493.86719 13750.28125 6999.71777 1000
56912.17969 5737.68750 -5502.85645 1000
45788.55469 4330.76172 7701.90723 1000
1663.46338 -5.28222 -48.72539 453
1667.85229 -5.53252 -23.42903 452
1673.07703 -5.29421 2.17880 336
1659.32288 -15.02872 -48.49639 499
1663.65918 -14.96897 -22.86414 499
1667.59302 -15.11314 2.77636 401
1671.56348 -15.21461 28.06586 498
1660.83398 -24.76797 -48.76804 486
1665.73608 -24.79419 -23.24944 450
1671.69971 -24.73469 2.46428 394
1669.62659 -34.59616 -49.58672 393
52477.80469 -1480.54028 2698.11426 1000
42872.62500 -2524.30469 -4095.59326 1000
2704.19629 -234.60736 -40.58584 297
2683.49609 -232.59845 4.13676 375
2668.28931 -247.23605 -37.67973 326
2655.97412 -246.02573 5.09226 446
2654.41846 -261.21631 -37.44662 404
2646.43042 -261.06863 5.71785 481
2644.16333 -276.34882 -36.85337 411
2638.54907 -275.68683 5.59412 487
2635.93384 -291.16849 -36.39306 415
2633.60205 -290.94131 5.92738 466
2627.40845 -305.81265 -35.60421 462
2628.07056 -305.83960 6.48087 467
2727.82568 -318.41409 44.53252 455
2619.94482 -320.85962 -35.56806 461
2622.40601 -321.53983 6.14348 467
2612.27783 -335.97873 -34.71748 486
2617.26929 -336.21637 6.26587 430
2605.60571 -350.77631 -34.48288 491
2612.66235 -351.73392 6.55203 435
2599.74805 -365.56097 -34.54315 491
2608.64282 -366.71872 7.04268 440
2658.59741 -389.84134 -81.32952 478
2593.88037 -380.30078 -33.86566 491
2604.54321 -382.03812 7.08306 406
2650.59839 -404.78067 -80.63673 419
2587.90454 -394.99915 -34.20802 492
2601.17896 -397.36572 6.96029 413
2642.52173 -419.67569 -80.11477 419
2582.23145 -409.60172 -33.76505 492
2596.96460 -412.05231 7.00263 413
2636.03906 -434.56573 -80.27293 423
2577.31104 -424.63278 -33.66805 494
2594.08154 -427.39151 6.66197 417
2629.08472 -449.74545 -79.51846 432
2572.07739 -439.67212 -33.46690 494
2590.83594 -442.91196 6.68985 362
2622.92871 -464.81241 -79.59798 433
2568.33081 -454.38879 -33.16073 497
2589.19165 -458.08209 7.16143 362
2699.69458 -478.51163 131.59251 300
2616.68848 -479.13431 -78.92186 435
2562.98120 -469.05658 -33.49233 497
2586.71533 -473.80710 7.15953 362
2673.94312 -490.26416 45.68090 310
2656.96143 -486.95337 131.79907 301
2611.28296 -494.35284 -78.61514 435
2561.50220 -484.88791 -33.29126 498
2584.81909 -488.97128 7.03255 362
2691.13281 -510.18741 88.36380 339
2616.42944 -495.74692 131.47330 302
2606.11377 -509.28891 -78.24530 437
2556.62622 -499.60010 -32.99636 498
2599.04736 -508.01666 6.37992 496
2709.81592 -530.44910 44.62891 338
2652.76807 -519.03741 88.77683 340
2581.42603 -504.71695 131.76552 424
2590.77783 -522.70880 -77.85596 499
2552.36133 -514.30566 -33.06273 499
2593.38623 -523.25891 6.52652 496
2670.35791 -539.29626 45.22020 339
2615.68164 -527.99982 89.85757 341
2577.42969 -519.24591 131.99205 341
2695.75244 -544.45789 175.28670 498
2571.95093 -534.63885 -76.12364 302
2546.46338 -528.81390 -32.54665 499
2587.85693 -537.78119 6.50069 496
2633.09790 -547.52966 46.98463 341
2581.60742 -536.30078 90.15825 498
2577.82593 -535.71289 131.74464 424
2693.74683 -560.44348 175.52606 498
2563.53589 -548.65851 -76.21866 302
2542.25610 -543.96613 -32.50718 499
2582.05054 -552.47791 6.11886 497
2596.71191 -555.53680 47.69747 342
2580.09375 -552.01007 89.69025 498
2575.98267 -550.94495 131.79883 424
2556.84937 -563.11047 -75.42542 301
2541.85718 -559.30396 -32.95086 499
2577.08838 -567.76007 6.28614 498
2576.88501 -567.85120 48.12837 499
2578.92310 -568.18103 90.19635 498
2574.64429 -566.95734 131.93617 424
2551.39355 -577.17676 -75.63764 301
2538.16235 -574.81018 -32.70138 499
2575.35645 -583.29108 6.66698 497
2576.34644 -583.53033 47.92442 497
2577.13135 -583.61566 89.88758 498
2572.80396 -582.63342 131.42677 424
2547.28394 -592.32141 -75.10711 375
2535.03149 -589.79822 -32.79310 499
2573.47192 -599.12408 6.00607 497
2574.49585 -598.87567 48.07282 497
2575.74194 -599.45215 90.00092 497
2571.12378 -598.07141 132.05847 424
2543.44067 -607.35193 -75.35963 375
2529.97803 -603.86914 -32.75890 499
2571.80835 -614.97559 5.90547 497
2572.84399 -614.83215 48.28700 497
2573.63354 -615.27460 89.68790 497
2569.42603 -614.07642 131.89177 423
2819.45264 -676.34399 269.86499 376
2820.08716 -676.00250 315.92841 376
2540.43359 -622.48572 -75.61609 375
2526.93872 -619.39081 -32.58131 499
2570.75879 -630.61700 5.87477 497
2570.90405 -630.65863 48.19402 497
2571.52905 -631.01709 89.93105 497
2567.25806 -629.72968 131.95747 423
2537.62598 -637.68433 -75.16742 375
2526.56860 -635.40552 -32.85339 498
2562.47437 -644.51282 6.46310 497
2563.90894 -644.64362 48.49336 497
2564.45190 -644.87952 89.95432 497
2565.82520 -645.45111 131.57574 423
2534.65552 -653.19843 -75.44907 374
2524.88525 -650.43164 -33.36091 497
2560.68335 -660.11700 6.23340 496
2562.83887 -661.17023 47.83397 496
2563.47046 -661.16107 89.65901 496
2564.17285 -661.14258 132.13472 423
11996.69141 -3264.05542 -2535.71069 1000
2532.71753 -669.13074 -76.00640 375
2522.59302 -665.80194 -33.21272 497
2559.15698 -676.15631 5.91495 496
2561.43188 -676.62250 47.67064 496
2562.05298 -677.20911 90.21878 496
2562.44800 -677.18402 131.74008 423
2530.24487 -684.44952 -75.57139 375
2518.04004 -680.82941 -33.63439 497
2557.94116 -691.96967 6.15753 496
2559.49902 -692.80927 47.52407 496
2560.05103 -692.99982 90.04145 496
2560.46362 -692.99628 132.15778 423
2529.22485 -700.22998 -76.21133 374
2516.25244 -696.63367 -33.87142 497
2555.66064 -708.03961 5.52365 496
2557.77417 -708.45007 47.92852 496
2558.76782 -708.83997 89.48689 496
2558.78564 -708.80725 131.49876 422
2527.93970 -716.05762 -76.10566 373
2516.35840 -713.08209 -34.11551 495
2554.45630 -723.54578 5.73454 495
2555.50854 -724.50830 47.60810 495
2556.48633 -724.42389 89.63644 495
2557.11914 -724.85974 132.08026 422
2526.32568 -731.98438 -77.03685 373
2515.33716 -728.84076 -34.32545 495
2552.83887 -739.95221 5.78575 495
2558.55298 -741.76282 47.65131 497
2560.35303 -742.21069 89.74522 495
2555.82568 -740.75903 131.82317 422
2687.19995 -780.21265 175.88586 296
2525.59375 -748.15521 -77.33225 373
2513.34619 -744.41968 -34.45534 494
2550.92529 -755.66138 5.19446 495
2557.81201 -757.87610 47.31871 495
2558.53955 -758.34857 89.42143 495
2553.54346 -756.56238 131.80199 422
2698.36230 -801.23029 176.72537 486
2524.79004 -764.07971 -77.42766 298
2509.18628 -758.89923 -34.33581 494
2548.93115 -771.99896 5.47872 494
2556.16577 -773.90436 47.22565 494
2557.09106 -774.36176 89.67532 495
2551.74487 -772.42694 131.75273 422
2697.80688 -818.56512 176.41791 278
2524.24805 -780.70734 -77.58286 298
2507.10205 -774.94525 -34.14209 494
2547.78223 -787.87506 4.76436 494
2554.52417 -790.54315 47.26673 494
2555.56494 -790.75763 89.33280 494
2550.00024 -788.60852 132.17482 421
2634.91895 -816.00885 175.47224 494
2666.97607 -826.63983 220.57283 395
2524.08936 -796.89825 -78.21295 298
2508.18604 -791.92786 -34.91047 494
2546.05811 -804.20929 4.97260 494
2553.01758 -806.67529 46.72958 494
2553.55542 -806.95087 89.51483 494
2548.71606 -804.95160 131.65442 421
2612.38379 -825.51031 175.41603 494
2652.50806 -838.71106 219.72678 474
2524.38916 -813.82666 -78.61237 298
2506.89087 -807.87744 -35.33140 493
2549.98242 -822.14453 4.35978 493
2549.88330 -822.05890 47.16667 491
2551.72461 -822.63275 89.12296 494
2547.08496 -821.10944 131.82776 421
2610.97510 -842.74768 175.46576 493
2649.34082 -855.06573 220.34361 464
2524.13794 -830.09882 -79.32270 297
2504.72070 -823.87714 -35.59499 493
2548.82397 -838.49707 3.96771 493
2549.65991 -838.56244 46.84085 493
2550.09033 -838.68665 89.01548 493
2544.85059 -837.35431 131.54387 421
2562.58643 -843.47400 174.45914 499
2564.02686 -844.07849 217.66154 470
2524.30469 -847.20618 -79.63502 297
2500.62817 -838.92206 -35.23832 493
2788.48608 -938.53772 -8.84458 493
2543.08496 -853.25336 131.85869 421
2630.75708 -884.33044 175.93230 474
2524.16211 -863.35083 -79.65568 303
2499.05371 -855.02130 -35.46236 492
2786.62817 -956.95941 -9.05686 492
2625.66943 -899.75946 175.59090 498
2674.32349 -917.45612 221.90431 462
2523.79712 -880.09503 -80.60438 303
2499.83936 -871.64594 -36.30000 492
2625.51343 -917.52686 176.22527 484
2680.04370 -936.78546 222.34184 488
2670.01562 -933.77014 266.91733 456
2536.69751 -902.50452 -82.14753 266
2498.33154 -887.58704 -36.07972 491
2676.76953 -953.49774 177.20505 401
2670.94165 -951.79358 222.08604 453
2529.38623 -916.47675 -81.74496 266
2496.83472 -904.06934 -36.72596 491
2646.98828 -960.84467 176.52153 411
2522.12427 -930.78827 -81.58377 266
2493.13184 -919.81927 -37.05440 487
2514.04077 -944.81714 -81.35056 266
2490.56274 -935.43866 -36.83530 491
2507.40820 -959.01550 -81.68491 376
2491.32520 -952.83844 -37.32607 490
2505.14331 -975.78076 -81.93012 376
2489.47778 -969.36700 -38.07233 489
2789.65015 -1091.19629 -11.39283 301
2487.78174 -985.59552 -37.93909 489
2770.01147 -1101.82312 -10.83989 320
2483.57080 -1001.58582 -38.50080 489
2676.94434 -1082.18445 -5.79209 319
2778.97778 -1124.91235 36.60754 460
2482.19360 -1018.27972 -38.56610 488
2649.64233 -1089.52063 -5.16480 323
2482.76831 -1035.31958 -39.05675 488
2593.19971 -1083.83447 -2.31797 324
2775.48779 -1162.13904 36.33340 393
2480.70166 -1052.35486 -39.15944 487
2525.54858 -1072.13049 0.83799 308
2773.04053 -1181.14685 36.25753 393
2479.03540 -1068.86047 -39.91615 487
2516.96094 -1085.98547 1.66042 262
2771.04443 -1199.55310 35.52892 392
2474.90137 -1085.11621 -39.90074 486
2509.79565 -1101.10974 1.05282 263
2770.35083 -1219.06628 35.73890 381
2473.43726 -1101.60217 -39.87461 486
2503.58447 -1116.02478 1.49040 309
1234.61963 -580.45630 -89.54869 485
2501.05762 -1132.41980 0.88278 309
2671.33691 -1212.44702 38.48262 461
2471.95654 -1136.87012 -41.34964 485
2498.09521 -1149.48828 1.05064 309
2662.29565 -1227.97144 38.37270 499
2469.30591 -1154.00244 -41.33810 494
2495.09155 -1166.23621 0.78888 309
2575.43774 -1204.72729 41.70144 467
2466.12012 -1169.82214 -41.43647 484
2491.80322 -1182.69922 0.53509 309
2568.13721 -1220.72412 41.33544 499
2464.45239 -1187.55176 -42.12582 263
2502.15430 -1206.71606 -0.72930 459
2560.80957 -1235.46655 41.34598 499
2466.96997 -1207.08545 -42.97306 410
2550.86084 -1250.18335 -3.50372 499
2553.55396 -1251.30786 41.78475 499
2740.00244 -1346.11987 83.12519 386
2562.98584 -1275.27441 -50.66624 401
2543.50635 -1265.12317 -3.59341 499
2546.22681 -1266.02502 41.20668 499
2542.19141 -1283.61572 -4.03636 455
2544.93970 -1284.92114 41.22050 462
2544.15356 -1303.82068 -4.34717 454
2507.40820 -1284.44824 42.32690 486
31973.24219 -41717.28906 -5040.09570 1000
1235.71985 -1558.95801 -26.51012 425
1222.85107 -1560.74377 -26.06252 496
1225.88611 -1565.46094 5.40337 494
1228.61389 -1569.34460 36.68087 495
1215.66003 -1571.39429 -26.40216 426
1220.57800 -1577.96643 4.85686 296
18427.55078 -39145.11328 -10703.46094 1000
7953.24219 -21001.65625 3832.50879 1000
3819.33203 -10985.69336 1082.68530 1000
416.62036 -1651.99658 -5.72754 343
405.25644 -1648.86035 -5.08279 484
394.73575 -1648.27307 -5.13641 484
397.00568 -1658.41907 21.80507 409
383.55884 -1644.28430 -4.69403 486
383.64648 -1643.12439 22.91063 484
373.64218 -1646.41113 -4.87607 482
373.02249 -1641.95349 23.28686 486
363.30389 -1646.52551 -4.27345 481
362.73935 -1641.37378 23.42443 486
353.14713 -1646.07129 -4.14528 482
352.15540 -1641.13037 23.41670 487
352.49741 -1643.50281 50.43550 483
342.51266 -1645.27405 -4.35533 482
341.75668 -1640.68018 23.68973 487
342.13480 -1642.62805 50.59138 487
332.45236 -1645.06311 -4.01912 482
331.54556 -1639.97278 23.60359 487
331.69644 -1642.24353 50.89793 487
322.04050 -1644.67053 -3.94673 483
320.82214 -1635.80225 24.13604 487
321.63336 -1641.55164 50.74898 488
311.33084 -1644.27698 -3.47293 483
310.88077 -1637.43274 24.18586 485
311.39062 -1641.30542 50.91085 488
301.32718 -1643.47620 -3.45851 484
300.43475 -1636.99023 24.18472 485
300.94855 -1640.96619 50.93602 488
291.08267 -1642.98694 -3.36677 484
290.18195 -1636.32275 24.14318 485
290.88245 -1640.14929 51.43876 489
280.63577 -1642.70947 -3.38351 483
279.84134 -1635.77319 24.65475 485
280.19968 -1639.78381 51.33388 489
270.38535 -1642.17969 -3.01021 483
269.80930 -1635.39600 24.57045 485
269.99030 -1639.35095 51.50418 489
260.16986 -1641.56494 -3.03067 484
259.42529 -1634.84131 24.50525 486
259.88550 -1638.71521 51.54277 489
250.11220 -1641.30127 -2.89196 484
249.15100 -1634.37451 24.75710 348
250.00157 -1638.30786 51.55538 489
240.10083 -1640.42175 -2.92174 484
239.11285 -1633.45325 24.91793 348
239.85312 -1637.82410 51.50821 488
229.99857 -1640.03418 -2.41931 484
229.32332 -1633.05103 24.89804 348
229.63177 -1637.75464 51.84729 488
219.48419 -1640.05298 -2.32669 468
218.99135 -1632.35449 25.19895 348
219.32681 -1636.88330 51.78692 488
209.32217 -1639.91418 -2.40168 468
209.07117 -1631.48438 24.99629 349
209.29042 -1636.57727 51.75398 488
199.35867 -1639.83801 -2.16939 468
198.66347 -1631.26733 25.18122 349
199.20393 -1636.17322 52.07343 489
189.53098 -1639.62280 -2.31606 468
188.74902 -1630.32825 25.20433 349
189.31235 -1635.77930 51.96244 489
179.51929 -1639.38171 -2.17558 468
178.76776 -1629.93176 25.46529 349
179.12796 -1635.17883 51.77841 489
169.25291 -1639.06384 -2.36009 468
168.53893 -1629.30957 25.49422 434
169.08636 -1634.85901 51.96279 489
159.18646 -1639.26685 -2.13708 468
158.74622 -1629.11243 25.35946 434
158.84470 -1634.42712 52.09536 489
149.02785 -1638.89233 -2.12768 468
148.76927 -1628.66687 25.67988 434
148.90131 -1633.91785 52.30078 489
139.33627 -1639.00891 -1.89228 468
138.52104 -1628.14709 25.49248 434
139.18234 -1633.31372 52.01640 489
129.18898 -1638.89355 -2.09560 468
128.68089 -1627.38440 25.55282 434
128.87015 -1633.15747 52.04638 490
119.03266 -1638.89355 -1.94403 468
118.81470 -1626.90625 25.71944 434
118.94810 -1632.66589 52.01733 490
109.20308 -1638.60706 -1.83086 468
108.74092 -1626.44019 25.96453 435
109.16614 -1631.88147 52.27559 490
99.13102 -1638.54944 -2.03943 468
98.87604 -1626.41785 25.61945 435
98.76868 -1631.67883 52.25283 486
89.22605 -1638.71729 -1.88375 469
89.10301 -1625.75134 25.89140 435
88.94871 -1630.33105 52.47297 498
79.05557 -1638.40100 -2.06082 469
79.06280 -1625.12280 25.80952 435
79.10757 -1629.78064 52.16877 497
68.81230 -1638.04077 -1.84320 467
69.20499 -1625.01929 26.03683 435
69.25603 -1629.49109 52.34747 498
59.14643 -1637.65613 -1.69256 456
59.05184 -1624.29199 26.02716 435
59.23293 -1629.27124 52.28646 497
49.10801 -1637.44226 -1.96728 456
49.15539 -1623.88635 25.78298 435
49.09048 -1628.46228 52.19813 498
38.96889 -1637.17883 -1.77060 456
39.29280 -1623.59534 26.16628 435
39.16748 -1627.88599 52.37093 498
39.05375 -1635.55469 78.79030 498
29.00775 -1637.14941 -2.13883 456
29.22360 -1622.77917 25.93523 435
29.27085 -1627.46326 52.30708 498
28.97587 -1636.02405 78.84619 499
18.94273 -1637.23975 -2.05995 456
19.29894 -1622.47717 26.03566 464
19.24493 -1627.00195 52.27665 498
19.05994 -1635.36035 78.84802 499
8.78661 -1637.43994 -1.99579 456
9.68116 -1621.80872 25.94926 464
9.53295 -1626.63062 52.23032 498
8.99482 -1635.25928 78.99445 499
-1.11351 -1637.24939 -1.83741 456
-0.09315 -1621.45972 25.82249 464
-0.43650 -1626.07373 52.32193 498
-1.22343 -1634.77393 78.75822 499
-11.19380 -1637.45569 -1.82973 456
-10.44006 -1621.57324 25.88182 462
-10.61945 -1626.02661 52.25847 497
-11.17287 -1634.68030 78.74910 499
-21.34117 -1637.49182 -1.93628 456
-20.01076 -1621.27393 26.01048 457
-20.44336 -1625.73340 52.19009 497
-21.12819 -1634.41357 78.99644 499
-31.39265 -1637.52148 -1.99002 455
-30.22341 -1622.18665 25.83332 444
-30.35112 -1626.27783 52.40889 494
-31.12721 -1634.97534 78.68854 494
-41.36827 -1638.18396 -2.47990 455
-40.22868 -1622.70251 25.98195 444
-40.56810 -1627.39697 52.02077 493
-41.30287 -1635.96204 78.62191 493
-51.39145 -1639.20618 -2.55025 450
-50.07998 -1623.87073 25.58179 452
-50.49722 -1628.67896 52.23945 489
-51.33467 -1637.39502 78.48923 492
-62.06147 -1641.10876 -2.56588 450
-60.44367 -1624.97107 25.64138 452
-60.82708 -1630.44189 51.93784 489
-61.59804 -1638.54224 78.80736 493
-72.18124 -1643.22803 -2.70522 445
-70.58794 -1626.23389 25.50144 452
-71.06932 -1632.51318 51.93641 484
-72.74644 -1648.66638 78.06587 409
-82.60773 -1645.41418 -2.99715 445
-80.69543 -1628.29932 25.29716 452
-81.36290 -1634.82654 51.53076 482
-83.80304 -1658.04895 77.66405 399
-93.09178 -1647.82837 -3.24591 436
-91.02548 -1630.20129 25.15168 447
-91.67021 -1637.14661 51.42939 480
-103.40015 -1650.54016 -3.70156 435
-101.42516 -1632.49487 24.69610 444
-102.41069 -1639.99866 51.25760 479
-113.84940 -1653.56128 -4.30463 435
-111.71354 -1635.09216 24.67416 443
-112.68238 -1642.24304 51.13705 479
-124.62044 -1656.62378 -4.68812 426
-122.25704 -1637.98499 23.99870 443
-123.04214 -1644.63953 51.16271 478
-135.22475 -1659.79980 -5.07249 426
-132.95235 -1640.78406 24.07230 437
-133.67880 -1647.90784 50.64918 475
-146.30280 -1663.55310 -5.29578 426
-143.39651 -1644.03625 23.68337 437
-144.82561 -1651.36548 50.45022 475
-156.98286 -1666.83789 -5.71071 424
-154.19316 -1647.65637 23.41370 436
-155.46188 -1654.95898 50.05625 468
-167.97655 -1670.94824 -5.99745 423
-165.02565 -1651.42163 22.90487 433
-166.24486 -1658.80505 50.19961 468
-179.42299 -1674.64819 -6.73714 425
-176.23222 -1655.02258 22.40642 433
-177.62617 -1663.08496 49.50078 454
-190.40230 -1679.41968 -7.03632 418
-187.20105 -1659.51343 22.20424 426
-188.60735 -1668.19763 49.29573 454
-201.87201 -1684.57214 -7.61039 420
-198.69850 -1664.09668 21.69130 426
-200.25208 -1673.43774 48.80117 444
-213.75258 -1689.76685 -8.36716 415
-210.09094 -1669.42053 21.38845 422
-211.83063 -1679.47913 48.52891 443
-225.08662 -1695.63184 -8.69617 415
-221.45734 -1674.61401 20.57645 421
-223.41849 -1685.00500 48.18277 442
-236.91156 -1700.60266 -9.65070 426
-233.25317 -1680.22375 20.09166 420
-235.14474 -1690.78357 47.89887 439
-248.67284 -1705.79468 -9.99432 415
-244.90251 -1685.66516 19.70361 420
-246.91756 -1696.98291 47.61491 424
-256.55609 -1691.37390 19.09377 419
-258.89053 -1703.18872 47.21258 423
-268.70291 -1696.79932 18.63073 418
-271.19577 -1709.78442 46.72774 401
-280.56702 -1702.80530 18.12589 414
-283.72342 -1717.81201 46.21557 400
-293.11566 -1709.15417 17.81332 416
-296.66190 -1725.05762 45.73581 383
-305.66040 -1715.89795 17.04246 408
-309.40735 -1733.70715 44.91594 379
-318.32126 -1723.06970 16.56445 419
-331.41776 -1730.34705 15.57695 427
-6513.63672 -13825.23535 1137.14661 1000
-31425.75000 -53615.58594 13567.74805 1000
-1971.54822 -2687.19946 131.99879 333
-1970.13831 -2685.26465 188.01375 333
-1968.98438 -2684.42920 243.56943 402
-2429.61108 -2130.73608 186.46748 314
-2427.45508 -2128.54858 240.45018 385
-34501.93750 -21425.27148 7538.56445 1000
-5492.72754 -2913.00757 132.02339 491
-4949.77393 -2436.56348 131.96400 495
-4416.42432 -1976.65405 132.30193 487
-57627.71484 -22822.32422 12481.22559 1000
-257.51855 -74.80303 35.43298 321
-255.42210 -72.05625 36.10471 321
-253.45090 -69.42792 36.76889 322
-273.67410 -73.51683 37.80669 318
-253.77586 -67.30557 36.83134 352
-271.43842 -70.75471 38.49784 321
-255.57707 -65.42406 36.42867 351
-270.04315 -68.21024 38.93821 345
-291.18967 -72.18304 40.29499 318
-257.50848 -63.61969 35.95278 351
-271.81760 -66.21124 38.61780 345
-289.22583 -69.39906 40.91571 318
-259.30707 -61.69281 35.53005 350
-273.76038 -64.26437 38.16948 347
-289.83096 -67.00035 40.86166 341
-261.49042 -59.77866 35.10313 326
-275.78030 -62.23246 37.75622 346
-291.71591 -64.95086 40.51544 341
-267.15948 -58.52699 33.63298 320
-281.23370 -60.85627 36.47731 323
-196.94136 -10.84629 53.38190 324
-197.00114 -9.04919 53.34542 324
-196.99208 -7.25965 53.37193 324
-196.97504 -5.48072 53.34194 324
-196.92200 -3.63846 53.39030 324
-18747.26758 -268.85156 747.75702 452
-196.87437 -1.85067 53.33201 324
-18688.39258 -156.39079 745.97864 462
-18644.22852 -154.21452 1050.28223 453
-196.89429 -0.09548 53.31775 324
-18635.73438 -40.69994 744.30859 463
