# .PCD v.7 - Point Cloud Data file format
VERSION .7
FIELDS x y z rgb
SIZE 4 4 4 4
TYPE F F F U
COUNT 1 1 1 1
WIDTH 1027
HEIGHT 1
VIEWPOINT 7036.386719 -1949.899170 142.936081 -0.641105 -0.104984 -0.102550 0.753291
POINTS 1027
DATA ascii
-17521.08789 1143.76599 714.24908 452
-17386.57617 1132.72522 998.99713 471
-17454.44727 1246.83875 711.76270 456
-17329.20898 1239.30005 997.75085 472
-17392.31055 1351.03235 711.07330 462
-17270.74219 1341.60217 994.30823 474
-17341.41406 1454.46228 711.08484 463
-17213.27930 1445.25891 992.76074 474
-17282.66992 1558.15967 707.13672 463
-17159.91602 1543.47046 987.56146 475
-17230.73828 1661.40942 709.82355 464
-17107.79688 1649.29175 988.92987 476
-17176.74414 1762.27197 704.29926 464
-17051.35547 1747.34131 983.78607 476
-17121.46680 1863.29919 706.57837 465
-16998.12500 1848.40393 983.94727 477
-17064.65234 1961.88293 704.77734 465
-16945.31250 1948.07751 979.75543 477
-17012.66406 2065.20947 701.87158 466
-16893.87305 2048.18213 980.45801 478
-16959.75781 2164.48071 700.21863 466
-16841.76367 2150.27979 977.34912 479
-16908.18164 2261.87280 699.01361 467
-16787.70898 2244.58130 972.09717 479
-16854.63477 2362.16431 698.99469 467
-16734.26758 2344.73730 974.80267 480
-16798.86328 2459.67139 694.74731 468
-16681.22461 2441.75220 970.23022 480
-16746.17773 2559.30664 698.12354 468
-16630.16797 2540.67773 968.45459 481
-275.91611 58.14292 33.16666 319
-16695.22266 2653.19751 695.89105 469
-16580.23633 2638.84863 969.52075 481
-269.59232 59.42965 34.80576 320
-284.00735 61.79312 37.51343 323
-16642.73047 2753.57983 691.18439 469
-16529.16602 2733.94580 966.54779 482
-264.89563 60.91842 35.96133 350
-279.39716 63.34782 38.60372 347
-295.54312 66.17181 41.21619 341
-16592.78320 2849.33667 690.14789 470
-16476.79883 2830.37378 961.81750 482
-262.94946 62.83139 36.42448 351
-277.31409 65.33192 39.01392 345
-293.55933 68.27667 41.61075 340
-16538.62891 2946.82202 690.54236 470
-16423.83789 2922.94458 961.98615 483
-260.99084 64.67995 36.79984 351
-275.55771 67.44178 39.28940 345
-295.08350 70.98586 41.06284 318
-16488.40430 3040.38379 691.51532 471
-16374.83496 3019.05444 960.62006 483
-259.05862 66.63548 37.18675 351
-275.39795 69.73867 39.26715 321
-16435.10352 3135.24585 688.64099 471
-16323.85742 3114.59204 959.18518 483
-257.36343 68.47437 37.54524 325
-277.20068 72.42915 38.66466 318
-16384.11523 3229.71924 686.51807 472
-16274.55859 3210.22705 956.57208 484
-259.03711 71.07032 36.94252 322
-16335.54102 3328.91992 686.94122 472
-16224.29785 3302.73511 954.38208 484
-261.01605 73.76057 36.28733 321
-16283.83105 3422.16602 685.47375 472
-16173.05469 3396.09717 954.50183 485
-262.96982 76.35585 35.58376 321
-16232.47168 3516.02197 684.73450 473
-16121.83008 3492.79932 955.23859 485
-16181.67676 3609.28809 686.41302 473
-16072.79004 3584.78174 952.00092 482
-16133.88379 3702.25806 681.65021 474
-16021.34863 3679.02686 952.29480 483
-16080.47461 3794.02539 681.75073 474
-15973.12207 3770.56445 949.92163 483
-16033.63281 3888.10718 679.31555 474
-15920.93262 3862.47778 948.51794 484
-15983.01465 3980.23657 678.49438 475
-15873.10547 3955.39331 947.58417 484
-15933.02246 4073.96094 677.77582 475
-15823.90430 4044.97852 946.18219 484
-15882.19434 4165.50732 681.07684 475
-15774.98047 4137.14209 942.20276 485
-16491.63086 4325.80029 1263.16797 478
-15833.75781 4259.23291 678.19708 476
-15726.23633 4229.82227 941.97302 485
-16421.80664 4413.42480 1258.94641 479
-16465.46289 4424.44482 1541.69373 404
-15786.18262 4350.54102 677.46118 476
-15681.13086 4319.22217 941.21216 485
-16349.63379 4504.48975 1255.96375 479
-16388.08984 4514.52637 1538.22034 404
-15734.58789 4440.91455 678.83368 476
-15631.28613 4410.44775 941.62738 486
-16282.55273 4591.07959 1254.06458 480
-16315.59180 4602.13818 1538.21472 405
-15684.62305 4528.24316 678.02930 477
-15582.51270 4499.07812 940.10419 486
-16209.88086 4678.78174 1251.53894 481
-16241.72461 4687.47266 1532.89844 405
-15637.16406 4621.64258 674.72675 477
-15533.41602 4589.03467 936.75098 486
-16139.14453 4768.84668 1247.37952 481
-16166.90430 4778.59961 1526.45129 406
-15587.14062 4711.16895 674.91840 477
-15484.33691 4678.78418 937.05597 487
-16068.90137 4857.06689 1243.96191 482
-16096.69727 4866.32617 1522.38708 406
-15538.82715 4801.86328 673.20410 478
-15435.92285 4772.06299 934.47412 487
-16002.68652 4941.38770 1241.28369 482
-16022.84473 4951.43213 1519.98694 407
-15490.79102 4893.44727 672.94409 478
-15390.65234 4861.15186 937.25525 487
-15931.43457 5028.07031 1238.50305 483
-15949.99805 5035.82129 1519.53992 407
-15440.56152 4982.74561 672.88782 478
-15342.22070 4947.04736 934.30048 487
-15878.62109 5122.69678 1238.56506 495
-15894.30664 5127.55371 1516.94910 415
-15395.15332 5069.62256 673.46771 478
-15293.19238 5036.11670 934.43671 488
-15828.54297 5213.30420 1235.11475 495
-15839.79297 5218.97119 1511.69812 415
-15345.34961 5161.19189 669.89111 479
-15245.77148 5128.99023 932.28210 488
-15777.25977 5303.77295 1235.13574 495
-15787.62793 5307.86475 1511.43164 416
-15299.31055 5250.14941 671.69257 477
-15198.49414 5217.78271 932.47412 488
-15723.11816 5396.83008 1236.15723 457
-15736.68555 5398.96387 1507.99524 416
-15252.81738 5337.55469 669.77765 478
-15149.97168 5304.17676 929.66919 488
-15626.14746 5470.98730 1231.36304 458
-15685.37793 5488.05615 1508.41760 416
-15203.11035 5429.03662 672.26276 478
-15105.93457 5393.25244 929.23596 489
-15529.26367 5545.08203 1224.54602 459
-15628.99316 5579.06592 1505.97571 416
-15154.49902 5518.44873 670.21417 478
-15057.41016 5478.78857 929.15942 489
-15436.59570 5618.27686 1218.89233 460
-15579.78613 5668.16357 1503.02014 416
-15104.74023 5604.11133 667.83746 478
-15008.57910 5569.74268 930.69574 489
-15340.67188 5691.47656 1217.66077 461
-15528.17773 5759.46533 1501.44958 417
-15061.07715 5691.63330 668.40326 478
-14961.12891 5657.84814 928.87817 489
-15247.16016 5761.89209 1211.70215 461
-15471.95605 5849.46289 1503.71472 417
-15012.96973 5782.65381 666.32471 479
-14913.79590 5743.48877 926.20728 489
-15177.75195 5846.03809 1212.44153 497
-15421.78516 5939.88477 1502.73572 417
-14964.89453 5868.39111 666.97797 479
-14867.10547 5830.91748 928.69379 490
-15127.68262 5934.51221 1209.45776 497
-15368.57617 6025.15332 1501.06055 417
-15528.26172 6088.79785 1789.47363 417
-15563.49023 6103.93701 2071.79688 367
-14917.59863 5955.26660 667.49304 479
-14821.38281 5917.84717 927.53937 490
-15079.20605 6020.78223 1210.50659 497
-15319.49316 6116.37012 1500.04382 417
-15496.96387 6186.15625 1788.99451 450
-15500.78809 6186.24902 2070.48462 319
-14870.49609 6046.19287 666.02966 479
-14772.37598 6006.01123 928.25653 490
-15028.94434 6111.97510 1209.02844 498
-15267.37598 6203.87646 1498.07031 439
-15252.88477 6197.63867 1769.98047 439
-2780.43799 1181.17786 133.83505 399
-14821.88965 6130.86035 668.14337 479
-14728.78125 6094.50391 927.91266 490
-14982.60645 6200.09375 1208.26355 498
-15147.81543 6268.55420 1489.94702 440
-15134.88574 6259.83643 1760.49524 440
-2769.83057 1197.59180 133.93381 484
-14775.45801 6220.29932 668.08063 479
-14678.70996 6181.91943 924.60254 490
-14934.56738 6285.22266 1207.09607 498
-15031.03516 6329.08789 1485.24609 441
-15020.94043 6321.12549 1750.17334 441
-14725.37402 6306.35791 664.13837 480
-14635.71289 6268.78955 923.38605 490
-14881.56934 6375.04834 1204.46924 498
-14916.98926 6388.04248 1478.29663 498
-14906.83398 6381.46533 1743.30701 498
-14679.97363 6392.60596 667.80695 480
-14586.14453 6353.97607 923.78955 491
-14833.33789 6459.67871 1203.38965 498
-14867.78320 6474.90430 1474.35522 498
-14860.07129 6473.89062 1741.87634 498
-15099.96094 6574.14160 2042.06140 453
-14634.55371 6482.44629 664.79913 480
-14541.31445 6440.20264 925.93024 491
-14787.63477 6551.31006 1203.02502 498
-14790.50586 6553.64111 1474.25525 498
-14779.34668 6545.88232 1739.16235 498
-15045.68750 6664.30322 2039.95398 453
-14973.26465 6631.90527 2306.06177 298
-14961.57324 6623.55859 2578.44458 483
-14953.21191 6620.14014 2853.80444 483
-14584.47656 6569.60254 664.38190 480
-14491.74902 6527.59912 924.87518 491
-14505.31250 6531.60449 1185.45947 388
-14744.49316 6640.21973 1470.21643 498
-14730.54980 6634.55469 1737.57227 498
-14996.39551 6753.91895 2040.71753 453
-15074.87598 6786.25977 2327.85669 485
-14538.98242 6656.02393 664.06134 480
-14448.67383 6616.77881 923.35352 491
-14455.67285 6617.54688 1188.10547 388
-14692.94434 6726.09912 1470.51489 499
-14681.73438 6722.67773 1736.35132 498
-14944.88379 6840.42725 2041.62891 453
-15022.14160 6876.40771 2325.20923 485
-14490.77832 6744.40918 665.81915 480
-14400.43066 6702.46045 922.81073 491
-14407.97559 6704.20215 1184.90369 388
-14647.61719 6813.50537 1470.23120 499
-14635.32227 6810.54102 1737.23352 498
-14895.51172 6928.65576 2036.70190 454
-14975.44043 6963.95410 2323.67871 485
-14445.91309 6831.64844 666.32086 480
-14354.43652 6789.52783 920.75439 491
-14362.90625 6788.67529 1184.33533 388
-14595.14355 6902.67236 1467.83936 499
-14586.51855 6894.28125 1736.58594 499
-14845.93848 7019.29688 2035.96814 454
-14922.12793 7053.22998 2323.06274 485
-14396.26270 6915.69385 665.03217 480
-14307.27344 6873.71631 921.98102 491
-14311.09766 6877.16846 1185.27515 439
-14547.16895 6990.61768 1467.37634 499
-14537.85742 6984.51416 1736.92322 499
-14796.67969 7108.17236 2038.99829 471
-14349.34668 7004.37598 663.13409 480
-14263.27930 6959.35449 924.36682 491
-14264.64160 6963.45410 1186.06738 439
-14502.13770 7077.62402 1469.56384 499
-14487.86133 7071.48486 1736.33289 499
-14742.44531 7192.54053 2034.41931 471
-14303.10059 7090.16846 663.48151 480
-14212.75488 7044.22607 922.88470 491
-14218.30957 7046.13525 1183.63599 439
-14478.53027 7175.83350 1471.29736 499
-14467.15723 7168.81055 1737.56653 499
-14692.32715 7279.72119 2036.88098 473
-14254.63379 7177.45703 665.08435 480
-14166.58398 7132.56152 923.19366 491
-14169.31445 7133.06250 1184.00403 439
-14428.28809 7261.62207 1471.49597 499
-14418.62109 7259.01904 1737.54541 499
-14641.44531 7370.88770 2035.49414 469
-14210.47461 7264.23340 665.95599 480
-14121.32227 7216.62842 921.39130 491
-14123.41602 7217.73486 1182.53613 439
-14380.98730 7348.00928 1469.17151 499
-14373.90918 7344.86328 1736.45142 499
-14594.60938 7458.98584 2035.68042 469
-14164.05469 7351.48682 664.33789 481
-14074.83984 7305.53516 923.60425 491
-14078.33008 7304.39258 1185.79907 439
-14236.53027 7388.91162 1459.33813 300
-14323.18359 7433.35938 1736.48816 499
-14542.30078 7545.94629 2034.33057 469
-14116.14160 7437.41455 664.10980 481
-14030.29883 7392.60254 923.91058 491
-14031.57617 7392.04248 1185.38623 439
-14283.44336 7525.47510 1467.82361 499
-14274.95801 7519.55518 1733.86536 499
-14494.40039 7632.15918 2033.73059 469
-14070.13574 7520.86230 664.95801 481
-13983.32324 7479.31445 924.06512 491
-13981.74609 7477.07080 1184.85901 430
-14236.23926 7612.13330 1470.23706 499
-14226.77246 7604.27100 1737.60925 499
-14339.74121 7669.06152 2018.03210 392
-14020.62695 7609.18799 661.91748 481
-13936.74609 7564.36963 921.54248 491
-13935.19043 7563.98193 1184.85034 430
-14199.28711 7706.55225 1469.31165 463
-14188.88770 7698.50830 1738.60352 463
-14404.41211 7815.64844 2034.61414 452
-13973.55273 7693.68994 665.95184 481
-13889.88184 7648.83984 921.01483 491
-13891.17480 7651.16797 1185.41272 430
-14207.73535 7821.98730 1474.23730 462
-14198.17871 7817.90625 1741.35559 462
-14383.33008 7916.56396 2034.93005 452
-13928.39551 7783.42188 661.78339 481
-13842.95410 7735.03516 919.83313 491
-13845.60156 7738.12744 1185.29553 430
-14204.66113 7934.94043 1478.93469 479
-14204.41699 7935.32812 1750.90259 461
-14362.52246 8020.58545 2040.07849 451
-13881.68164 7871.45996 661.94427 481
-13795.00781 7823.38770 922.08087 491
-13797.80664 7822.55371 1185.78955 430
-14189.97949 8042.20898 1480.57263 479
-14210.63086 8053.17578 1753.28479 460
-13834.62988 7953.43359 663.73639 481
-13747.74316 7909.53516 921.90424 491
-13752.56152 7906.97217 1182.97290 430
-14168.72852 8147.02881 1483.85449 478
-14208.87500 8172.39795 1760.13501 477
-13784.88477 8039.94336 661.92688 480
-13702.48145 7995.89648 924.10950 491
-13707.18262 7993.51074 1185.23413 430
-14153.32715 8251.49121 1488.44336 478
-13737.79492 8128.89990 665.65228 480
-13658.66797 8078.30518 923.79736 491
-13658.60547 8082.19678 1182.65710 430
-13693.67090 8215.25684 663.84802 480
-13609.58008 8163.81201 920.91803 491
-13612.86133 8166.77930 1182.38525 430
-13645.02051 8299.92676 665.49866 480
-13561.41699 8254.10645 922.54614 491
-13566.28223 8255.26855 1183.29919 430
-13596.98926 8389.38574 665.11810 480
-13516.58594 8339.39355 922.25043 491
-13520.10938 8341.85547 1184.95642 430
-13549.83008 8475.77637 663.83112 480
-13470.97461 8425.83008 925.27917 491
-13475.46875 8428.94434 1185.20288 430
-13501.88184 8563.97754 664.11267 480
-13425.12305 8512.08105 923.97754 491
-13425.26270 8515.86914 1184.67505 430
-13457.68457 8648.82910 667.38684 480
-13379.26953 8596.12402 922.58118 491
-13381.22852 8601.35742 1186.79163 430
-13408.73438 8735.12012 666.74457 480
-13330.08691 8683.64941 925.35413 491
-13335.36230 8687.05078 1185.69348 430
-13363.43750 8820.96777 663.53009 480
-13282.83008 8771.47168 926.00818 491
-13287.03418 8772.08594 1189.57593 430
-13316.05762 8908.80859 665.05084 480
-13237.11523 8856.88379 926.15009 490
-13241.93164 8860.26270 1188.73413 430
-13266.62012 8995.61133 665.60992 480
-13191.01855 8946.55957 925.14709 490
-13194.30469 8948.59180 1191.07092 430
-13219.39941 9082.43750 664.19861 479
-13141.71387 9030.30371 927.70148 490
-13144.32227 9036.41406 1187.13647 429
-13170.22461 9173.53320 668.92206 479
-13095.51562 9120.07129 927.51422 490
-13099.95312 9119.52637 1191.23767 429
-13122.14355 9260.86914 666.34930 479
-13049.62988 9205.06543 925.35352 490
-13050.82520 9210.15430 1189.31311 429
-13076.42676 9347.38965 669.67365 479
-13002.31152 9295.42480 926.59583 490
-13004.50488 9296.19727 1192.79089 429
-13028.70898 9432.73242 665.57477 479
-12951.75684 9382.26270 926.23120 489
-12957.53223 9381.27148 1190.19360 429
-12980.28809 9520.80957 668.97601 479
-12903.57227 9469.48828 929.49493 489
-12908.36133 9471.04492 1195.06689 429
-12933.62793 9612.08789 667.83209 478
-12859.22754 9554.27832 928.79681 489
-12862.72363 9559.97168 1192.90540 429
-12885.74316 9698.63281 667.40704 478
-12811.11523 9641.89355 932.26978 489
-12814.13184 9643.90625 1196.03308 429
-12834.42676 9788.92285 669.10724 478
-12763.30469 9730.43262 929.66174 489
-12763.91797 9734.93945 1195.29443 428
-34718.88672 26348.82812 3730.03442 1000
-12788.55859 9873.94336 670.08167 478
-12715.13672 9817.90234 930.16980 488
-12716.03613 9823.44238 1196.26306 428
-12737.85938 9964.13379 671.95490 478
-12667.83496 9906.42188 933.78027 488
-12671.50195 9911.02832 1199.26074 428
-12688.89355 10054.79980 673.06647 477
-12617.95410 9994.00391 932.78870 488
-12620.09082 9997.43555 1200.77441 428
-12643.38965 10142.26562 671.63086 477
-12572.83789 10085.09473 935.73688 488
-12573.93262 10085.99121 1201.25464 438
-12592.94238 10233.15723 670.62695 477
-12523.53516 10173.30176 932.80731 487
-12526.95020 10177.13867 1201.99146 398
-12545.19531 10321.87695 672.96710 477
-12476.41211 10262.76562 934.93042 487
-12483.32812 10269.18262 1202.67456 398
-12496.93652 10411.94043 672.55640 476
-12427.00586 10353.67773 936.02679 487
-12437.80664 10361.05078 1205.03247 397
-12448.89746 10501.92285 674.91632 476
-12377.70215 10439.65820 938.93475 487
-12393.17285 10454.61328 1206.06799 397
-12397.54492 10590.66797 673.28607 476
-12328.21094 10531.31250 938.22388 486
-12349.90625 10679.01270 677.51953 475
-12278.49707 10621.74609 937.90826 486
-12301.87891 10770.90918 674.27899 465
-12229.63867 10708.39258 942.65808 486
-12261.91797 10871.59277 679.69122 464
-12183.64941 10801.41406 943.69867 485
-12222.44336 10970.90137 677.64563 466
-12131.50488 10892.17285 941.80176 485
-12181.79883 11074.03223 679.98633 466
-12090.93555 10986.96582 943.82758 466
-12145.00293 11175.80273 679.41229 465
-12052.13867 11089.50195 947.35150 465
-12108.34668 11277.11426 685.03809 465
-12013.96387 11193.36426 950.85809 465
-12066.55176 11381.88867 683.97198 464
-11972.26074 11296.43359 951.29962 464
-11958.44238 11280.12891 1219.96484 324
-12028.03711 11484.89062 687.19873 464
-11937.33203 11396.24219 953.98969 464
-11904.30371 11369.56543 1224.06750 484
-12004.99121 11604.16797 688.94934 423
-11898.56152 11504.04004 953.26984 463
-11990.53613 11734.32812 688.79614 401
-11856.14258 11606.02246 959.49371 463
-11980.27344 11867.91699 693.48950 400
-11817.78613 11709.63672 960.19281 463
-11969.91211 12006.21484 698.28369 399
-11792.77930 11832.44727 963.40295 423
-11960.21973 12142.51074 697.31982 398
-11774.53711 11957.57324 966.81873 422
-11972.84473 12307.88281 705.36841 304
-11757.68555 12084.92871 969.62640 421
-11738.16797 12216.73340 973.86316 420
-11718.78027 12351.93945 977.83563 398
-11723.63281 12505.28418 985.19226 372
-11733.63477 12670.06055 991.96045 371
-11741.29004 12833.62109 998.84961 370
-1259.64807 2160.48218 133.14883 306
-1222.87927 2131.26074 132.76273 357
-1271.29517 2209.00439 175.16905 380
-1254.34375 2211.54102 90.44577 284
-1194.40613 2113.60791 132.95695 358
-1267.37146 2233.72192 175.51328 362
-1197.42542 2148.33179 92.16988 340
-1169.55054 2101.62500 133.07335 375
-1259.03015 2250.57837 176.37524 399
-1149.81885 2098.88574 92.78439 273
-1145.81482 2091.46362 132.60640 376
-1119.14429 2075.89673 93.34686 336
-1123.63989 2083.30054 133.08687 344
-1093.91675 2062.44775 94.18466 350
-1103.52612 2078.15015 132.62080 351
-1070.58447 2050.49414 94.38588 398
-1083.58582 2073.48120 133.11772 351
-1048.09583 2040.27478 94.38350 399
-1066.21021 2071.64795 133.01518 297
-1027.68298 2032.97388 95.17148 414
-1151.80518 2256.88062 133.00555 476
-1007.42535 2025.85461 95.08538 416
-1135.43469 2260.20557 132.96600 467
-988.07672 2018.86987 95.47614 426
-1040.62231 2117.41675 132.93233 437
-969.20941 2013.96094 95.61974 430
-1021.73071 2112.87524 132.68648 438
-1020.91412 2112.37891 172.20872 438
-950.54248 2008.81226 95.97562 431
-1002.72577 2108.81567 133.15865 439
-1006.98737 2117.30225 171.70016 379
-932.81049 2004.49695 96.05312 438
-984.14441 2104.52222 132.73213 440
-1001.97992 2138.96265 172.31767 378
-915.02606 2000.24011 96.16402 439
-975.80450 2121.12573 132.56346 410
-985.46857 2139.57568 171.90869 327
-897.62646 1996.53918 96.61440 440
-970.60443 2142.94360 133.17029 409
-991.41223 2183.71509 172.67325 376
-880.34442 1992.84473 96.34148 441
-931.12500 2096.13184 133.15146 443
-985.79712 2206.65820 173.30807 375
-880.80988 2024.36035 59.16513 430
-863.71667 1989.03369 96.67297 442
-913.27850 2091.64966 133.08572 444
-863.24316 2020.58228 59.62498 430
-846.43549 1984.77771 96.90665 443
-892.38617 2081.14600 132.73166 444
-846.07129 2016.12854 60.22478 411
-829.62244 1981.11768 96.84661 444
-878.91974 2085.85352 132.82707 404
-828.99292 2011.28137 60.35163 412
-813.10132 1977.06433 97.44566 445
-873.63983 2107.66357 133.11505 403
-810.07111 2003.14075 61.02414 310
-796.77765 1973.52148 97.16531 446
-871.51636 2137.41675 132.74011 479
-870.15948 2134.70581 171.37340 447
-862.86176 2118.91553 247.18762 340
-792.60101 1996.37378 61.25290 310
-780.71887 1969.97131 97.36156 425
-863.74841 2156.49609 132.52902 448
-848.80078 2122.23730 247.06772 346
-774.39264 1989.17773 61.80724 310
-764.68335 1966.75708 97.33141 426
-788.92126 2022.25757 133.06436 449
-825.95874 2106.23755 283.35742 280
-756.94800 1982.48157 61.97730 311
-748.75452 1963.23035 97.68525 426
-774.67078 2022.54761 132.45982 393
-775.67072 2025.10254 168.63467 296
-739.84680 1976.18127 62.22742 311
-733.14270 1960.38074 98.10007 427
-764.13770 2033.09863 132.82082 457
-769.25641 2044.93054 168.96507 296
-722.98529 1969.48291 63.11499 311
-717.41400 1956.83850 97.86237 428
-764.42096 2070.08936 132.58519 396
-761.02783 2061.81787 169.44704 253
-705.95483 1963.03894 63.15660 312
-702.02704 1953.69385 98.15333 429
-758.99420 2092.90063 132.62207 395
-755.55859 2083.63745 169.59772 377
-688.99963 1956.29834 63.92455 312
-686.92719 1950.48071 98.02643 429
-753.89441 2116.53809 132.68034 394
-749.79266 2106.65088 169.60938 376
-672.92621 1951.63538 64.12991 399
-671.36328 1946.87329 98.42593 430
-748.33423 2140.37378 132.83032 392
-744.25372 2130.78735 169.95352 375
-657.89624 1947.33252 64.54839 400
-656.56262 1943.77014 98.41835 431
-742.47870 2164.31763 132.56001 397
-689.72906 2030.47876 168.45831 466
-688.92352 2027.57703 203.74036 471
-688.69922 2026.42395 239.57033 455
-642.11145 1942.40283 64.68536 400
-641.42377 1941.03491 98.62248 431
-736.14172 2188.26538 133.04169 396
-732.59668 2179.03857 170.80408 373
-682.73596 2049.00317 240.59955 456
-680.62152 2042.74683 276.25314 475
-626.72015 1938.36121 64.69403 401
-626.48932 1937.67847 98.77012 432
-611.84192 1934.08203 65.09972 402
-611.96765 1934.79553 99.11356 433
-596.80231 1930.17798 65.79266 402
-597.36963 1931.86523 98.85996 434
-664.95642 2118.68530 243.14172 417
-581.72888 1925.90955 65.92438 403
-582.85504 1928.69165 99.24238 434
-663.28357 2154.98950 169.83781 460
-653.31860 2127.85669 243.87918 352
-656.02997 2135.81665 318.26877 459
-567.08142 1921.63110 65.97965 404
-568.48425 1925.82617 99.58053 435
-552.78992 1917.49219 66.39902 404
-554.01422 1922.69116 99.22219 436
-537.91003 1913.49390 66.41108 405
-539.97168 1919.69983 99.58669 436
-523.55231 1909.30652 66.85549 406
-526.33301 1917.00574 99.59682 375
-509.24188 1905.48743 66.91283 406
-512.09393 1914.70190 99.70205 375
-495.59894 1902.26465 67.64296 462
-498.66583 1912.23596 99.85019 375
-482.55527 1901.48401 67.49886 490
-485.02771 1910.23303 99.98548 406
-470.19354 1902.69702 67.47776 438
-473.45206 1914.07507 99.63315 406
-457.49692 1903.80408 67.83139 438
-462.51743 1921.14771 99.87045 328
-445.61063 1905.64636 67.97449 439
-486.40991 2048.97803 97.67653 464
-485.98972 2047.93164 132.55933 464
-433.24469 1906.97400 67.99176 349
-488.56512 2106.73950 96.66386 267
-421.95004 1911.71606 67.74601 349
-476.23035 2110.29248 96.56396 267
-469.52069 2137.60645 59.91245 362
-465.52887 2123.63696 96.78568 363
-459.62546 2154.71338 59.85483 319
-455.89438 2140.93311 96.13261 445
-443.63559 2148.36694 59.90300 319
-441.43655 2137.77759 96.35097 446
-429.40222 2145.54517 60.46232 349
-427.28363 2136.69922 96.48458 470
-416.58981 2151.30908 60.42698 349
-413.62100 2138.20532 96.50546 470
-399.85828 2141.38574 96.31417 396
-387.50336 2146.87427 96.82763 348
9.21677 854.55499 19.02705 382
8.91895 858.32159 32.85733 381
14.93006 850.45764 19.77484 481
14.71589 852.83960 33.67899 441
14.47207 855.31635 47.49342 441
14.15871 858.50476 61.47249 382
20.48354 849.17657 19.87218 499
20.44798 850.74316 33.89332 481
20.23121 852.64105 47.82822 481
19.90327 854.34015 61.79403 481
19.85143 856.35669 75.83015 477
19.43426 861.00287 89.77859 423
19.19099 863.69293 103.95061 303
25.70920 849.21429 19.94691 499
25.59069 850.82690 34.06737 499
25.47455 852.17389 48.09377 499
25.40133 853.74170 61.97247 499
25.22497 855.39355 76.00649 499
25.08719 856.82300 89.95305 499
25.05305 858.17371 104.10676 498
30.85405 850.95184 19.77376 492
30.77574 852.43201 33.90474 492
30.84595 853.90393 47.84856 461
30.67377 855.40210 61.76363 461
30.56581 856.88623 75.88111 465
30.40152 858.29773 89.93262 463
30.23141 859.71021 103.93288 463
35.86924 854.42743 19.33469 460
35.85379 856.55365 33.37441 409
35.67956 858.59033 47.43733 409
35.67652 860.59296 61.42049 409
35.22853 864.81274 75.32931 322
40.70889 863.26465 18.32938 341
9.03081 40966.37500 8287.16797 1000
6368.15820 57681.55469 138.59138 1000
21127.32031 25770.02930 -6479.81299 1000
14838.06641 10577.06836 -1057.28235 1000
38253.83984 25977.16211 5441.49121 1000
50754.09766 28868.37500 1083.01611 1000
47812.71484 25289.37500 -7882.42773 1000
2927.73340 1306.65112 -20.98857 450
2942.29517 1292.47241 -21.30910 453
2957.76416 1277.60278 -22.12774 452
2973.04395 1264.06628 -22.93699 452
3192.93506 1359.82556 20.79115 434
3019.98999 1262.52905 -76.81801 292
2989.39624 1250.26538 -22.73429 454
3187.76831 1335.69055 21.40854 435
3027.38647 1244.77234 -77.33499 424
3006.45947 1236.53821 -23.24641 452
3182.32373 1311.06982 22.11228 436
3045.15771 1231.15967 -77.95224 418
3023.29346 1222.40210 -23.97899 459
3177.44995 1286.81177 22.74806 436
3064.61572 1218.42749 -78.39147 407
3040.99390 1208.17395 -24.27939 454
3173.00562 1262.12891 23.36180 437
3085.87842 1205.30737 -79.49494 401
3058.96777 1194.70068 -24.83119 453
3168.30127 1238.31921 23.06703 438
3108.23755 1192.37769 -80.91502 401
3079.04419 1181.15881 -25.97879 445
3162.82471 1214.39893 24.17824 439
3130.67114 1179.77161 -81.60819 398
3101.03198 1169.03564 -26.78353 439
3158.16113 1191.05200 24.13248 439
3155.56006 1168.34326 -83.24844 389
3124.12158 1156.44226 -27.61233 437
3155.24780 1168.63647 24.66908 479
3183.22900 1156.87146 -84.40114 369
3147.81543 1143.75195 -28.03390 427
3166.16650 1151.42395 24.41016 485
3216.54736 1147.72241 -86.14103 365
3175.04004 1132.39905 -29.32019 417
3188.65137 1138.08154 24.00081 413
3205.84790 1122.64868 -30.51354 388
3222.78271 1128.60449 22.63224 381
3244.55835 1114.07288 -32.80938 378
3283.64062 1106.12488 -34.47430 376
3324.73413 1098.77295 -35.80368 375
3365.44946 1090.58948 -37.23509 374
3407.41748 1082.04541 -39.60077 372
3445.36304 1071.31165 -41.14548 371
3489.60254 1061.89795 -42.80373 334
3541.45630 1055.50635 -45.68604 361
3587.70386 1046.18396 -47.10099 343
1864.64038 357.41110 -46.16191 398
1859.00684 344.93585 -45.40971 488
1863.45752 345.77417 -15.82346 487
1868.15637 346.49576 13.40946 486
1862.25195 333.96948 -45.10611 486
1867.80798 335.32999 -15.88063 449
25179.85547 2842.86084 5580.72363 1000
2893.81616 -164.77225 -98.69615 417
2886.98633 -182.05515 -98.10325 495
2897.83203 -182.75272 -52.19110 438
21809.77148 -2625.30444 -2388.27832 1000
3901.37305 -460.48215 -57.27470 364
23798.82617 -3013.60205 -2225.72705 1000
3854.19189 -478.35532 -55.09260 366
3837.31177 -498.66144 -54.05109 477
3896.07349 -531.18073 -120.26701 403
3825.95923 -520.61017 -53.39138 479
3874.47070 -551.78735 -119.01402 432
3814.05200 -542.44586 -52.96560 483
3856.55664 -572.93469 -117.77958 437
3804.19824 -564.45471 -52.97081 464
3814.80420 -589.13580 -115.63687 298
3794.87720 -586.71442 -52.74765 429
3794.27246 -609.50757 -114.22708 365
3788.12329 -608.63385 -52.12437 434
3779.01880 -629.81085 -113.21917 371
3780.46118 -630.81781 -52.70612 400
3764.77051 -651.52313 -113.29332 430
3773.40527 -652.21887 -52.06498 407
3753.22461 -672.13434 -112.33236 433
3767.14575 -675.35474 -51.66345 411
3742.34839 -693.79315 -111.94112 473
3761.82715 -697.41284 -51.48123 356
3857.01440 -715.80902 68.47866 289
3733.30908 -715.00092 -111.20818 473
3758.03271 -720.29297 -51.67045 356
3779.00366 -724.43048 70.52307 290
3724.12061 -736.40155 -111.59319 476
3771.03345 -745.51227 -53.27470 492
3850.54736 -761.50769 6.55329 326
3755.32300 -742.55182 70.60420 468
3716.88916 -758.43365 -110.90714 496
3760.68970 -767.58478 -52.36241 493
3778.64893 -771.29901 8.36277 446
3750.50977 -765.48755 70.02391 423
3709.41089 -780.23712 -110.98690 497
3750.22827 -788.25256 -52.76954 493
3750.61377 -788.50519 8.72858 499
3747.10474 -787.49463 70.24975 423
3703.43970 -801.46558 -110.35723 497
3745.32983 -811.10364 -51.90611 499
3748.24463 -811.06360 8.66085 499
3743.05151 -810.63312 70.10849 423
3696.74951 -823.64923 -110.27800 498
3741.21680 -833.58765 -52.61513 499
3744.12329 -834.46234 8.89672 499
3738.60986 -832.92218 70.05714 423
3690.94434 -845.70178 -110.99324 498
3737.04956 -856.25775 -52.83746 499
3739.88721 -857.21167 8.56886 499
3735.16724 -855.47235 70.67428 423
3685.29785 -867.09491 -111.19112 498
3726.11182 -877.35040 -52.52718 499
3729.09863 -877.47906 8.67516 499
3730.62476 -878.80920 70.15150 423
3747.21899 -882.11627 131.68274 475
3750.84961 -882.73779 193.68645 485
3680.35913 -889.35577 -110.67831 498
3722.32568 -900.14679 -52.06833 499
3726.81030 -900.59784 8.97873 499
3726.48145 -901.21906 70.61318 422
3676.27979 -911.36353 -111.08063 497
3718.59009 -922.22821 -52.33776 499
3722.69629 -923.23590 8.97648 499
3722.36255 -923.78748 70.65011 422
3671.41650 -934.13953 -110.88315 497
3713.82373 -944.65271 -52.54642 499
3717.22461 -946.56335 8.64235 490
3718.33228 -945.97754 70.21097 422
3667.47314 -956.56714 -111.08472 497
3709.72656 -968.12634 -52.40337 499
3718.76587 -970.22717 8.27148 499
3714.85889 -968.79926 70.52651 422
3663.77197 -978.54846 -110.68645 497
3705.35278 -990.38806 -52.74226 499
3714.67090 -992.72662 8.59321 499
3710.35889 -991.51263 69.98865 422
3658.98242 -1001.90228 -111.25649 497
3701.96387 -1013.21960 -52.74250 498
3710.62256 -1015.35712 8.59871 498
3706.36523 -1014.59113 69.85005 422
3655.78491 -1023.70294 -111.52456 497
3703.50586 -1037.50281 -53.46799 498
3706.26538 -1039.18347 8.27525 498
3702.65845 -1037.23804 70.30891 422
3814.13965 -1069.44226 131.89708 495
3650.97607 -1046.95300 -112.07014 496
3698.89380 -1060.44312 -52.98988 498
3701.83203 -1061.38733 8.89383 498
3698.14893 -1060.08997 70.16822 422
3786.67041 -1086.67224 131.43256 459
3647.18726 -1068.83911 -111.28532 496
3704.43726 -1086.81482 8.24915 369
3694.39893 -1082.94604 69.98635 422
3642.99023 -1091.47803 -112.01106 496
3778.13330 -1133.60388 131.40875 488
3639.02441 -1114.32288 -111.68785 496
3833.16333 -1175.69714 131.12448 473
3799.19678 -1164.82410 195.23891 265
3634.88208 -1137.32825 -112.70992 496
3806.84351 -1192.33411 131.50104 349
3630.62915 -1159.91089 -112.49052 495
3625.86792 -1182.56274 -112.59003 495
3622.27686 -1204.74854 -112.72449 495
3617.57007 -1227.87427 -113.49803 494
3614.20435 -1250.88855 -113.90504 494
3777.50439 -1308.36218 -60.35315 499
3780.43750 -1309.47375 3.33282 499
3610.23608 -1273.58447 -113.17262 494
3764.85547 -1329.86011 -60.21738 496
3605.25708 -1296.71692 -114.07191 494
3761.08008 -1354.18005 -61.07337 496
3601.68140 -1319.68396 -113.74917 493
3893.39722 -1429.70056 -68.27811 472
3597.27197 -1342.33496 -114.48784 493
3637.33618 -1357.37292 -55.15710 475
3592.95825 -1365.49414 -115.19998 493
3632.67725 -1380.99963 -54.77171 495
3588.61621 -1388.30981 -114.52232 493
3643.83740 -1410.35986 -56.19434 495
3584.56128 -1412.27405 -115.44769 441
3623.29199 -1428.15112 -55.00533 498
3630.23926 -1456.04578 -119.13416 494
3670.62769 -1472.42896 -58.98132 497
3681.43848 -1502.29602 -123.74419 460
3628.03784 -1480.27576 -56.19227 384
3856.91895 -1575.80371 -1.52754 424
3658.76904 -1519.13574 -58.96198 475
3620.67798 -1528.06152 5.55900 489
2331.07617 -1675.37195 -97.65160 402
2316.57227 -1685.42224 -97.17587 483
2324.14722 -1691.60364 -51.57393 444
1495.02673 -1705.00098 -85.32367 411
1489.13477 -1697.47437 -48.02398 340
1475.59314 -1703.01770 -84.04294 414
1467.91992 -1693.10718 -46.74400 416
1456.74402 -1700.75464 -82.75739 415
1448.78650 -1690.51294 -45.96193 417
1437.97290 -1698.20862 -81.59061 415
1429.99451 -1688.10596 -44.65456 418
1443.17566 -1704.93665 -10.43651 253
1418.76013 -1696.06958 -80.19260 414
1409.63074 -1684.34155 -43.10971 416
1427.05505 -1706.02808 -9.83215 428
1400.39709 -1694.02051 -78.88385 416
1389.96521 -1679.63513 -42.08741 307
1408.41931 -1704.22852 -9.18439 437
1382.38477 -1691.85120 -77.58260 417
1371.64880 -1677.70239 -40.77519 430
1401.19568 -1716.33496 -9.39069 403
1364.06885 -1689.60535 -76.09154 416
1353.14099 -1674.62329 -39.77898 363
1404.08740 -1741.70520 -10.87911 419
1346.61487 -1687.53894 -75.26356 407
1335.74536 -1672.91296 -38.68707 432
1401.63403 -1761.40442 -11.73219 418
1329.07532 -1685.72375 -74.13660 408
1318.51904 -1671.27747 -37.79113 433
1394.05725 -1774.09656 -12.07182 400
1312.03821 -1683.83911 -72.86890 409
1301.40942 -1669.25732 -36.79966 435
1409.99768 -1818.94324 -15.20681 415
1295.28027 -1682.21558 -71.65184 410
1284.44128 -1667.54700 -35.92826 436
1407.95496 -1839.84912 -16.47456 414
1278.21875 -1680.51807 -70.67282 411
1267.95398 -1666.15723 -35.35334 387
1403.47571 -1856.90247 -16.90100 422
1261.70776 -1678.93506 -69.53539 411
1251.60327 -1664.60486 -34.58141 438
1261.89844 -1678.64087 -2.14001 452
1245.35986 -1677.49524 -68.26651 412
1237.29053 -1665.59131 -33.59864 439
1387.85852 -1883.85278 -17.91119 411
1229.10352 -1675.80090 -67.65141 413
1221.02332 -1663.81665 -32.89200 440
1385.42041 -1905.42700 -19.02319 412
1212.82434 -1674.50842 -66.67562 414
1204.89343 -1662.42676 -31.86670 441
1378.30933 -1919.74280 -19.13993 480
1197.41138 -1673.12231 -65.62384 415
1189.34351 -1660.87683 -31.17648 442
1367.87524 -1930.75708 -19.69683 442
1181.34253 -1671.13342 -64.54305 416
1173.46460 -1659.07593 -30.30083 443
1177.73315 -1665.43445 2.03534 445
1165.33203 -1669.20654 -63.52644 410
1157.85718 -1657.04211 -29.44439 444
1162.72400 -1665.00000 2.26123 446
1149.70691 -1667.00732 -62.27280 406
1142.38806 -1655.72217 -28.96911 445
1147.62390 -1663.53650 2.84402 447
1134.50916 -1665.46497 -61.35132 407
1127.43140 -1654.25403 -27.75280 446
1132.05115 -1662.22327 3.43317 448
1119.32178 -1664.23267 -60.80140 408
1112.18103 -1652.66870 -27.09710 447
1117.16675 -1660.56006 4.24990 449
1104.15137 -1662.53503 -59.92687 409
1097.34265 -1650.71973 -26.29749 448
1102.40747 -1659.39941 4.82401 450
1089.49451 -1661.15088 -58.80531 411
1082.64880 -1649.64368 -25.95572 455
1087.61682 -1657.95117 5.58030 450
1074.98901 -1659.90710 -57.83628 416
1068.36279 -1649.62378 -25.30018 467
1072.73779 -1656.61499 5.75028 466
1060.85413 -1659.33984 -57.05026 421
1055.38293 -1650.28162 -24.43703 470
1059.65454 -1657.98132 6.30175 475
1047.39221 -1659.45251 -56.32244 429
1042.21289 -1651.29272 -24.36185 476
1046.80811 -1658.95679 6.66463 476
1025.70850 -1658.98120 -56.55472 429
1021.35077 -1651.29688 -23.98834 479
1025.82678 -1658.66211 6.79233 486
1013.44604 -1660.38159 -55.74626 431
1009.06915 -1653.46216 -23.76228 482
1016.67987 -1666.67529 6.24899 487
1000.44244 -1662.29553 -55.38007 430
997.28448 -1655.16248 -23.27518 486
1007.40924 -1674.18616 6.37045 487
988.74658 -1664.03430 -54.79017 433
984.97748 -1657.82239 -23.12868 486
1002.15430 -1688.84448 5.45421 383
1014.34863 -1711.51587 35.65228 380
976.69257 -1666.08936 -54.44234 433
973.12421 -1659.93372 -22.62662 482
999.28088 -1708.49390 4.46024 382
1012.24243 -1732.02283 35.23854 379
964.77429 -1668.43481 -54.30480 437
961.32629 -1662.75183 -22.68064 486
996.59351 -1729.39880 3.35648 381
1009.45380 -1752.80286 34.10287 379
952.93542 -1670.71875 -54.02661 437
949.85144 -1665.30347 -22.41447 486
993.96606 -1749.84448 2.49043 379
1006.67603 -1774.18457 33.36826 378
941.52899 -1673.50122 -53.65879 437
938.48309 -1667.83850 -22.06912 489
991.31427 -1771.23828 1.06570 378
1004.37842 -1796.20911 32.30468 303
929.80951 -1676.22278 -53.61463 440
927.10211 -1670.97534 -21.83018 489
988.12561 -1791.46960 0.00523 377
1002.14874 -1818.47058 31.71955 375
918.35443 -1679.53687 -52.91301 440
915.86658 -1674.22815 -21.41355 490
985.50024 -1813.74194 -1.21538 375
999.28442 -1841.39856 30.59056 374
907.31329 -1682.51965 -53.12356 445
904.86505 -1678.01721 -21.59488 489
980.93408 -1832.07861 -2.09413 288
996.37231 -1863.92139 29.77329 373
896.66559 -1686.50073 -52.88388 445
894.32465 -1681.70508 -21.31975 490
976.19617 -1851.00562 -3.24581 288
885.81360 -1690.19641 -52.39660 445
883.28137 -1685.90210 -21.38881 490
971.02014 -1869.58899 -4.14785 297
874.80646 -1694.14307 -52.36360 447
872.78351 -1690.07397 -21.31109 490
864.24274 -1698.39978 -52.47260 447
862.16772 -1694.48206 -21.06430 490
853.71289 -1702.54504 -52.31383 442
851.57507 -1698.50610 -21.09227 485
842.92004 -1706.93494 -52.46475 442
840.66199 -1702.53455 -20.97788 485
832.46130 -1711.25781 -52.55332 442
830.35284 -1706.84766 -21.27318 482
821.77979 -1715.34473 -52.33955 452
819.97449 -1711.37366 -21.04319 482
810.62213 -1719.43616 -52.35844 454
809.47528 -1715.37207 -21.08377 477
800.28882 -1723.73096 -52.26434 460
799.17822 -1720.33350 -20.79804 477
789.33612 -1727.38306 -52.30561 460
788.79346 -1725.37585 -21.32137 475
778.93103 -1732.03259 -52.07263 461
778.47479 -1730.17468 -21.29893 473
777.93188 -1760.14624 -54.59025 265
768.07349 -1735.23389 -21.39584 470
757.83142 -1740.18176 -21.44285 470
749.26331 -1750.04822 -21.73952 337
428.38770 -1612.58118 404.36957 1000
6526.41260 -56744.57031 2926.50073 1000
-532.73560 -3150.86450 -25.24839 426
-533.09094 -3151.69897 27.28718 472
-533.69824 -3153.65015 79.74535 496
-533.73126 -3155.84033 131.80055 496
-534.48499 -3158.33765 184.86160 472
-1914.69470 -9015.34473 585.51776 1000
-948.07324 -2561.68042 41.81207 399
-947.63708 -2560.37915 86.82415 399
-947.27344 -2558.90991 132.14940 453
-946.84674 -2558.13257 177.83290 488
-16634.33594 -34469.68359 -8141.54443 1000
-6303.52881 -9745.13477 -1596.00952 1000
-14510.19824 -21108.62305 -2394.20166 1000
-1358.21912 -1961.06580 12.82897 499
-1357.10718 -1960.29248 52.63081 499
-1356.57324 -1959.25464 92.56327 490
-1356.06909 -1958.60083 132.34175 490
-1356.03088 -1958.06421 172.22771 456
-1355.45227 -1958.02490 212.36502 456
-37772.69922 -45779.46094 -11680.66406 1000
-45109.10938 -43236.94531 3210.11230 1000
-24801.72266 -18079.03125 -8108.81445 1000
-27361.77734 -15192.21875 1676.21936 1000
-3900.49561 -2083.47974 133.13116 457
-3338.17554 -1658.31226 132.00092 475
-25011.59961 -12133.03613 7118.87109 1000
-28501.18750 -7043.35059 4010.93506 1000
-257.48529 -75.08156 35.41065 321
-255.48999 -72.39669 36.01340 321
-253.42241 -69.78489 36.70485 322
-273.75555 -73.85072 37.76515 318
-253.30696 -67.52228 36.81755 352
-271.43967 -71.02204 38.41314 319
-255.23840 -65.67461 36.43085 351
-269.76965 -68.40569 38.95138 345
-257.11218 -63.75309 35.98245 351
-271.47650 -66.36411 38.56052 345
-289.39240 -69.60601 40.81369 318
-258.94641 -61.86406 35.57092 350
-273.43701 -64.38624 38.20197 347
-289.56195 -67.24808 40.91431 341
-260.78806 -59.94775 35.20562 350
-275.45917 -62.50438 37.78879 346
-291.50604 -65.19487 40.55784 341
-266.26343 -58.62753 33.74149 320
-280.52390 -60.94670 36.55934 323
-297.36282 -63.67662 39.20852 256
-272.57285 -57.33665 32.08431 319
-196.65477 -10.94197 53.38060 324
-196.64659 -9.16519 53.38137 324
-196.63425 -7.37119 53.37362 324
-196.62543 -5.55387 53.34093 324
-196.58348 -3.77419 53.31835 324
-196.60168 -1.97080 53.33512 324
-196.50290 -0.14579 53.35912 324
