# .PCD v.7 - Point Cloud Data file format
VERSION .7
FIELDS x y z rgb
SIZE 4 4 4 4
TYPE F F F U
COUNT 1 1 1 1
WIDTH 973
HEIGHT 1
VIEWPOINT 7018.099609 -2053.165527 141.109436 -0.639015 -0.107101 -0.098458 0.755311
POINTS 973
DATA ascii
-14321.18750 666.39563 3239.63330 1000
-17423.45117 1241.44055 697.90448 452
-17293.43164 1231.07068 979.14130 468
-17354.28906 1347.81323 695.80823 452
-17235.61523 1338.02356 977.85028 472
-17295.16211 1450.96729 692.64545 462
-17173.69922 1438.19153 976.36774 474
-17237.77344 1550.41089 690.96991 463
-17120.77930 1539.32983 971.27612 474
-17183.22852 1655.09094 689.33484 463
-17063.07422 1639.59875 967.67065 475
-17125.79102 1754.93225 689.52527 464
-17007.88086 1740.08447 966.95868 476
-17074.47656 1854.52234 690.75604 464
-16954.36328 1841.27258 966.41022 476
-17014.59766 1956.52490 685.77594 465
-16901.61523 1940.64636 963.72583 477
-16962.84570 2054.50708 684.72205 465
-16843.94922 2038.98059 963.57336 477
-16906.89453 2155.50562 682.95715 466
-16790.67773 2138.94043 959.60358 478
-16855.33203 2252.35327 685.55719 467
-16736.01953 2239.40210 956.55927 478
-16797.99414 2350.42285 681.34436 467
-16683.94727 2333.98926 955.79529 479
-16743.64648 2450.88306 679.08826 468
-16630.51758 2434.64722 954.01727 480
-16692.27930 2547.67285 681.21356 468
-16578.18750 2530.36865 953.91150 480
-16640.01562 2643.22705 678.49939 469
-16527.67773 2627.66528 949.17828 481
-268.94781 59.36277 34.72419 321
-283.30829 61.69936 37.34168 323
-16582.06836 2741.46875 675.93799 469
-16472.60938 2724.24536 947.75104 481
-264.28925 60.77060 35.84450 350
-278.75659 63.32054 38.44311 347
-294.71722 65.99456 41.12977 341
-16531.56055 2834.72070 677.56848 469
-16423.95898 2816.28955 947.96442 482
-262.34558 62.66621 36.23256 351
-276.68771 65.30285 38.86877 347
-292.79443 68.10689 41.45584 340
-16481.08203 2932.40796 674.58820 470
-16370.12402 2914.00366 944.73779 482
-260.35864 64.57462 36.69803 351
-274.79926 67.23450 39.16960 345
-294.12515 70.80670 41.05832 318
-16424.90234 3027.89990 676.18237 470
-16318.67383 3006.47046 944.35040 483
-258.42505 66.47299 37.05844 352
-274.44092 69.50706 39.20233 322
-16371.64746 3122.03516 672.66791 471
-16267.74609 3102.92920 940.77533 483
-256.61127 68.37624 37.43229 350
-276.25488 72.14202 38.61596 319
-16320.06348 3219.35278 672.52795 471
-16212.35156 3198.65479 939.26611 483
-258.17761 70.83478 36.91271 322
-16267.25391 3313.16772 671.50372 472
-16164.02051 3292.81714 938.24518 484
-260.15884 73.56450 36.27256 321
-16217.94238 3405.90552 669.20581 472
-16111.13477 3383.31226 937.22931 484
-262.11572 76.25298 35.52646 321
-16166.71777 3501.84863 668.33539 473
-16060.72461 3477.46411 937.09399 485
-16113.34570 3592.14624 669.08929 473
-16010.16406 3568.60327 935.50616 485
-16063.23535 3683.96143 667.56439 473
-15960.97266 3661.52100 935.98553 486
-16012.39648 3778.49463 665.47650 474
-15909.98633 3754.49487 931.15106 486
-15960.50391 3868.14404 665.24384 474
-15859.90625 3842.94702 933.65955 486
-15910.37695 3961.28613 667.20667 475
-15809.61035 3935.69360 930.02075 487
-15858.10645 4055.27075 665.88879 475
-15757.91699 4027.83423 928.45343 487
-15808.00000 4145.50635 662.63165 475
-15709.45898 4118.45996 927.70154 488
-15757.52344 4234.25586 661.44757 476
-15659.28027 4209.87598 927.36670 488
-15710.28516 4324.65723 661.06323 476
-15611.00684 4299.51172 927.85974 488
-16322.77441 4495.42969 1241.13452 479
-15657.54590 4414.26416 662.72626 476
-15560.69141 4387.95947 925.99634 489
-16252.63867 4583.60156 1238.31091 479
-16333.80371 4607.73682 1526.43530 404
-15608.82520 4504.97754 662.17596 477
-15512.75781 4478.47266 924.89508 489
-16182.53516 4671.70166 1237.84033 480
-16259.73926 4691.18066 1518.86865 404
-15558.75098 4598.60059 658.24701 477
-15462.17969 4568.18115 923.12836 489
-16110.56641 4760.42236 1235.36340 480
-16188.84473 4778.74072 1516.21204 405
-15509.99023 4685.28955 660.78436 477
-15413.96582 4658.52783 921.89941 490
-16043.23145 4845.67041 1228.38245 481
-16114.35645 4865.81445 1513.83838 405
-15459.96582 4777.94141 658.46222 478
-15367.44238 4746.64111 922.53442 490
-15970.37695 4931.02100 1229.06287 482
-16039.54492 4952.98828 1507.90051 405
-15411.72168 4866.54541 656.31036 478
-15316.69043 4837.47559 920.50073 490
-15902.26074 5016.34766 1225.42090 482
-15970.06836 5041.02246 1506.63623 406
-15361.07031 4953.75928 657.11206 478
-15268.45996 4925.22705 920.38562 491
-15832.98828 5106.29980 1222.70667 483
-15895.03516 5125.15625 1503.32190 406
-15311.78418 5041.58154 659.24622 478
-15218.04980 5013.10938 918.86237 491
-15767.93262 5193.12646 1220.51331 494
-15830.11621 5212.21777 1498.96069 414
-15265.73242 5130.95654 658.75317 479
-15171.40723 5099.46582 917.38751 491
-15720.18262 5282.19434 1220.24854 495
-15773.45215 5302.79492 1499.26013 415
-15213.93262 5218.24902 654.56366 479
-15124.67480 5187.74658 917.99176 491
-15665.34375 5374.03467 1216.92883 495
-15722.55273 5391.42432 1497.11328 415
-15167.37988 5307.80469 653.78156 479
-15076.35352 5276.89258 917.82031 492
-15615.09766 5465.87988 1217.01807 495
-15670.48340 5484.59375 1497.50183 415
-15118.04297 5396.55566 655.18341 479
-15025.51270 5362.19385 915.95148 492
-15565.66504 5551.77881 1214.01123 496
-15618.10645 5570.44531 1492.55164 415
-15068.98828 5484.20020 654.80463 480
-14979.31445 5449.97168 914.69489 492
-15511.04395 5645.24023 1212.92993 496
-15563.52246 5661.42188 1494.35840 415
-47393.18750 17506.19531 -711.43182 1000
-15020.62891 5570.36572 654.88269 480
-14931.74512 5539.29883 913.79456 492
-15464.29199 5734.74561 1211.45581 496
-15516.14648 5750.68115 1490.66284 416
-14971.38867 5659.29053 653.07971 480
-14881.84961 5626.77686 913.19714 493
-15365.99023 5805.61572 1208.64368 331
-15463.21777 5840.99707 1489.13293 416
-14923.68848 5746.47217 655.50269 480
-14836.93555 5710.31201 910.52087 493
-15269.93750 5878.00244 1207.03479 392
-15390.46387 5924.45117 1487.99841 496
-14874.82715 5831.32959 654.96100 480
-14788.84961 5797.16699 911.56470 493
-15221.65234 5966.12500 1206.23401 393
-15342.54004 6015.18896 1484.24133 497
-14827.76270 5919.10352 652.01984 481
-14739.80957 5884.10059 911.73578 493
-15172.85449 6056.18896 1202.39880 393
-15292.24316 6105.53418 1483.39587 497
-14780.22461 6007.36035 652.50092 481
-14691.89453 5971.85254 911.53992 493
-15123.29590 6145.36084 1203.75732 389
-15238.67090 6191.95947 1483.43127 497
-15373.30371 6245.13330 1770.39697 337
-14731.46484 6092.25049 653.58240 481
-14643.32617 6058.57959 911.76263 493
-15080.34766 6237.11328 1201.09302 455
-15192.85449 6279.68848 1483.76624 497
-15353.17871 6347.48145 1771.23267 344
-14682.99316 6179.10010 652.68939 481
-14599.93750 6144.55078 911.97864 494
-15090.01855 6351.96143 1205.11548 440
-15079.69629 6344.50488 1478.32629 440
-15073.51270 6339.95117 1744.88928 440
-14636.21777 6265.42773 650.88202 481
-14550.90430 6228.13916 908.31512 494
-14972.12598 6411.13525 1200.51196 441
-14962.21680 6406.98291 1467.87048 441
-14954.16211 6402.54639 1740.60461 441
-14586.44727 6350.70264 651.79633 481
-14505.32617 6318.44043 907.19312 494
-14856.28516 6467.11328 1195.67822 442
-14845.63965 6464.30420 1460.93286 442
-14840.72461 6461.02930 1731.63464 442
-2661.57251 1211.75977 131.85458 497
-2666.97437 1214.83020 180.37878 497
-14537.60840 6437.28955 652.04761 482
-14454.58496 6402.46094 910.45532 494
-14760.32812 6537.23486 1192.86243 498
-14752.21094 6530.02441 1459.29700 498
-14744.99414 6529.25098 1726.32312 498
-14489.21875 6525.01562 652.86829 482
-14410.14062 6489.36328 907.68030 494
-14714.11133 6623.03906 1192.59155 498
-14705.48828 6618.40381 1458.79089 498
-14697.48145 6616.81641 1723.67310 498
-14961.58496 6736.19971 2026.77283 480
-15415.03711 6936.84375 2363.64844 471
-15403.44043 6930.00244 2647.21045 471
-15398.66504 6931.37744 2929.48486 282
-14442.28223 6611.83789 652.94897 482
-14361.82520 6572.72754 909.42737 494
-14661.73047 6711.35303 1190.82019 498
-14626.19824 6695.46143 1455.84595 498
-14648.81348 6700.60010 1723.42615 498
-14820.90332 6782.52588 2013.66309 492
-14814.00684 6775.66797 2283.44922 491
-14803.00098 6773.04297 2557.14722 391
-14799.27148 6770.62598 2827.29858 391
-14395.62598 6696.94336 651.60114 482
-14314.27734 6659.91650 910.12933 494
-14613.73242 6798.18213 1192.25513 499
-14579.11621 6779.07910 1453.98450 498
-14596.03418 6791.23975 1723.48669 498
-14860.25488 6911.05371 2022.16882 470
-14347.29395 6781.09961 652.83698 482
-14266.74902 6743.57422 907.42999 495
-14565.02734 6885.90186 1189.28674 499
-14530.71387 6869.05273 1450.92639 499
-14547.55371 6877.46729 1723.28943 498
-14808.12109 6997.91309 2020.23779 470
-14302.32812 6866.79639 649.61877 482
-14221.09863 6828.02588 908.96979 495
-14515.47266 6970.41846 1188.24243 499
-14481.09570 6956.06982 1452.45801 499
-14496.70898 6964.13037 1720.01221 498
-14754.61523 7082.58057 2019.17908 470
-14253.84961 6955.06982 648.31671 482
-14172.02734 6915.13525 908.84711 495
-14467.66797 7055.74121 1188.38672 499
-14429.97461 7041.12939 1452.18665 499
-14450.81445 7050.11133 1720.70032 498
-14706.21387 7172.23730 2020.88354 470
-14203.26660 7041.34082 652.19489 482
-14125.28125 7000.71484 908.85309 495
-14415.43066 7145.28418 1186.58960 499
-14384.15430 7126.82764 1453.01367 499
-14400.26367 7134.39453 1719.64124 499
-14655.16797 7257.79297 2018.56592 470
-14154.81641 7126.21875 650.64850 482
-14081.54980 7084.52197 907.95923 495
-14369.23535 7231.97119 1190.28516 499
-14335.57715 7214.81299 1450.91907 499
-14352.78809 7220.25635 1717.94849 499
-14603.13281 7349.43018 2019.50781 471
-14108.90918 7208.64990 648.44598 482
-14033.15332 7170.24365 909.00439 495
-14322.04785 7315.39893 1188.51526 499
-14311.53809 7314.18213 1452.75061 499
-14010.20508 7157.95605 1688.45557 342
-14551.77539 7435.83154 2017.43274 472
-14063.10449 7295.39062 648.58734 482
-13987.17383 7255.79443 908.13708 495
-14269.33301 7401.63916 1188.98291 499
-14262.22852 7399.56934 1454.83191 499
-13955.80371 7240.04590 1687.25171 499
-14503.70508 7521.39014 2016.13464 472
-14014.22461 7383.42871 650.23041 483
-13940.37109 7339.86230 907.13293 495
-14219.79785 7489.96191 1188.08972 499
-14027.71387 7388.79492 1437.49524 488
-13906.95508 7327.11914 1685.06885 499
-14453.04492 7609.69434 2016.58521 472
-13967.05371 7464.86084 648.76001 483
-13891.48926 7428.78809 908.51355 495
-14171.07910 7574.83545 1186.98572 499
-14164.44727 7570.43799 1453.15234 499
-13859.25977 7411.19629 1683.72144 499
-14401.94629 7696.96045 2016.01306 472
-13917.58203 7553.16602 648.39307 483
-13844.98340 7511.45361 905.43732 495
-14124.75000 7661.61719 1187.55212 499
-14116.78906 7658.40723 1452.42773 499
-13814.79590 7496.60303 1684.78345 499
-14355.61230 7786.06836 2017.40576 472
-13870.49316 7638.14648 647.86377 483
-13798.35840 7596.58105 904.76416 495
-14072.64648 7748.01221 1189.06311 499
-14064.36816 7743.65576 1452.70703 499
-13869.97266 7635.63428 1697.38525 354
-14304.31445 7875.58936 2016.04028 469
-13822.91504 7723.54346 649.00690 483
-13752.31836 7680.51562 907.13763 495
-14050.59180 7849.07324 1189.90527 462
-14039.39355 7842.72900 1455.55225 462
-14062.46484 7857.11914 1723.52246 459
-14265.79004 7967.75146 2018.08740 461
-13775.41602 7810.58496 649.40149 483
-13702.88379 7769.35156 906.26575 495
-14031.89551 7950.78662 1192.39001 480
-14045.27930 7958.34961 1459.66260 461
-14069.70312 7973.28271 1727.81213 457
-14248.89453 8076.53271 2021.95288 461
-13727.12793 7894.05615 649.78137 483
-13658.08789 7850.95459 907.57526 495
-14012.23828 8055.09717 1191.86560 479
-14054.22852 8076.78271 1465.13623 461
-14078.33594 8091.20752 1735.26880 456
-13679.60059 7977.39307 648.48413 483
-13608.93457 7936.20312 907.52039 495
-13995.80762 8160.43506 1194.04150 479
-14037.56348 8184.79297 1469.35938 478
-14081.97266 8209.92090 1740.81775 455
-13632.79199 8066.01416 651.45032 483
-13564.24707 8024.99316 906.19305 495
-13974.98535 8266.44531 1199.02356 478
-14018.78711 8289.99512 1471.37244 478
-13585.55664 8147.90137 651.45807 482
-13515.68945 8107.65967 908.81732 495
-13958.13574 8368.93359 1202.27905 478
-13996.81348 8394.96191 1475.91797 477
-13539.91211 8236.15820 651.64917 482
-13470.53027 8195.69141 910.16962 495
-13936.11816 8475.16211 1202.18762 477
-13492.68945 8320.36621 649.74890 482
-13422.71387 8276.35645 905.92041 495
-13921.29004 8584.88379 1208.91748 445
-13443.18066 8406.02930 650.07501 482
-13374.18066 8363.94531 909.81927 497
-13395.57520 8492.16113 651.19940 482
-13329.23730 8451.35254 910.36829 497
-13345.97461 8577.30176 651.69946 482
-13282.45410 8533.45703 908.40405 497
-13301.49805 8662.55859 650.53943 482
-13231.14941 8622.09277 909.75195 497
-13251.49805 8748.75684 651.89111 482
-13184.58691 8707.75977 910.30695 497
-13204.54785 8837.02344 654.71185 482
-13139.29883 8789.29980 910.51837 497
-13155.70605 8919.00488 653.80719 482
-13093.08301 8876.37598 910.65515 497
-13106.88086 9004.19336 651.41821 482
-13043.58008 8963.04883 912.83472 497
-13061.98730 9091.34180 653.07208 482
-12998.50000 9049.30078 914.03387 496
-13009.33398 9179.95215 654.30969 481
-12948.27051 9135.73145 911.97144 496
-12962.76660 9264.35156 655.56122 481
-12901.53809 9220.52246 914.62292 496
-12915.26074 9349.63281 653.04950 481
-12854.78027 9305.78613 912.81732 496
-12869.14453 9437.46973 653.10052 489
-12808.16895 9394.00586 915.71832 496
-12819.91406 9522.89551 653.81018 489
-12761.91895 9480.62109 914.65082 496
-12769.80664 9613.41016 656.77271 489
-12711.97363 9566.44531 914.06305 495
-12723.90820 9698.57031 656.87531 488
-12665.02441 9654.94824 915.21954 495
-12676.36230 9786.63672 658.21533 488
-12615.45215 9740.41699 915.91418 495
-12626.37695 9875.44238 656.87878 488
-12566.94727 9830.21582 918.81750 495
-12575.60645 9959.53320 659.67773 488
-12519.09277 9917.12598 919.87598 494
-12529.13770 10047.61133 657.86108 487
-12472.39062 10005.10449 920.61554 494
-12478.68750 10138.95996 658.28778 487
-12424.15137 10090.20410 919.06165 494
-12430.82520 10226.86719 662.03345 487
-12376.38965 10177.60156 923.37701 494
-12383.25098 10314.65234 662.76270 487
-12324.58789 10267.71094 924.08575 493
-12332.94727 10400.24707 662.09381 486
-12277.14844 10355.55664 922.09564 493
-12281.98535 10492.49707 661.74548 486
-12228.10938 10443.26074 926.61438 493
-12232.04883 10578.81445 663.91711 486
-12179.57715 10532.70898 923.36591 492
-12183.10645 10668.88867 663.51318 485
-12130.07227 10621.50293 927.05914 492
-12136.29590 10756.24316 664.63770 485
-12081.16504 10710.89062 926.54614 492
-12085.51953 10845.42676 663.16437 485
-12030.28125 10800.90918 928.66968 491
-12037.41797 10941.14941 667.43610 466
-11982.96680 10890.28320 930.42938 491
-11998.94434 11038.91406 667.80823 465
-11935.76172 10980.92871 933.46429 489
-11961.69434 11141.20605 669.75885 466
-11889.52051 11076.61133 932.68683 488
-11920.72656 11243.16797 671.15948 466
-11842.38379 11168.50977 936.81348 488
-11884.86426 11345.39551 671.38019 465
-11800.87305 11263.42090 934.51556 471
-11840.80859 11446.52441 674.54883 465
-11758.88379 11368.64160 936.16577 471
-11803.47949 11548.12988 673.81116 464
-11717.84766 11470.30176 942.36835 470
-11762.59961 11655.44824 675.36090 463
-11678.34375 11569.69629 943.96112 470
-27797.46094 27406.25977 8576.33008 1000
-11737.03320 11770.50195 675.96820 423
-11643.42676 11677.58594 946.76355 471
-11714.26660 11897.02539 680.64648 422
-11607.45215 11789.04102 946.33893 470
-11696.86816 12024.63379 683.43372 421
-11572.03906 11896.64453 951.11652 469
-11683.10352 12159.33203 685.91052 399
-11539.34277 12009.05859 953.41132 469
-11670.30664 12292.79199 688.81183 398
-11500.71387 12116.04395 953.58044 468
-11669.76855 12447.81543 693.40094 372
-11477.73047 12238.82617 961.23901 411
-11680.33594 12610.56543 698.15063 371
-11452.83789 12370.97461 961.83368 410
-11440.93359 12510.03320 967.39062 412
-11437.79102 12660.21191 974.57251 410
-11434.70703 12810.64062 978.96655 409
-11438.70215 12976.65137 985.78851 371
-11496.50684 13203.82715 993.97235 322
-12.77926 148.39056 168.82738 1000
-1150.24915 2189.44678 132.58150 333
-1104.74011 2140.56128 92.30537 353
-1125.08447 2176.56836 132.42731 335
-1076.09583 2119.43433 93.06663 366
-1104.42688 2171.62427 132.55379 354
-1084.17505 2165.67334 51.68567 347
-1051.17615 2105.78052 93.29733 391
-1124.76904 2240.33960 132.18562 454
-1053.41345 2141.25049 52.54762 344
-1028.55957 2094.35938 93.20896 393
-1112.61389 2251.07959 132.09962 477
-1029.61768 2127.08740 53.56036 382
-1006.75775 2084.55566 93.65170 387
-1098.31763 2257.00635 132.41524 475
-1005.84277 2114.12549 54.63341 383
-985.90918 2076.43018 93.99872 398
-1084.87585 2265.64990 132.60059 389
-973.23358 2083.21411 55.50842 279
-966.11194 2069.64966 94.46001 399
-1072.44531 2275.46973 132.12666 336
-946.86664 2062.50220 56.43832 353
-947.01324 2062.65552 94.73586 400
-1059.51611 2286.16479 132.64420 336
-924.18188 2049.45435 57.34234 354
-928.28406 2057.61572 94.88387 360
-1045.02063 2291.06494 132.10182 421
-903.80634 2040.61475 58.25798 369
-910.38232 2053.59497 95.14432 363
-884.33136 2032.52197 58.37941 422
-893.10394 2049.58496 95.34241 363
-866.45178 2026.35620 58.96481 432
-876.02246 2046.52271 95.23994 364
-911.89386 2121.47266 132.44180 443
-848.46460 2020.43665 59.05875 433
-859.06866 2043.40747 95.77319 379
-893.68280 2117.11597 132.34232 444
-831.23053 2015.31360 59.64572 434
-842.02747 2040.20264 95.96827 403
-878.97565 2120.02612 132.57639 377
-813.71362 2010.66235 60.30980 443
-828.23175 2043.23523 95.52395 444
-864.34027 2122.25488 132.56798 485
-797.39703 2006.52576 60.47759 444
-814.49384 2045.54028 95.63932 448
-858.02783 2142.23584 132.61630 378
-780.62830 2002.18835 60.78418 445
-848.00946 2156.43481 93.98400 402
-861.30786 2186.17310 132.65346 374
-764.27667 1998.55200 61.04124 446
-808.69434 2101.73828 95.17235 449
-845.98535 2187.52344 132.22629 449
-747.84973 1994.31055 61.37399 449
-791.54089 2097.59180 94.95618 450
-839.34784 2210.25586 132.61732 380
-731.88293 1990.36951 62.00129 450
-771.80725 2087.10767 95.35886 450
-771.59625 2085.40894 132.50017 451
-715.87250 1986.90149 62.15652 451
-759.11017 2092.94678 95.17945 396
-758.28851 2089.95947 132.71552 396
-700.19128 1982.84509 62.25294 452
-753.80579 2115.88257 95.16095 395
-752.40814 2113.18970 132.18544 395
-15342.42480 39037.68750 -7501.47852 1000
-684.49689 1979.53271 62.46413 453
-750.69672 2145.93237 94.85732 474
-743.50793 2128.32471 132.65121 462
-747.30627 2137.87964 169.74655 453
-669.26526 1975.76196 62.75064 454
-758.75604 2206.27295 93.94643 393
-738.85101 2155.28027 132.53519 454
-726.34961 2123.18970 169.40994 463
-653.93738 1971.87598 63.08514 455
-675.14886 2028.56140 96.78637 455
-674.62933 2028.21155 132.31631 289
-721.68750 2149.88232 170.15021 455
-709.29504 2118.15332 206.49033 464
-638.38641 1968.63660 63.69228 455
-659.81586 2024.65515 97.11667 456
-658.70294 2023.80347 132.18713 456
-704.18518 2143.96167 207.57082 456
-623.20215 1964.74609 63.70141 456
-652.12634 2043.46741 96.60768 383
-648.51324 2033.94336 132.48003 478
-608.49335 1961.45654 63.94204 457
-645.41089 2064.52808 96.64216 339
-646.12433 2066.74292 132.35619 381
-593.27057 1958.07581 64.37675 458
-638.54736 2086.01221 96.22729 338
-640.77753 2091.42310 132.59441 386
-578.76190 1954.26831 64.89827 459
-632.43799 2109.77588 95.84536 384
-634.57269 2115.55664 132.76785 385
-563.81494 1950.69946 65.10735 460
-626.95410 2135.21558 95.88050 382
-628.61414 2140.68164 132.61128 384
-556.83276 1970.15515 30.73022 309
-549.60077 1947.54065 65.15254 439
-644.26843 2232.45898 94.13361 320
-574.67639 2023.11987 132.41147 440
-541.49689 1963.12610 30.97147 309
-535.28174 1944.48669 65.58150 439
-628.87836 2230.82544 94.24026 320
-615.37396 2190.54492 132.56357 387
-564.91125 2035.11914 237.75163 387
-525.53381 1956.67065 31.28356 310
-521.20416 1941.39661 65.74538 440
-598.94598 2184.99561 94.81701 453
-558.15942 2058.10645 238.46596 361
-510.21832 1949.98059 31.98737 310
-507.05698 1938.43848 66.23781 441
-597.18536 2227.30762 94.41840 320
-552.16101 2082.93335 239.88603 360
-495.32617 1943.12720 32.78502 310
-493.04416 1935.78235 66.22556 441
-581.73706 2225.37866 94.44314 321
-546.14441 2108.77563 241.03296 359
-480.64120 1937.74023 33.07800 403
-479.06125 1932.52625 66.38156 442
-566.35699 2223.55981 94.81024 321
-539.90546 2135.51489 242.03838 358
-466.21622 1933.85620 33.22748 403
-465.04678 1929.39587 66.42119 443
-552.38593 2227.32080 94.75077 397
-452.08722 1929.68335 33.76364 404
-451.57947 1926.27441 66.99467 443
-535.19397 2219.44751 94.96379 398
-438.47421 1925.54053 34.31242 405
-437.79523 1923.53162 67.21861 444
-518.32367 2212.16870 94.99410 409
-424.25745 1921.32520 34.43536 405
-424.53867 1920.60400 67.10166 444
-410.42841 1917.04675 34.86715 406
-410.72159 1917.83838 67.23599 445
-397.10117 1913.43542 35.12383 406
-397.33514 1914.65637 67.66868 446
-383.57391 1909.14050 35.55661 407
-384.02155 1911.85657 67.75208 446
-370.10898 1905.86902 36.12955 435
-370.73755 1909.24414 67.91929 447
-358.20074 1907.13733 35.98415 435
-358.61594 1910.49548 68.01159 411
-345.89941 1908.43372 36.42422 435
-347.18814 1913.80298 68.25901 411
-369.53589 2009.36987 98.94724 472
-334.11627 1909.87622 36.12766 435
-335.54929 1918.15417 68.00013 332
-366.07861 2051.20044 97.75599 458
-322.30350 1915.13843 36.07178 342
-358.31677 2077.32227 63.02876 354
-334.96255 2029.41113 30.65913 358
-351.78867 2107.71533 62.16727 353
-327.52866 2058.44043 29.06930 357
-344.41019 2139.02588 60.81823 352
-332.85242 2084.09644 167.07971 270
-330.80185 2138.96338 61.18005 473
-310.23483 2104.32471 27.10307 354
-316.38055 2135.20483 61.34281 474
-302.71826 2135.64722 61.06062 494
-289.40259 2136.42798 61.52571 494
-275.47653 2137.32812 61.40212 495
-262.69724 2137.89429 61.55655 468
-248.85382 2139.16309 61.70832 475
-235.82852 2142.53882 61.61003 351
-1645.30933 13893.70020 -3373.35522 1000
115.75735 857.43988 5.17782 338
120.79888 849.48169 6.27447 458
120.86191 852.26208 20.10356 406
120.99373 855.35284 33.88696 406
126.11747 846.39478 6.61681 490
126.15489 848.03693 20.65574 491
126.11501 850.04974 34.36367 459
126.26968 852.72247 48.17066 459
126.14580 854.67175 62.08579 406
126.31983 859.05939 75.82608 331
131.12630 845.10309 6.76299 499
131.36630 846.73975 20.68721 499
131.27901 848.24518 34.65636 499
131.46660 850.35168 48.54226 499
131.33586 851.52759 62.27909 491
131.45380 853.30133 76.36097 491
131.47217 856.05768 90.27799 439
136.55687 845.45380 6.64954 483
136.60545 847.10486 20.61560 483
136.72336 848.76422 34.56426 484
136.79375 850.60352 48.38817 474
136.72885 853.34827 62.27597 473
136.76222 853.31812 76.18940 483
136.92223 856.24268 90.18586 360
141.77992 847.86548 6.44788 443
142.03505 849.75800 20.18190 443
142.09465 851.56238 34.18459 443
142.19765 854.48578 48.01100 394
142.24313 856.16040 61.86901 386
147.30238 853.36566 5.56285 385
147.65959 857.44696 19.27479 314
2955.79297 26275.35156 3614.79199 1000
6358.23096 46859.58594 10348.11523 1000
26080.01172 62014.16016 7869.85840 1000
41098.02734 25764.28125 972.34705 1000
40965.16406 25677.57422 4137.72314 1000
42592.33984 22848.83008 10598.03516 1000
3124.46558 1307.77954 -81.69099 286
3055.99707 1279.13770 -23.63719 425
3112.11475 1280.93213 -79.82266 286
3070.53198 1263.32434 -24.61489 442
3100.69312 1254.68811 -79.07126 287
3086.41577 1248.40967 -24.84941 454
3332.19165 1351.19287 19.65607 478
3111.37183 1237.77441 -79.46240 426
3101.62158 1233.72168 -25.49710 452
3306.09961 1317.52039 21.62533 338
3130.20557 1223.28076 -79.90451 421
3117.89380 1218.59949 -25.21783 460
3301.77148 1292.40247 21.96449 437
3148.17407 1209.08374 -80.70641 421
3135.40259 1204.24866 -25.90068 467
3296.41504 1267.49878 21.50824 440
3167.11475 1194.48950 -81.14629 414
3152.40186 1189.21631 -26.56307 466
3291.27393 1242.72180 22.85258 440
3188.40308 1180.42993 -82.63447 403
3170.72119 1174.36292 -27.11904 463
3209.94238 1167.77747 -83.90305 396
3190.79028 1160.06055 -28.10579 452
3233.52026 1154.60571 -84.97667 393
3212.01245 1146.94067 -28.36411 445
3258.58057 1141.32410 -85.95656 384
3235.89014 1133.65149 -29.38091 434
3285.44751 1129.44336 -87.42593 377
3259.89722 1120.17944 -30.68177 430
3318.49121 1118.51428 -89.03780 352
3287.34790 1107.69519 -31.42777 419
3357.04688 1109.47546 -91.23415 358
3319.54712 1097.06519 -32.95673 388
3396.83081 1100.72742 -93.47050 357
3358.75903 1088.62268 -34.55887 376
3435.10864 1090.52905 -95.96007 365
3400.39282 1079.32983 -36.67413 374
3475.57715 1081.14685 -98.43773 370
3442.84424 1070.75684 -38.12504 373
3485.84863 1061.38928 -40.66091 372
3530.39160 1051.75269 -42.02037 370
3575.36377 1042.18762 -43.65117 369
3620.92310 1032.27722 -46.43155 368
3667.80347 1022.79431 -48.50686 366
1973.88367 342.98892 -55.22535 400
1968.03394 330.59705 -54.17485 488
1973.40515 331.55792 -23.27840 488
1979.31128 332.32321 7.61585 496
1971.59058 319.41183 -54.45782 484
1979.48547 320.51813 -23.51122 447
39999.80859 2789.85156 9473.45410 1000
3005.88013 -189.86940 -58.46696 416
3000.20020 -207.08449 -58.47200 472
3015.00977 -208.49887 -11.16972 345
3976.14575 -492.94611 -59.68755 365
3943.31519 -513.25104 -57.95903 476
3928.36475 -535.03223 -57.74302 469
4002.44873 -570.34680 -125.96379 384
3917.71289 -557.70917 -56.93193 483
4023.13843 -573.27179 3.01676 288
3978.98169 -591.50220 -124.57640 409
3907.47656 -580.13947 -57.47213 489
3960.53857 -612.41565 -124.59731 419
3896.74585 -602.76355 -56.69061 489
3946.56396 -634.00476 -123.01468 426
3881.91699 -623.38104 -56.47004 489
3931.90527 -656.50916 -122.85300 419
3871.83496 -646.22479 -55.58068 489
3918.13013 -677.74902 -121.99408 435
3861.78784 -668.61102 -55.83159 492
3906.13135 -699.75439 -121.79513 434
3852.96411 -690.33423 -55.56617 472
3895.12280 -722.16833 -121.12721 434
3844.91602 -713.09546 -55.58949 473
3874.36841 -742.80408 -119.63630 496
3836.89990 -735.49170 -55.14985 473
3954.70850 -757.89594 68.45962 324
3847.65601 -761.72290 -118.58307 308
3829.25562 -757.87451 -54.89574 441
3885.71826 -769.59705 69.25597 325
3832.93140 -782.41791 -117.48164 308
3823.62256 -780.33032 -55.18739 442
3909.91870 -798.08630 4.68986 319
3855.41748 -787.34778 69.71286 499
3822.77246 -804.40887 -118.18150 379
3817.11157 -802.58368 -54.40746 442
3849.40503 -810.28802 6.43302 499
3849.95532 -809.74957 69.90840 499
3814.40576 -825.66187 -117.96958 380
3811.24121 -825.89948 -55.13793 442
3845.57983 -832.70697 7.01216 499
3846.01660 -833.41486 69.84901 499
3805.23560 -847.89093 -116.81857 380
3805.74536 -848.70343 -54.59947 418
3841.05176 -856.64319 6.89524 499
3841.47290 -856.88745 69.23682 499
3798.44556 -870.20374 -117.43140 380
3799.90088 -871.16998 -54.75256 418
3835.65869 -879.28754 6.00646 499
3837.29785 -880.29584 68.95679 499
3791.65967 -893.31610 -117.38401 381
3795.22046 -893.55933 -54.48986 418
3825.66821 -900.82147 6.21984 499
3828.23218 -902.39960 69.28341 499
3785.97754 -915.82355 -117.64400 381
3790.09644 -916.16058 -54.64250 418
3822.33447 -924.25946 6.94603 499
3823.27515 -924.75995 69.96844 498
3781.38501 -938.08661 -117.56554 382
3785.00977 -939.79358 -54.82536 418
3818.16650 -947.89447 6.74246 499
3818.31104 -948.23834 69.23116 498
3776.44019 -961.88873 -117.67539 382
3780.89746 -962.22559 -55.40693 418
3812.97363 -970.60687 5.96703 499
3814.76660 -971.93005 69.35126 499
3772.84033 -984.48071 -117.18848 388
3776.16187 -985.66766 -54.70110 418
3813.97900 -995.37415 6.66105 499
3814.85474 -995.71112 68.97083 498
3768.65601 -1007.17694 -117.29809 388
3771.92749 -1008.98431 -55.33366 418
3809.77368 -1019.12982 5.55603 499
3810.60864 -1019.76782 68.98713 498
3950.48242 -1057.73767 131.78587 493
3763.72241 -1030.51245 -117.86333 388
3767.25269 -1032.15845 -55.55050 418
3805.14526 -1042.81506 5.49457 499
3806.33887 -1042.67419 69.02845 498
3759.43164 -1053.68994 -118.33910 388
3763.39478 -1055.10608 -54.85200 418
3800.85791 -1066.26099 5.84292 498
3802.11572 -1065.99768 68.54938 498
3861.37891 -1083.49817 131.72630 498
3755.29907 -1077.40906 -118.09512 388
3758.25513 -1078.04456 -55.82774 418
3796.42090 -1089.43030 6.21772 498
3798.14673 -1090.07532 68.80016 498
3811.15015 -1093.86841 132.30367 483
3750.98047 -1100.40637 -118.49229 388
3754.27759 -1101.43225 -55.67965 417
3880.59448 -1139.63538 132.21873 294
3746.79346 -1123.18494 -118.01669 388
3749.04614 -1124.39355 -56.19689 417
3868.53906 -1160.78247 131.97009 497
3742.32324 -1146.40308 -118.76439 388
3744.85132 -1147.38184 -56.06035 418
3867.32104 -1186.00403 132.37463 457
3911.70435 -1200.54980 197.57980 482
3738.65918 -1170.40686 -118.44501 387
3740.48633 -1170.82068 -55.82454 418
3880.00171 -1216.10608 132.74068 383
3734.26392 -1193.38464 -118.77426 387
3729.88623 -1216.65759 -119.22216 387
3726.29224 -1240.79053 -119.73209 387
3721.47534 -1264.21887 -120.00156 387
3995.37866 -1359.23230 -70.62743 497
3718.01245 -1287.30615 -119.84373 387
3759.58740 -1301.90698 -59.48641 281
3712.87305 -1310.76001 -119.82024 387
3712.02100 -1310.22449 -56.83105 438
3708.81641 -1334.14832 -120.75793 387
3707.92725 -1334.61035 -57.44262 437
3704.40356 -1358.01965 -120.85059 386
3702.77661 -1357.34387 -57.10475 437
3701.12256 -1382.26929 -121.12275 386
3698.27954 -1381.29724 -58.12511 437
3696.49634 -1406.04089 -121.65472 386
3693.99634 -1405.40466 -57.93056 437
3883.46143 -1478.92688 -1.17869 429
3692.82471 -1429.95605 -121.43562 386
3688.86255 -1428.11853 -58.30119 437
3786.54834 -1467.78284 2.37566 486
3784.18213 -1493.21082 -129.22523 493
3767.67432 -1485.56018 -62.52024 497
3774.21387 -1489.25806 2.50985 460
3783.89795 -1519.17212 -130.20390 487
3720.83325 -1493.28088 -60.70709 494
3762.92432 -1510.07043 2.39620 467
3750.90991 -1531.50684 -62.46867 458
3756.49170 -1534.67993 2.32816 483
5165.72559 -3557.06226 537.78656 1000
2422.35693 -1699.43555 -57.60688 452
2414.51074 -1715.35913 -57.57842 393
1594.55933 -1715.64490 -54.80552 393
1573.55347 -1712.54321 -53.88671 408
1552.57202 -1709.51880 -52.52406 408
1545.94470 -1702.08899 -14.79349 420
1532.31812 -1706.71423 -50.91882 408
1526.22449 -1699.47852 -14.09538 421
1512.53174 -1704.32727 -50.27423 408
1506.63977 -1697.51807 -13.00991 422
1492.70715 -1702.03259 -48.77818 410
1487.24036 -1695.57007 -11.89226 423
1472.99817 -1699.50085 -47.71685 409
1467.82910 -1692.85376 -10.73945 424
1453.93958 -1696.67590 -46.73087 410
1448.63538 -1690.58252 -10.21568 425
1434.43237 -1694.51843 -45.11736 411
1430.22607 -1688.64136 -9.45702 426
1415.79895 -1692.06982 -43.99811 412
1411.84155 -1686.82886 -8.44946 427
1396.77783 -1689.22510 -43.33992 413
1393.39319 -1684.52893 -7.47757 428
1378.57593 -1686.99854 -41.71019 414
1375.43457 -1682.73938 -6.84082 429
1360.34106 -1684.29810 -40.98354 406
1357.42065 -1680.50488 -5.66547 430
1343.29175 -1682.51013 -40.18262 407
1339.93457 -1678.16040 -4.86769 431
1490.78259 -1880.93433 16.82741 303
1325.59265 -1681.01648 -39.19080 408
1322.16638 -1676.40637 -4.51248 432
1485.26807 -1897.36328 16.59401 320
1308.59375 -1679.08972 -38.16911 409
1305.36023 -1674.57043 -3.63208 433
1481.24414 -1917.36255 15.93032 343
1291.68726 -1677.61719 -37.21835 410
1288.23730 -1672.54553 -2.48702 434
1478.70728 -1938.46228 15.25708 342
1275.10486 -1675.96521 -36.18956 403
1271.15100 -1670.69238 -1.85437 435
1257.74011 -1673.49133 -35.01889 404
1254.48645 -1668.49438 -1.27571 436
1240.72571 -1670.82739 -34.45780 405
1237.86328 -1666.56580 -0.49815 437
1223.98438 -1668.85754 -33.56973 406
1221.56128 -1664.53870 0.17259 439
1226.14978 -1671.93054 32.83413 440
1207.75293 -1666.50073 -32.57437 403
1205.28101 -1662.58655 1.13799 440
1210.38403 -1670.68005 33.56997 442
1192.03638 -1665.07935 -31.38825 404
1189.33618 -1660.71936 1.63293 441
1194.97375 -1668.78284 33.94247 443
1176.55786 -1663.44153 -30.86602 407
1174.06750 -1659.67236 2.19477 449
1178.62219 -1667.57239 34.42184 444
27392.47461 -41771.36328 5871.45459 1000
1161.01990 -1662.22461 -29.97805 417
1159.38086 -1659.48547 2.74994 464
1164.04395 -1666.42139 34.99506 465
1146.83386 -1661.90210 -29.32387 417
1145.60962 -1660.11853 3.02373 471
1149.87268 -1667.29907 35.22953 470
1132.41113 -1662.72620 -28.71711 426
1132.09485 -1661.46277 3.51666 473
1135.81104 -1668.35608 35.52002 471
1118.76758 -1663.86780 -28.15649 427
1118.35815 -1663.15747 3.89137 478
1125.29382 -1673.58557 35.32115 488
1106.07385 -1664.93872 -27.74292 428
1106.06274 -1664.95886 4.26197 481
1115.89062 -1681.48059 35.34705 488
1092.78687 -1666.61890 -27.44110 432
1093.13538 -1667.20715 4.90706 481
1107.19946 -1691.14026 35.07810 391
1080.05798 -1668.66602 -27.12633 432
1080.66760 -1669.45532 4.91716 481
1105.14697 -1710.76660 34.65878 390
1067.61267 -1671.08240 -26.37280 432
1067.75952 -1671.45349 5.14004 485
1102.28528 -1730.34558 33.92655 389
1055.09192 -1673.61584 -26.27082 436
1055.94531 -1674.29663 5.44618 488
1098.97205 -1749.92957 32.96450 391
1035.41467 -1675.90930 -27.15799 437
1036.02576 -1676.98694 4.18079 491
1089.26880 -1770.31250 30.87763 386
1023.69177 -1678.72681 -27.24595 440
1024.27356 -1679.90137 4.78331 491
1086.60632 -1790.90344 29.82848 385
1011.70215 -1681.36450 -26.54860 440
1012.56927 -1683.40320 4.94245 490
1083.95117 -1812.25586 29.08644 384
1000.04547 -1684.84045 -26.57142 446
1001.11432 -1687.47461 4.73934 494
1080.96265 -1833.42322 28.04833 383
988.66467 -1688.75610 -26.61194 446
990.14380 -1691.37903 5.15768 492
1078.44263 -1855.18140 27.19460 382
977.72284 -1692.38245 -26.27993 448
979.31616 -1695.65271 5.31122 494
1075.61731 -1877.38940 26.13534 380
966.46185 -1696.78552 -25.86557 448
968.44598 -1700.29053 5.14070 494
955.37842 -1701.02881 -26.06627 448
957.66870 -1704.60413 5.20416 487
944.82379 -1704.91516 -25.90887 449
946.59027 -1708.81982 5.17098 487
933.77448 -1709.16589 -25.91165 449
935.67041 -1713.28564 5.05475 482
922.43341 -1713.38159 -25.74267 449
924.70343 -1717.97485 5.33830 482
911.73651 -1717.48816 -25.40950 449
914.01849 -1722.29980 5.44176 476
901.12811 -1721.93274 -25.34401 451
903.38312 -1727.51782 5.62463 469
890.13062 -1726.32666 -25.39599 453
892.95142 -1732.93835 5.47281 457
879.38690 -1731.26392 -25.61440 457
882.60333 -1737.75391 5.45151 453
868.48761 -1735.93042 -25.55969 476
872.19537 -1743.21753 5.59259 439
857.79126 -1740.19043 -25.30512 476
861.64105 -1748.65039 5.18875 439
847.63037 -1745.46130 -25.38683 477
851.97186 -1754.99182 5.11424 324
839.14825 -1755.26562 -25.87900 298
23579.51367 -60422.63281 -979.25085 1000
-451.45135 -3139.52295 -26.53644 495
-450.83081 -3140.24097 25.68738 497
-451.40848 -3141.02954 77.67220 498
-451.13092 -3142.33374 129.61224 476
-451.73361 -3144.54639 181.94928 432
-857.11676 -2559.72388 175.24944 391
-857.03278 -2558.62769 220.10135 448
-1265.48975 -1958.45972 14.07034 481
-1265.01099 -1957.66150 53.06166 499
-1264.78040 -1957.23279 92.41698 499
-1264.21423 -1956.72412 130.96835 492
-1263.93384 -1956.75354 169.85974 492
-1264.29333 -1956.80371 208.97409 461
-1264.16077 -1957.23376 247.79910 410
-9744.22070 -11174.73438 -2582.60791 1000
-40418.65234 -27567.66992 4137.89014 1000
-4387.19043 -2478.87939 130.89470 494
-3241.64722 -1636.49707 132.09039 429
-258.16550 -75.48775 35.34125 321
-13109.54102 -2825.83228 1238.75354 1000
-256.09995 -72.73424 36.01871 321
-254.11475 -70.10582 36.67865 322
-274.39694 -74.21327 37.72926 318
-253.41360 -67.73891 36.93816 352
-272.22031 -71.38215 38.40715 319
-255.36282 -65.95541 36.48350 351
-270.33408 -68.78313 38.96972 322
-39968.21875 -7550.59766 4820.37354 1000
-257.15179 -63.99899 36.07758 351
-271.62952 -66.68071 38.65248 345
-290.05081 -69.97191 40.81716 318
-259.10428 -62.18188 35.71348 350
-273.56299 -64.66668 38.26867 347
-289.77551 -67.51611 40.99439 341
-260.91302 -60.23836 35.30144 350
-275.59552 -62.72426 37.88575 346
-291.58743 -65.39665 40.60858 341
-265.92969 -58.85431 33.99680 320
-280.32156 -61.12350 36.78518 323
-296.77295 -63.87309 39.48567 313
-272.28134 -57.57207 32.40753 319
-197.22542 -11.27547 53.35349 324
-197.27892 -9.41781 53.40001 324
-197.23148 -7.66929 53.34929 324
-197.28633 -5.80591 53.34184 324
-197.26337 -3.98651 53.38628 324
-197.22231 -2.26334 53.37865 324
-22229.50391 -184.59984 -233.17555 1000
-197.17647 -0.45142 53.40266 324
