# .PCD v.7 - Point Cloud Data file format
VERSION .7
FIELDS x y z rgb
SIZE 4 4 4 4
TYPE F F F U
COUNT 1 1 1 1
WIDTH 1023
HEIGHT 1
VIEWPOINT 7062.080078 -1793.717163 139.822235 -0.646044 -0.108887 -0.098754 0.749011
POINTS 1023
DATA ascii
-17724.68164 936.45526 701.49872 451
-17581.36914 932.88391 989.93665 457
-17656.83594 1042.76379 701.32556 452
-17520.24414 1036.34924 983.22748 457
-17597.68164 1149.80750 697.46411 462
-17466.62109 1138.63171 980.60663 463
-17543.49219 1252.65198 695.78601 462
-17412.00977 1243.17432 979.69232 464
-17489.78711 1357.93481 696.63049 462
-17356.45312 1349.80396 978.27704 464
-15186.16699 1186.19373 3957.39624 1000
-17435.38477 1460.36877 694.62561 462
-17301.57812 1450.94287 974.40472 465
-17381.39648 1564.70349 693.16364 463
-17249.91016 1553.38794 974.63336 465
-17329.51367 1667.32104 692.29944 463
-17196.25391 1658.27637 970.22919 466
-17275.77734 1769.42334 689.05688 464
-17140.81836 1756.83167 970.42365 467
-17218.37891 1872.57104 686.24207 464
-17088.76562 1861.44763 966.06201 467
-17164.17773 1974.89294 684.20197 465
-17038.13477 1960.46313 966.01508 468
-17114.07617 2076.19141 686.08173 465
-16986.51953 2060.52563 964.34894 468
-17061.43555 2175.61621 685.56079 466
-16935.47852 2160.76050 962.29108 469
-17009.33594 2275.40234 681.02808 466
-16879.62109 2257.57153 956.40295 469
-16954.28516 2373.83887 681.66394 467
-16827.46094 2359.76318 956.05249 470
-16904.41406 2475.34497 679.60010 467
-16777.13477 2457.59058 955.97595 470
-16853.96289 2574.78320 678.98212 468
-16726.54688 2553.87500 955.29559 471
-288.73907 60.56035 35.95250 264
-16798.72070 2672.87280 679.39819 468
-16676.23633 2652.61450 951.71777 471
-267.75687 59.56684 34.90039 326
-281.97391 61.93512 37.60200 323
-298.44382 64.62875 40.20637 314
-16750.82422 2772.24219 674.92761 469
-16626.28711 2752.75977 951.01489 471
-263.64664 61.15563 35.94577 350
-278.09726 63.54987 38.43960 347
-294.11609 66.34606 41.16958 341
-16697.27344 2870.04980 674.98822 469
-16575.89258 2848.51221 948.70343 472
-261.62918 62.99506 36.31098 351
-276.06662 65.59264 38.90998 345
-292.21619 68.44048 41.44312 319
-16648.98047 2964.36938 671.67401 469
-16521.83203 2944.98218 944.53851 472
-259.74960 64.87695 36.73069 351
-274.16776 67.52621 39.25952 345
-293.91455 71.19296 40.92071 319
-16597.50195 3063.00757 674.04840 470
-16474.02539 3041.14136 942.75671 481
-257.82419 66.81171 37.08954 352
-274.33740 69.86029 39.08288 322
-16546.44336 3158.44263 673.07861 470
-16422.81836 3133.47339 943.39478 481
-256.33377 68.74310 37.40246 325
-276.16422 72.65366 38.46358 319
-16492.45898 3252.94629 669.79614 471
-16373.27539 3228.88013 941.83936 481
-258.19110 71.35358 36.71618 322
-16445.40430 3347.46313 668.77936 471
-16324.35449 3324.11230 941.92731 482
-260.09189 73.94175 36.03996 321
-16393.60938 3443.81885 669.39819 472
-16276.99121 3418.58008 937.07776 482
-262.03476 76.66357 35.37990 321
-16342.63086 3541.04590 668.75836 472
-16226.96680 3513.18530 936.05963 483
-16293.36426 3633.72607 667.34637 472
-16176.58398 3607.06201 937.37445 483
-16243.42188 3726.29541 666.05225 473
-16127.89160 3703.32056 932.24060 483
-16194.27832 3822.80444 662.36505 473
-16077.42480 3794.73218 931.78351 484
-16085.14844 3797.68481 1206.43262 384
-16147.46094 3917.25391 664.79639 473
-16030.95801 3890.79346 932.43097 484
-16036.28320 3890.09717 1203.92615 384
-16095.14258 4010.35693 661.56580 474
-15980.17871 3979.72559 928.22375 484
-15985.29395 3984.11475 1202.86560 384
-16678.68750 4157.60547 1532.85291 404
-16047.32324 4104.97461 662.23816 474
-15933.97363 4072.39307 929.68103 485
-15932.42285 4074.04663 1201.83557 384
-16607.37109 4244.96094 1529.61438 404
-15996.62695 4197.64844 661.62732 474
-15885.08301 4168.57275 929.38947 485
-15884.13281 4165.83984 1197.05981 385
-16534.95508 4338.11523 1523.69373 405
-15950.13379 4288.77490 660.28735 475
-15835.86426 4258.97266 926.88342 485
-15830.56836 4258.65137 1195.66980 434
-16458.53906 4425.08350 1520.87769 405
-15903.04883 4382.37549 659.10309 475
-15789.61035 4351.78955 927.13776 486
-15785.78809 4350.51709 1193.90649 426
-16392.73438 4515.79785 1517.33374 480
-15852.95508 4471.36768 657.63916 475
-15739.75098 4440.39062 924.23309 486
-15737.83008 4440.45801 1191.89111 426
-16318.86523 4606.63574 1514.49695 481
-15802.28223 4563.59619 656.08826 476
-15693.77637 4534.73877 924.50562 486
-15691.32227 4532.95703 1191.31140 426
-16254.45703 4695.04736 1507.49475 482
-15757.01660 4656.61084 658.78711 476
-15647.93848 4627.21875 920.91925 487
-15646.16797 4623.07471 1190.54736 426
-16185.54688 4782.91016 1508.37708 482
-15706.37793 4747.96094 657.31238 476
-15600.09961 4716.33936 921.91064 487
-15600.51172 4714.59766 1189.33386 427
-16122.22754 4871.43701 1501.56909 494
-15661.32227 4838.89209 655.24561 476
-15550.29590 4803.83008 921.18738 487
-15554.33105 4806.73145 1186.40613 427
-16068.19922 4967.22949 1500.73889 494
-15613.62988 4929.79443 656.06274 477
-15505.44629 4895.05762 920.50195 488
-15507.18750 4898.30127 1187.29785 427
-16018.70996 5060.13916 1498.63464 495
-15563.03906 5020.15430 655.45685 477
-15458.62793 4985.17236 917.13916 488
-15461.33887 4986.65332 1184.35437 427
-15968.65625 5151.24902 1497.10254 495
-15514.21484 5109.30029 650.92389 477
-15408.08301 5077.97266 914.60944 488
-15911.16016 5241.75098 1220.50867 457
-15917.95020 5245.26270 1494.80579 495
-15466.03906 5199.54688 654.27631 477
-15360.00391 5168.52490 917.55194 488
-15813.01562 5317.23779 1215.82324 458
-15869.43457 5335.15674 1493.52869 496
-15419.15625 5290.49658 650.50385 478
-15317.30176 5258.41553 912.97791 489
-15716.18066 5392.64697 1209.28125 459
-15819.70605 5427.93604 1491.49170 496
-15373.87109 5381.83984 650.72955 478
-15266.57812 5346.56738 915.31793 489
-15621.41504 5466.56836 1204.26538 460
-15769.59277 5518.93066 1489.88379 496
-15324.81348 5473.52148 649.24072 478
-15221.77930 5436.38916 913.97559 489
-15525.61426 5544.90869 1202.64099 460
-15650.11621 5590.10059 1486.73083 361
-15278.10254 5562.61035 649.10107 478
-15175.49023 5522.55664 913.56555 489
-15429.73438 5619.32471 1197.30408 497
-15599.11719 5677.62256 1482.85010 361
-15230.03027 5651.13086 647.49286 478
-15129.96289 5615.54492 910.94232 489
-15384.18262 5706.17969 1194.38965 497
-15543.47852 5768.84229 1479.22266 330
-15648.57422 5806.53516 1768.43079 497
-15823.19238 5870.03516 2065.75098 459
-15184.95703 5741.60938 651.61023 479
-15081.31152 5703.73535 913.66577 490
-15334.44238 5796.12402 1193.12305 497
-15491.98828 5857.86084 1477.65320 330
-15599.94336 5899.99658 1766.60999 497
-15725.34961 5943.82568 2058.01880 460
-2940.30444 1161.31702 128.98254 486
-2945.35156 1163.62646 182.37688 452
-15135.73438 5830.55469 648.79651 479
-15034.67285 5791.44434 911.23944 490
-15284.24121 5887.97266 1195.45349 497
-15519.84961 5976.67041 1486.33997 497
-15552.84668 5989.75439 1762.81982 497
-15738.88477 6059.21826 2062.54297 394
-15089.86816 5920.59375 650.49463 479
-14988.88965 5879.87793 909.78418 490
-15238.96387 5976.58594 1194.99255 497
-15447.22852 6057.10645 1481.18726 439
-15436.39746 6053.75830 1757.79980 439
-15040.07129 6006.35645 648.65076 479
-14940.01465 5966.19385 907.56030 490
-15188.37207 6066.01221 1193.22998 498
-15329.20703 6120.34033 1476.29883 440
-15317.13281 6116.93457 1745.26123 440
-14992.91992 6096.73145 647.74872 479
-14897.53320 6057.22803 909.66711 490
-15139.07324 6155.48584 1192.29089 498
-15211.83887 6185.12744 1467.86768 441
-15201.68457 6180.33691 1739.01575 441
-15356.75488 6241.65918 2031.57458 355
-14948.52734 6183.46045 647.06024 479
-14851.67969 6142.50000 910.23169 490
-15092.04980 6242.77637 1193.06384 498
-15125.31152 6258.13184 1462.26062 498
-15116.78516 6254.86182 1735.70679 498
-15227.66895 6300.93213 2021.34277 356
-14901.17285 6273.32959 648.67719 480
-14801.66211 6231.57422 907.89392 490
-15044.91406 6332.63525 1192.21899 498
-15078.43066 6348.42627 1462.44739 498
-15067.06934 6344.58252 1731.84802 498
-15175.18164 6390.19092 2018.08386 391
-15780.72656 6645.61426 2377.00562 483
-15773.52637 6641.65771 2664.80103 482
-15763.68164 6635.60645 2949.30347 482
-15754.50000 6631.12793 3238.37793 413
-14854.13184 6361.43506 647.25482 480
-14754.93652 6320.83301 908.55145 491
-14996.32715 6420.15576 1189.77173 498
-15000.71387 6425.51367 1459.23169 498
-14991.77539 6420.90479 1729.31201 498
-15128.33203 6478.17871 2014.74719 391
-15329.65918 6566.08154 2319.89062 485
-14805.87402 6451.43408 644.60529 480
-14711.34766 6407.06006 906.27563 491
-14947.85449 6510.49463 1188.71570 498
-14952.76562 6513.53320 1458.53125 498
-14940.37207 6511.40674 1730.30811 498
-15074.16309 6567.40820 2017.99731 391
-15281.45117 6657.17334 2318.20898 485
-14758.93262 6537.73096 647.59259 480
-14666.60840 6495.48682 905.35803 491
-14897.20605 6598.60400 1185.82825 499
-14904.98926 6601.08105 1459.65381 498
-14894.67090 6598.85352 1728.65417 498
-15025.31055 6654.99463 2012.46143 391
-15231.62793 6747.46533 2319.68579 485
-14713.66797 6624.36523 647.86090 480
-14618.75684 6583.06006 907.53088 491
-14848.85645 6686.53271 1186.52100 499
-14856.53125 6690.84229 1457.63525 499
-14844.21680 6686.69238 1726.47998 498
-14978.25488 6747.80225 2012.06128 391
-15183.24414 6839.48145 2317.97485 485
-14667.29980 6712.52637 647.01208 480
-14571.67188 6673.39844 908.28577 491
-14800.81348 6776.69092 1185.99377 499
-14807.52051 6780.83057 1458.27979 499
-14798.15137 6774.95703 1727.19849 499
-14929.06836 6836.66602 2013.38660 391
-15130.52344 6927.91553 2317.43848 485
-14619.01367 6800.85742 646.27643 480
-14527.22754 6761.19727 904.79602 491
-14752.93652 6864.41748 1185.93115 499
-14759.50488 6868.83984 1456.95715 499
-14751.81152 6864.65576 1723.43103 499
-14877.90820 6925.27686 2013.87329 392
-14572.05957 6890.96484 646.22400 480
-14480.11523 6848.53223 904.92377 491
-14706.37500 6952.00537 1186.31555 499
-14714.10840 6958.20605 1454.24805 499
-14701.68750 6951.50781 1726.14917 499
-14828.38379 7014.02344 2010.28918 392
-14525.66309 6980.61963 646.13745 480
-14431.24121 6934.72363 907.41534 491
-14660.65723 7041.96143 1185.75586 499
-14692.07715 7057.76318 1459.06702 499
-14680.73242 7054.72363 1727.41418 499
-14780.12012 7099.15723 2009.22620 392
-14480.76172 7065.11816 642.38745 480
-14386.78906 7021.12939 907.43268 491
-14610.46582 7130.69971 1186.66907 499
-14643.64648 7145.07910 1457.89294 499
-14634.82715 7143.62500 1728.36389 499
-14734.83008 7189.51074 2008.26099 392
-14434.01660 7153.70703 645.97003 480
-14339.47754 7111.31738 902.81335 491
-14561.02637 7217.99121 1182.94849 499
-14453.11523 7162.89941 1445.64722 479
-14414.88867 7144.35791 1707.82019 392
-14684.88965 7277.40137 2010.71924 392
-14386.50684 7240.69141 645.77313 480
-14294.88184 7196.72363 902.58313 491
-14515.10352 7306.16943 1184.30310 499
-14547.63086 7324.32373 1458.60339 499
-14536.44727 7318.08643 1725.62073 499
-14635.86230 7367.43750 2007.06091 392
-14339.46777 7328.30029 645.68304 480
-14249.83203 7284.88477 904.53271 491
-14467.43848 7394.33691 1184.02197 499
-14501.22949 7411.77930 1456.79834 499
-14490.51660 7407.86279 1723.65759 499
-14586.94727 7457.01270 2008.24280 383
-14293.97461 7419.57373 644.89227 481
-14203.91602 7370.66016 906.00018 491
-14416.45996 7482.83789 1183.60254 499
-14452.76074 7499.90430 1455.24243 499
-14441.39453 7493.49023 1723.27283 499
-14544.00293 7549.17529 2008.02319 365
-14247.19922 7506.26514 645.00958 481
-14155.26465 7460.08252 904.64819 491
-14368.91992 7572.74219 1184.27856 499
-14448.70703 7609.50098 1458.31006 463
-14440.12109 7605.75391 1728.35901 463
-14563.01074 7674.35889 2018.95984 365
-14199.17773 7594.23633 642.06482 481
-14111.48242 7546.30518 904.37476 491
-14322.68164 7656.99561 1184.79895 499
-14456.83789 7728.16260 1462.66760 462
-14445.78516 7722.52295 1735.66211 462
-14582.26465 7796.20020 2025.56580 364
-14154.90820 7679.17188 645.60223 481
-14064.10840 7633.22559 904.83661 491
-14276.89844 7747.59424 1184.73987 499
-14440.45508 7835.60986 1466.71887 479
-14452.71289 7845.56445 1741.01672 461
-14108.54297 7766.53857 646.12823 481
-14018.32520 7720.69629 904.87103 491
-14229.74414 7837.63330 1181.71216 424
-14420.83008 7941.92578 1468.58606 479
-14458.64355 7964.88037 1749.14062 460
-14061.92480 7858.79541 642.23828 481
-13973.67578 7809.42041 905.09705 491
-14232.21680 7951.04639 1189.62598 424
-14407.91992 8048.26611 1473.05920 478
-14015.14746 7945.51172 644.17163 480
-13928.06641 7897.29590 906.93066 491
-14231.32324 8069.46924 1192.59863 423
-14388.53906 8153.49365 1477.76062 478
-13966.25293 8032.13232 644.50885 480
-13881.88477 7982.37402 903.54498 491
-14237.06934 8186.83154 1193.21729 422
-13918.08984 8121.46094 643.29401 480
-13834.91016 8068.82471 906.70837 491
-14228.99121 8300.81836 1197.04944 405
-13874.78418 8205.47949 645.12256 480
-13786.15918 8158.42627 904.29559 491
-14204.83984 8401.30664 1198.40942 405
-13827.84375 8294.74512 646.61365 480
-13740.13867 8245.80664 905.21204 491
-14180.32715 8509.39551 1202.83008 404
-13777.92773 8385.29688 645.68701 480
-13695.73145 8332.51465 906.09583 491
-13731.37891 8472.59570 643.02783 480
-13649.86719 8421.18359 905.21899 491
-13688.13184 8560.27734 644.11279 480
-13604.96973 8506.91211 904.54297 491
-13640.47070 8647.21582 644.19989 480
-13556.17773 8594.44238 905.96991 491
-13589.75977 8736.56348 644.83899 480
-13512.40723 8684.85742 906.71155 491
-13544.23535 8825.81543 647.68622 480
-13462.51758 8772.88574 907.10828 490
-13497.08496 8910.08301 645.46991 480
-13418.54395 8859.69531 908.70050 490
-13450.81250 8999.90137 647.27612 479
-13368.19434 8949.53906 908.18646 490
-13403.62012 9087.91797 647.80621 479
-13325.81543 9036.82520 906.51947 490
-13355.32617 9179.34180 645.08270 479
-13278.21191 9125.75000 910.84998 490
-13306.62012 9267.84961 647.75696 479
-13231.34570 9214.47266 911.91486 490
-13262.62793 9357.94043 647.74731 479
-13183.83496 9302.32715 910.84534 490
-13213.28906 9445.12500 646.03619 479
-13137.61426 9388.09473 912.85529 489
-13167.03516 9531.81152 647.27887 478
-13091.57520 9476.94434 911.94495 489
-13095.10840 9486.10547 1177.83997 429
-13118.61133 9622.39648 647.43213 478
-13042.27734 9569.86914 913.48694 489
-13051.11133 9571.69922 1177.76843 429
-13068.70508 9712.24414 647.22003 478
-12993.69238 9658.71777 910.65796 489
-13003.38379 9660.08203 1178.98132 429
-3572.67773 2739.91846 -552.03345 1000
-13022.61133 9802.79395 649.39447 478
-12949.29492 9745.80566 911.82001 489
-12954.05664 9749.00879 1183.16064 428
-12976.16504 9894.35742 651.31982 478
-12898.78125 9835.47754 916.06732 488
-12904.75488 9840.25391 1181.93030 428
-12927.10645 9983.24219 651.77905 477
-12850.89258 9926.58301 914.24664 488
-12857.62598 9930.32910 1181.48999 424
-12878.07227 10069.40918 653.14160 477
-12806.92090 10014.97656 917.41602 488
-12810.05469 10016.92676 1182.59338 424
-12832.05859 10162.34961 652.72491 477
-12759.18066 10103.05469 917.97308 488
-12760.87305 10109.14844 1187.69434 438
-12782.22363 10251.67578 652.67090 477
-12707.84668 10194.71777 915.89136 487
-12719.18066 10202.05371 1187.51135 398
-12735.15527 10344.29297 651.51050 476
-12662.29688 10284.52832 919.64032 487
-12674.04492 10296.96582 1188.81482 397
-12687.02051 10435.39160 651.91394 476
-12611.92969 10373.55664 917.81439 487
-12636.22461 10523.31348 655.12115 476
-12563.63770 10468.41797 920.84174 486
-12587.35449 10615.31641 653.42175 476
-12517.65723 10556.72070 920.84082 486
-12546.66992 10714.29297 655.19647 465
-12466.71484 10647.52246 923.88934 486
-12509.22363 10816.35840 658.95953 467
-12420.76074 10738.50293 924.31104 485
-12470.70020 10919.58301 657.61493 467
-12379.02832 10835.94238 924.52313 467
-12433.11426 11020.86816 660.12836 466
-12340.98242 10941.32910 927.17169 466
-12394.77246 11126.53516 662.35059 466
-12302.44629 11041.27637 929.19104 466
-12360.78320 11229.71582 660.18512 465
-12262.50586 11144.84473 931.35284 465
-12320.26953 11333.18262 665.42218 464
-12223.91406 11248.18945 933.79077 465
-12297.28906 11454.84570 663.44824 424
-12186.82812 11353.80078 933.25500 464
-12280.40039 11578.16602 666.78021 423
-12148.27148 11459.85254 936.77753 464
-12271.01367 11714.37988 673.08307 401
-12112.55762 11561.89160 937.65460 464
-12263.41602 11850.16211 675.72900 400
-12083.55566 11682.59180 940.10510 424
-12252.14453 11989.78809 678.69379 399
-12068.99902 11808.13867 946.98981 423
-12261.32910 12142.75781 680.64606 373
-12050.27930 11935.90527 949.45667 422
-12027.89551 12067.39746 952.56500 422
-12011.75781 12196.58105 957.61786 400
-12016.26367 12350.87891 963.19574 373
-12021.27344 12512.05957 970.09082 373
-12029.82520 12676.28809 976.50989 372
-1426.53979 2123.74585 129.40714 296
-1386.94348 2096.16699 129.35483 346
-1442.60999 2175.06470 172.74483 290
-1399.42883 2141.20093 86.75368 329
-1354.79431 2078.31860 129.46175 372
-1442.91956 2203.63086 173.21095 293
-1359.64331 2112.29663 87.50172 326
-1328.08154 2066.26733 129.67471 366
-1437.72485 2225.94312 173.05511 302
-1328.72583 2094.70435 88.08629 365
-1302.07886 2056.31250 129.40747 367
-1287.38159 2061.73242 89.03461 279
-1278.27368 2048.00073 129.24406 379
-1252.86096 2037.28992 89.18303 344
-1255.62683 2040.97485 129.63533 343
-1225.68018 2022.38745 89.99968 345
-1234.15063 2036.28918 129.77725 344
-1201.29749 2012.71436 90.36304 361
-1213.66638 2031.86987 129.58992 347
-1178.28491 2003.62659 90.44973 406
-1191.81641 2024.80603 129.66573 384
-1157.42932 1997.77881 91.05960 417
-1177.88855 2030.39465 129.85524 288
-1220.63672 2098.48584 170.20627 428
-1136.87683 1991.96570 91.40023 418
-1199.47974 2094.12939 129.68501 429
-1199.65173 2094.05371 170.06635 429
-1116.76392 1987.18262 91.31665 429
-1179.21814 2089.41162 129.44595 430
-1186.00500 2100.09326 169.57280 384
-1097.47424 1982.93823 92.04002 430
-1161.07068 2088.27148 129.50096 421
-1169.73987 2103.08447 169.44170 376
-1078.26392 1978.47876 91.71784 431
-1156.62219 2109.74805 129.46114 419
-1164.40845 2124.33154 170.11884 497
-1059.36316 1974.05127 92.11700 432
-1151.40283 2131.58667 129.70375 418
-1171.84314 2166.77490 170.81606 382
-1040.67651 1969.98853 92.68610 433
-1102.06042 2076.51123 129.90735 434
-1167.84192 2189.62476 170.63200 381
-31208.32227 54177.06250 13583.90234 1000
-1022.39740 1966.39612 92.86228 434
-1078.95618 2065.78784 129.51523 435
-1079.63660 2066.20947 168.41432 435
-1004.00696 1962.53833 93.21605 435
-1061.58350 2064.74365 129.92599 415
-1060.27771 2062.44165 168.07703 436
-1007.68634 1997.69250 54.82460 425
-986.20782 1958.54749 93.11549 436
-1056.56042 2086.20605 129.66565 414
-1055.52673 2082.94580 168.67136 415
-12403.59277 22912.01758 -5979.23730 1000
-989.48224 1993.53149 55.58379 426
-968.66956 1954.86963 93.34953 437
-1049.17395 2102.01587 129.88878 467
-1055.73682 2114.82666 248.13533 264
-971.24670 1988.99377 55.73739 408
-951.10883 1951.33813 93.50864 438
-983.06946 2010.61475 130.02612 439
-1042.28894 2119.95508 208.21204 485
-1034.07141 2106.16528 247.32570 350
-953.18414 1984.74060 56.22177 409
-933.62866 1947.59192 93.84705 439
-965.23749 2007.07422 129.63216 440
-965.40753 2007.17822 167.10068 440
-1010.23651 2092.45483 246.10898 440
-935.17896 1979.88855 56.67346 410
-916.26276 1943.83765 94.15833 439
-953.47955 2014.73828 129.75897 441
-953.28717 2013.59302 166.88721 404
-917.65594 1975.51709 56.82277 410
-899.37579 1940.63550 94.29095 440
-940.38208 2020.02014 130.02000 458
-944.98120 2028.56299 166.83730 388
-999.45892 2134.22461 247.55029 484
-998.66394 2133.62842 286.55014 442
-998.99353 2134.15527 326.39780 442
-900.02271 1971.31409 57.84387 411
-882.92603 1937.09753 94.22792 441
-945.22180 2060.38550 129.53989 407
-939.65485 2049.60278 167.27112 387
-882.79822 1966.96350 57.95617 412
-866.19629 1933.75098 94.77961 442
-940.44293 2082.61475 129.91878 406
-934.99823 2072.01343 167.74193 385
-863.44580 1958.39832 58.76991 313
-849.42285 1930.02026 94.72420 443
-935.02173 2104.85132 129.83148 405
-930.44208 2094.86328 167.87514 384
-845.27417 1951.91040 58.99641 313
-833.00354 1926.68567 94.82411 444
-930.28656 2127.87207 129.58862 404
-925.40521 2117.46655 168.17984 383
-827.56354 1945.04077 59.44358 313
-817.07886 1923.19678 94.97728 422
-925.35016 2150.31104 129.53656 408
-868.13043 2030.95886 166.50597 382
-809.29364 1938.13757 60.15119 314
-800.82697 1920.32544 95.09254 422
-919.49420 2173.22485 129.81549 407
-863.62848 2053.89185 166.64886 381
-792.12524 1931.55811 60.36095 314
-785.32562 1917.12878 95.39634 423
-774.82336 1925.19849 60.93015 315
-769.70087 1914.30713 95.70815 424
-757.41956 1918.78345 61.35460 315
-754.61682 1911.29614 95.72980 425
-842.21216 2108.79150 242.86748 467
-740.57220 1912.94043 61.57183 400
-739.00000 1908.81909 96.18076 425
-842.49249 2144.94043 167.83766 469
-841.48071 2142.95361 206.41490 452
-833.24402 2123.06470 243.97304 397
-725.13678 1908.45105 62.01824 400
-723.66309 1905.84119 96.04314 426
-709.33722 1904.44873 62.10982 401
-708.49304 1902.64929 95.93514 427
-693.84381 1900.35986 62.64619 402
-693.69501 1899.86951 96.30399 428
-678.24115 1896.03235 62.81927 402
-678.53241 1897.45715 96.80984 428
-663.86102 1894.04163 63.50006 438
-664.52502 1895.39502 96.58701 461
-650.84088 1895.67615 63.42135 438
-651.66089 1897.43494 96.99413 402
-638.33234 1898.28894 63.55225 354
-639.76477 1901.75769 96.57010 402
-626.59302 1902.30603 63.72858 354
-629.52222 1909.42126 96.76157 326
-668.64935 2049.54150 58.27893 380
-681.51355 2085.12134 93.28300 262
-663.04535 2074.46558 57.87920 379
-670.29437 2093.77759 93.47667 263
-658.09650 2099.74023 56.69876 378
-658.50281 2102.53076 93.39659 263
-649.89624 2077.47778 130.04266 461
-652.79797 2125.71387 56.45616 377
-648.22156 2113.19702 93.07391 377
-643.42273 2141.62158 55.94581 320
-639.78674 2131.75000 92.83256 436
-626.19116 2135.59546 56.24837 321
-624.09088 2128.98828 93.33533 437
-22208.65820 65641.53125 3483.41895 1000
-611.50629 2133.66260 56.21896 354
-609.48431 2128.24561 93.14528 466
-598.51709 2138.46509 56.59325 354
-595.72003 2130.21167 93.47501 393
-585.45911 2143.87524 56.69282 354
-582.60736 2135.23535 93.57872 393
-161.44557 852.63629 13.89826 406
-163.22314 858.30902 27.92057 338
-154.54141 849.06299 14.65478 459
-155.32513 851.64844 28.85715 458
-156.29692 854.61621 43.43154 406
-157.60014 859.08704 57.59103 280
-148.53218 848.32410 14.83828 491
-149.29001 850.45740 29.15009 491
-149.94315 852.32770 43.72410 491
-150.70688 855.02313 58.13327 486
-151.15497 857.21411 72.65708 453
-152.10266 860.04388 87.10466 406
-143.30959 849.36505 14.82673 499
-143.82922 851.37000 29.46643 499
-144.41496 853.19910 43.75023 499
-144.86186 855.33551 58.11705 496
-145.90065 858.21503 72.60853 497
-145.78308 858.72583 87.30531 498
-146.88138 862.44824 101.83009 428
-138.25275 852.30115 14.66302 482
-138.84845 854.11597 29.18399 482
-139.29340 856.03546 43.64351 482
-140.05836 858.39032 58.12891 449
-140.56259 859.69763 72.72903 443
-141.07956 861.92236 87.28527 444
-133.95734 857.07123 14.35606 442
-134.74734 859.31464 28.76447 384
-135.49396 862.29498 43.09235 384
-136.41982 866.24536 57.58836 376
3398.09497 62224.53125 8309.67871 1000
2663.74365 7647.86865 1871.76367 1000
29431.97656 55151.14844 -2938.84863 1000
3226.46460 5323.84814 -1317.07336 1000
37178.70703 55834.58594 2238.72290 1000
8460.27148 9271.87109 -2577.05688 1000
18123.36523 9126.69922 -3890.72070 1000
2764.54321 1332.87976 -63.59051 290
2768.09619 1334.46484 -15.34054 413
2772.12646 1315.90662 -63.78404 442
2863.67896 1360.90796 -20.30713 287
2787.71753 1303.56421 -64.69936 434
2946.69849 1380.71997 -24.02824 327
2803.44116 1290.50635 -64.74308 427
2974.56128 1372.29541 -24.73478 269
2819.91602 1277.99646 -65.83061 425
2978.67920 1352.14954 -25.11955 492
2836.10962 1264.55286 -65.78339 425
2982.16626 1332.82410 -24.43770 492
2852.08398 1251.40344 -66.50861 425
3017.56470 1326.76428 -26.14157 393
2900.72241 1253.59924 -70.28629 421
3135.62012 1357.65417 -31.54397 414
2886.77466 1226.46179 -68.28019 409
3135.08350 1335.65857 -30.87930 312
2905.59814 1214.08997 -68.97307 404
2959.16968 1237.52026 -21.34673 389
2925.59546 1202.25500 -69.76313 403
2956.19238 1215.38037 -20.52497 310
2947.78564 1190.84961 -70.87093 397
2957.17700 1195.00122 -20.80737 299
2970.69287 1180.18604 -72.16536 391
2969.53052 1179.69739 -20.72058 435
2995.69385 1169.26794 -73.37261 383
2991.05640 1167.62512 -21.30019 424
3025.38965 1160.69214 -74.61078 370
3016.29150 1157.39844 -22.44908 412
3059.86353 1153.04016 -76.89386 356
3047.76172 1148.95361 -23.67582 380
3095.98096 1146.24939 -78.22914 354
3084.32715 1141.79688 -25.37920 379
3135.16113 1139.60657 -80.25999 362
3120.57422 1134.66833 -26.50315 377
3171.71533 1131.66211 -82.93237 361
3176.52686 1134.11646 -29.01303 263
3209.52661 1123.79260 -85.00573 359
3212.29126 1125.27502 -30.86934 281
3247.53027 1115.92712 -87.26344 362
3245.13159 1115.12219 -31.72448 323
3290.00830 1108.58606 -89.63319 361
3282.43359 1106.82043 -33.12088 323
3332.51440 1101.66882 -91.59480 362
3321.77100 1098.18469 -34.90798 322
3375.72852 1094.29053 -94.29993 360
3362.08325 1089.63696 -37.04247 357
3416.22095 1085.09192 -96.67619 340
22629.74414 7207.50049 2856.19580 1000
1702.66138 376.61832 -57.45684 327
1695.78564 364.47137 -56.76100 487
1699.97559 365.54459 -29.57831 487
1704.42505 366.55597 -2.85354 487
1709.13965 367.88562 23.64639 460
1697.22351 354.67963 -56.56585 487
1702.18018 356.00580 -29.90390 486
1707.42834 357.12228 -2.85604 451
1715.47144 358.85397 23.37171 325
1705.49976 346.29663 -57.00371 395
50656.33984 3220.34888 -9925.95312 1000
2732.34644 -138.95595 -83.40260 469
2739.16724 -139.47157 -39.99232 357
2730.35571 -154.80147 -83.47791 475
2737.14307 -155.68063 -40.53283 377
32071.54883 -2091.54370 -8438.86621 1000
3713.02612 -436.75970 -45.44434 366
3709.42480 -459.21564 -104.96200 318
3691.93872 -457.40387 -44.70272 461
3687.97217 -479.03568 -103.56210 386
3683.24268 -478.01987 -44.04585 427
3673.62793 -499.43433 -103.16623 359
3675.62109 -499.62048 -43.73519 430
3658.37305 -519.86237 -101.86094 417
3668.01904 -521.06049 -43.24976 395
3645.47900 -539.59601 -101.69741 460
3660.81665 -542.57538 -43.72749 402
3634.65015 -560.17255 -100.93658 465
3655.97681 -563.49365 -43.80216 354
3623.18530 -580.88342 -100.63204 467
3651.15918 -585.91821 -43.10567 347
3613.37915 -601.83990 -100.12824 489
3831.65649 -638.88660 -52.81017 491
3604.58032 -622.72327 -99.86299 492
3595.93652 -642.78735 -99.34531 492
3775.69116 -675.70282 72.48728 283
3587.91846 -663.34235 -98.78221 494
3646.49390 -674.60114 -44.20395 328
3696.35938 -684.19196 74.42476 292
3579.34912 -684.02759 -98.59747 494
3628.07861 -693.83606 -42.91031 492
3728.44043 -713.63037 12.21685 298
3625.94092 -692.86615 75.00093 293
3572.00000 -704.73248 -98.62918 496
3618.41089 -714.24316 -42.56887 493
3668.57422 -724.50250 14.52487 327
3601.57153 -711.08685 75.36266 412
3565.15576 -725.70135 -98.92968 496
3608.65381 -735.37689 -42.21096 493
3607.46802 -734.25555 16.29018 329
3603.96387 -733.61505 75.06055 425
3563.02490 -747.83447 -99.22166 499
3598.95312 -755.96075 -41.93542 493
3601.60547 -755.82709 16.16429 499
3599.57056 -755.27405 75.60502 425
3557.26001 -768.89655 -98.85925 499
3595.51660 -776.95258 -41.86411 499
3597.40332 -777.93048 16.54675 499
3596.04346 -776.85742 75.57069 425
65518.78906 -14519.89160 10109.06250 1000
3548.38135 -789.06421 -97.94314 499
3591.61206 -799.28027 -42.58704 499
3593.94312 -799.25092 16.36384 499
3591.70288 -798.76965 74.82794 425
3542.92432 -810.32703 -98.81313 499
3588.41211 -821.14551 -42.74070 499
3590.22656 -820.88763 16.55949 499
3587.81714 -820.23376 74.80594 425
3540.33350 -832.23120 -98.02456 499
3578.60449 -841.07825 -42.19624 499
3580.01660 -841.33295 16.97181 499
3584.37402 -842.15607 75.00109 425
3536.89746 -853.30542 -98.70866 499
3575.15894 -863.60284 -42.32682 499
3577.44482 -863.63226 16.28421 499
3579.67554 -864.61359 75.07268 424
3529.47900 -874.50037 -98.14443 499
3571.65210 -885.41833 -42.50240 499
3574.23999 -885.82465 16.72362 499
3576.29468 -885.86505 74.83479 424
3528.09302 -896.69153 -98.64191 498
3568.12817 -906.32428 -42.67493 499
3569.93481 -907.05762 16.06680 499
3572.12964 -907.37048 75.46575 424
3524.22388 -918.21869 -98.70383 498
3569.36426 -929.53168 -42.77688 498
3571.10864 -930.32294 16.02088 498
3568.63818 -929.69800 75.31139 424
3518.97290 -939.23651 -98.74689 473
3565.51147 -951.91510 -43.27388 498
3568.01636 -952.26514 16.53971 498
3564.42310 -951.88086 75.13595 424
3513.92139 -960.75806 -99.25761 498
3561.28467 -973.54999 -42.71827 498
3563.54126 -973.84595 16.25720 498
3560.04443 -972.72382 74.76066 424
3513.03955 -983.26953 -98.99151 498
3558.45874 -995.37030 -43.48147 498
3560.62427 -996.16956 16.34245 498
3555.80835 -995.27179 75.13572 424
3666.34619 -1026.29944 133.81023 495
3509.66089 -1005.07318 -99.81504 498
3554.31885 -1017.21295 -43.02003 498
3556.48730 -1018.00195 16.03958 498
3552.33789 -1017.37347 75.10783 424
3643.88818 -1043.65674 134.36333 472
3503.35352 -1025.01990 -99.20549 498
3550.72144 -1039.51929 -43.53341 498
3552.78027 -1040.24414 16.05360 498
3548.65771 -1038.87744 74.66325 424
3631.79321 -1064.38940 133.64517 373
3498.65869 -1047.12219 -99.70708 495
3631.39648 -1087.35486 134.10558 493
3494.43970 -1069.02148 -99.40662 495
3628.25757 -1110.93018 134.34764 472
3673.52612 -1125.20361 195.17859 497
3491.36572 -1090.38965 -100.15483 494
3674.96484 -1148.94727 133.99846 394
3487.54614 -1112.63916 -100.59209 494
3483.23315 -1133.91907 -100.75327 494
3479.79834 -1156.47095 -100.13377 494
3475.81592 -1177.94543 -100.64651 494
3472.57471 -1200.30225 -101.29041 493
3468.78174 -1222.39539 -100.90283 493
3637.11572 -1283.32129 -50.81577 293
3465.17065 -1243.99304 -101.36549 493
3620.16504 -1301.65588 -50.16446 495
3460.81152 -1266.06396 -101.91573 492
3457.55713 -1288.79431 -102.07361 492
3496.95215 -1304.17944 -45.02671 489
3453.44531 -1310.73083 -102.00938 492
3449.75513 -1333.85510 -102.96100 492
3490.78198 -1349.21375 -45.81115 356
3445.85791 -1356.20654 -102.87096 491
3501.19531 -1377.58533 -46.13506 494
3442.47144 -1378.82324 -103.51331 438
3481.28394 -1394.33057 -46.22586 463
3543.38062 -1445.33154 -111.68975 474
3527.23975 -1438.11462 -48.59964 498
3540.51660 -1468.74463 -111.63216 457
3484.88623 -1445.30688 -47.38170 479
3551.07104 -1472.63733 10.59470 263
3517.70850 -1483.91125 -48.97262 473
3478.83521 -1491.19543 13.22381 423
2194.45654 -1654.69971 -86.13370 411
2177.40503 -1662.15430 -85.39702 498
2183.01465 -1666.78271 -42.18820 491
2188.89380 -1671.27612 1.57740 463
2173.92676 -1680.53064 -86.17932 380
8933.97949 -9957.83887 -519.08459 1000
1362.84436 -1687.59985 -40.72903 410
1345.09351 -1685.81067 -40.14257 424
1324.41443 -1679.64136 -38.28886 412
1323.75476 -1678.40942 -4.13083 435
1309.44714 -1680.48145 -38.02399 424
1306.71643 -1676.41809 -3.55030 436
1292.84412 -1679.27271 -36.84214 424
1289.56812 -1674.63281 -2.68364 437
1276.08606 -1677.39783 -35.94274 426
1273.08960 -1673.43884 -2.13569 438
1259.42395 -1675.27173 -35.16489 427
856.92889 -1227.07275 -97.93800 439
1242.46960 -1673.56335 -34.33369 426
1240.12305 -1669.76794 -0.36461 440
1226.18433 -1671.68933 -33.48993 427
1224.00269 -1668.32715 0.32954 441
1210.13745 -1669.40027 -32.63387 428
1208.24463 -1667.07458 0.68088 442
1194.08203 -1667.92725 -31.80436 428
1192.34058 -1665.25586 1.49257 443
1177.72534 -1666.01172 -30.71154 429
1176.60559 -1663.40918 1.90716 444
1162.00452 -1663.86108 -30.22530 430
1160.98499 -1662.13672 2.56691 445
1146.72693 -1662.18726 -29.16832 431
1145.78662 -1660.77026 3.53925 446
1131.21130 -1660.55261 -28.30224 432
1130.24792 -1658.75269 3.80853 446
1115.80493 -1658.59766 -27.90350 433
1115.36182 -1657.31458 4.82461 447
1101.01904 -1657.11169 -27.11910 423
1100.18213 -1655.82349 5.17397 448
1086.18335 -1656.17761 -26.45189 424
1085.18848 -1654.79126 5.69398 449
1071.69824 -1654.45532 -25.67281 425
1070.84766 -1652.91699 6.24393 450
1057.49902 -1653.68359 -24.93295 425
1056.13110 -1651.64734 6.62425 449
1052.95105 -1670.09888 -57.82294 424
1043.13623 -1651.92749 -23.90660 420
1041.65332 -1650.23877 7.19646 452
1031.40405 -1669.07910 -51.17855 419
1020.71674 -1650.52087 -17.78691 421
1019.40198 -1648.47083 13.86594 453
1017.57178 -1667.97900 -50.40205 420
1006.32648 -1648.32837 -17.02806 422
1005.08240 -1646.94983 14.06596 454
1003.44672 -1666.83289 -49.57014 421
992.19574 -1646.58313 -16.55451 422
991.20081 -1645.62549 14.69947 455
995.31464 -1652.46228 45.24251 456
17244.75000 -30982.28711 6678.38232 1000
989.33289 -1665.88562 -48.58664 421
977.80322 -1645.23828 -15.67669 423
977.46344 -1643.89441 15.14495 456
981.83240 -1651.74280 45.50970 457
975.40527 -1664.58008 -48.19106 422
964.08447 -1643.73901 -15.13836 419
963.59833 -1642.48047 15.65996 457
968.23853 -1650.80823 46.13079 458
962.04236 -1663.60754 -47.48202 415
950.71808 -1642.26709 -14.61861 421
950.21625 -1641.26978 16.00985 464
954.46191 -1649.72937 46.00601 459
948.75128 -1663.34204 -46.62138 415
937.51624 -1641.57117 -13.76816 422
936.90582 -1640.85596 16.77202 465
941.25598 -1648.28857 46.63474 460
935.44916 -1662.36499 -46.39922 411
924.56006 -1641.39050 -13.69176 430
924.23309 -1640.58643 17.10796 477
928.07794 -1648.13342 46.65875 478
922.27155 -1661.92798 -45.41902 413
911.74475 -1641.25244 -12.91795 431
912.24969 -1641.22412 17.24809 478
915.55176 -1648.79077 46.86385 482
909.71814 -1662.19116 -45.07623 415
899.81580 -1641.95386 -12.49516 438
899.89539 -1642.98218 17.49352 484
903.73248 -1649.89697 47.14512 482
897.67017 -1662.92542 -44.51463 423
887.85211 -1643.11230 -12.27253 438
888.37231 -1644.17786 17.65616 484
892.64587 -1652.88025 47.35659 481
885.45099 -1664.54797 -44.13475 427
875.71704 -1644.17737 -12.10700 440
876.66534 -1645.88000 17.96798 488
883.92615 -1660.92957 47.28690 483
873.80402 -1665.92603 -44.04983 427
864.40515 -1645.79773 -11.81217 439
865.40002 -1648.05347 18.14999 489
875.00842 -1667.92664 47.22582 482
861.87286 -1667.77795 -43.45535 434
852.91229 -1647.66919 -11.46900 441
854.05023 -1650.11646 18.46097 489
871.02277 -1686.29700 46.52985 367
850.52435 -1669.76709 -43.08430 435
841.67218 -1649.41138 -11.24691 442
842.51379 -1652.40649 18.20931 490
868.46771 -1708.08606 45.22522 366
839.30023 -1671.96948 -43.00130 432
830.49939 -1651.77026 -10.84128 444
831.41833 -1654.34705 18.35278 495
865.90613 -1730.78870 44.52914 365
828.19769 -1674.77795 -42.92445 432
819.21985 -1654.42310 -11.03314 444
820.41632 -1657.32935 18.70675 495
863.47150 -1753.37512 43.40985 363
817.27325 -1677.32642 -42.54693 432
808.16095 -1656.78796 -10.90438 444
809.48474 -1659.86926 18.76959 496
860.68512 -1776.95129 42.64207 362
806.00391 -1679.99341 -42.82843 433
797.28564 -1659.83435 -10.63992 446
798.99719 -1663.15845 18.87204 496
857.67969 -1799.67285 41.43708 361
795.42542 -1682.89539 -42.31360 436
786.81244 -1662.75171 -10.37819 447
788.40796 -1666.36206 18.99822 495
855.82416 -1824.86865 40.66545 360
784.55121 -1686.03357 -42.26892 437
776.14764 -1665.48035 -10.55666 450
777.67883 -1670.03906 18.73846 497
852.70044 -1850.16260 39.45744 359
773.43091 -1688.65747 -42.16285 437
765.58002 -1669.61328 -10.64263 450
767.60620 -1673.73621 19.07418 497
763.02271 -1692.51453 -42.37678 442
755.24255 -1673.26172 -10.37762 450
757.16626 -1678.03796 18.71802 494
752.38788 -1696.17065 -42.17361 442
745.05304 -1676.95447 -10.57292 452
746.99036 -1682.20483 19.00927 494
734.84778 -1681.14758 -10.43202 452
736.56189 -1686.79163 19.10196 494
724.53290 -1685.40723 -10.68084 452
726.37201 -1690.67517 18.86411 487
714.23199 -1689.26282 -10.23197 451
716.25220 -1694.84448 18.98717 487
704.04388 -1693.20776 -10.74082 451
706.30817 -1699.34436 18.69634 481
693.68286 -1697.44788 -10.80735 451
695.90948 -1704.26990 18.92624 475
683.41846 -1701.82373 -10.59398 451
685.69250 -1708.43115 18.64060 475
673.36353 -1706.19324 -10.66476 452
676.03943 -1713.84900 18.59461 464
662.97418 -1710.52979 -10.88265 454
666.19257 -1718.74219 18.64401 454
652.91327 -1715.09045 -10.82541 456
656.00275 -1723.86584 18.45098 448
643.17981 -1719.87488 -11.15811 467
646.21796 -1729.35754 17.92051 435
632.97919 -1724.68286 -11.13909 476
635.84399 -1734.38293 17.81560 435
623.06158 -1729.73291 -11.48543 465
626.59015 -1741.26660 17.51566 307
17922.54102 -58251.13281 -6722.63086 1000
612.78497 -1734.81519 -11.75895 465
-1331.76904 -50034.39062 11042.51660 1000
-655.39429 -3156.13184 30.95679 477
-655.83978 -3157.19946 84.01978 498
-656.02716 -3158.26172 137.08369 494
-656.26807 -3159.35034 190.03227 467
-1083.24646 -2572.22925 43.00609 481
-1083.26514 -2572.08179 88.86934 442
-1082.82373 -2571.32910 135.38939 383
-1083.00391 -2572.09473 181.72630 311
-1492.07935 -1985.37634 50.74090 453
-1491.10706 -1984.05383 91.97633 453
-1490.49670 -1982.94080 133.93666 454
-1489.24402 -1981.75806 175.07755 488
-1488.14624 -1980.25562 216.97861 488
-1487.83032 -1979.03809 258.37970 488
-4603.12891 -2560.34155 132.82214 496
-4033.73682 -2120.44165 132.17065 486
-3472.39917 -1695.89771 132.56245 468
-3481.83887 -1699.62903 197.16219 279
-43022.48047 -13763.28320 2354.07886 1000
-258.44104 -77.29403 34.76180 320
-256.39355 -74.54198 35.47052 321
-254.43097 -71.91228 36.06828 321
-252.38229 -69.26630 36.72698 322
-272.59265 -73.30394 37.80391 318
-253.03290 -67.15499 36.70716 352
-270.39011 -70.56555 38.48943 321
-254.82803 -65.25922 36.23491 351
-269.31631 -68.06400 38.75542 345
-290.14026 -71.92066 40.32753 318
-256.67444 -63.37383 35.81749 351
-271.11404 -66.07151 38.42825 345
-288.20264 -69.18089 40.85633 318
-258.62070 -61.50727 35.38554 351
-273.07385 -64.06200 38.05314 347
-289.05020 -66.86553 40.75367 341
-260.86493 -59.70079 34.90421 326
-275.05872 -62.04058 37.61553 347
-291.01562 -64.71461 40.38092 341
-280.66690 -60.69960 36.26411 323
-2202.86792 -173.78958 320.82648 1000
-195.67906 -12.39135 53.34396 324
-195.70921 -10.56730 53.31580 324
-195.66322 -8.79072 53.27053 324
-195.67128 -7.02295 53.30030 324
-195.63318 -5.20324 53.28112 324
-195.63673 -3.40081 53.27561 324
-195.62956 -1.62185 53.32814 324
-195.59642 0.18962 53.28816 324
