# .PCD v.7 - Point Cloud Data file format
VERSION .7
FIELDS x y z rgb
SIZE 4 4 4 4
TYPE F F F U
COUNT 1 1 1 1
WIDTH 939
HEIGHT 1
VIEWPOINT 6952.925781 -2415.108643 129.151733 -0.625820 -0.120227 -0.080341 0.766446
POINTS 939
DATA ascii
-16957.16406 1939.11755 685.19745 453
-16885.73047 2037.72498 683.47290 457
-16820.60352 2135.34448 677.31165 463
-16803.10547 2132.93408 959.90125 435
-16760.72461 2232.68433 679.94830 464
-16698.57812 2329.91748 674.76196 464
-16641.95703 2427.23828 674.30389 465
-16579.06445 2522.72485 674.33472 466
-16521.31641 2617.41943 671.95374 466
-16465.55664 2710.23267 668.58783 467
-16405.41992 2806.10156 670.89313 467
-16472.63672 2921.50195 397.09872 447
-16345.83789 2898.62744 667.63397 468
-16412.07227 3017.85645 396.59491 448
-16289.50684 2995.59668 664.73236 468
-16351.12500 3110.83081 394.85251 448
-16230.31445 3087.48071 666.57794 469
-16291.77344 3203.68652 395.77377 449
-16173.81445 3178.68896 660.94745 469
-16232.65723 3295.69067 391.09119 449
-16118.07617 3273.55322 661.21155 470
-16173.82715 3389.01050 394.42288 450
-16059.74219 3363.99658 662.64203 470
-16114.83594 3480.71875 390.55783 450
-16004.79980 3456.05737 660.95490 471
-16012.46582 3458.68286 930.68549 423
-16054.95410 3572.09888 389.25275 450
-15944.84375 3546.51807 656.76929 471
-15953.25879 3549.62378 929.01385 423
-22609.55469 5163.29004 -1410.58997 1000
-15998.61523 3661.17993 388.08456 469
-15891.49805 3635.98804 655.90259 472
-15898.27441 3641.18164 924.61432 425
-15943.55176 3752.28589 389.18161 469
-15835.78711 3727.89575 654.21228 472
-15841.64746 3728.16309 925.99615 425
-15887.32617 3844.38794 389.82751 470
-15777.69922 3817.43970 654.82416 473
-15783.40820 3819.23389 920.63062 425
-15828.44727 3934.39062 387.19360 470
-15721.86035 3907.12109 653.26166 473
-15729.80566 3906.60229 919.70068 426
-15773.45801 4022.41406 389.34125 471
-15666.72852 3995.55688 650.14893 474
-15673.57520 3999.66455 917.81152 426
-15719.18652 4111.90332 386.30878 471
-15614.79980 4083.10913 651.71198 474
-15614.57031 4087.89575 919.36456 426
-15662.09473 4202.60303 387.39539 472
-15557.14258 4172.38428 647.92419 474
-15564.25488 4173.21631 914.60620 422
-15606.75488 4288.29395 385.25565 472
-15503.01562 4263.26807 647.53625 475
-15512.11523 4262.30615 912.44806 422
-15551.68555 4378.53027 385.68265 472
-15450.14453 4350.52148 645.91107 483
-15459.98242 4354.24951 913.20160 382
-15499.98145 4464.92236 386.54483 473
-15392.78906 4438.62061 647.32892 483
-15407.09766 4438.98828 911.72083 382
-15444.16699 4556.17139 386.47443 473
-15342.12793 4522.10156 644.16541 484
-15358.65137 4527.92236 911.32629 382
-15387.58203 4640.33838 384.76489 474
-15286.53223 4610.58594 646.89545 484
-15333.69336 4729.81250 381.46555 474
-15237.40820 4696.49805 644.35803 485
-23779.70312 7474.15820 -2351.14014 1000
-15281.16797 4817.07861 382.01981 474
-15181.51953 4783.80664 645.70563 485
-15224.49512 4902.88086 381.18198 475
-15130.30176 4869.99023 642.47601 485
-15173.84570 4987.31299 384.30563 475
-15074.61523 4955.86963 643.84766 486
-15767.59570 5183.03271 940.83282 479
-15783.28906 5188.48584 1212.24414 403
-15119.45410 5074.13184 381.51263 475
-15023.26855 5043.79443 641.84259 486
-15696.80664 5269.13770 936.89673 480
-15710.92285 5273.96924 1211.01062 404
-15063.79883 5161.33350 381.39728 477
-14968.70410 5129.52002 639.18805 486
-15624.49121 5348.72021 933.79993 480
-15639.94727 5355.99316 1207.42249 404
-15012.76855 5246.38818 382.45346 477
-14918.64551 5211.19287 640.18018 487
-15550.73145 5432.71094 933.31464 481
-15569.74512 5438.37109 1206.60559 404
-42765.25781 15172.90723 -4382.37305 1000
-14956.99414 5329.96826 378.32452 478
-14865.37109 5299.28027 640.26044 487
-15478.95215 5513.28809 928.78302 482
-15498.67773 5522.73633 1202.20264 405
-14904.26074 5413.46045 378.79303 478
-14815.58887 5383.62207 637.67712 487
-15406.26074 5598.25928 930.66559 482
-15424.54492 5602.47021 1199.79443 405
-14852.25195 5501.82324 378.94867 478
-14763.30176 5467.95850 638.56158 488
-15334.47363 5679.11426 925.10071 483
-15352.92676 5688.07178 1198.89514 406
-14797.78223 5585.83887 380.18973 479
-14709.91699 5553.23877 638.19830 488
-15265.23340 5762.07324 924.31659 483
-15286.32031 5770.30664 1196.63013 406
-14745.82422 5669.11377 380.46902 479
-14659.45020 5637.17969 638.00092 488
-15197.29297 5840.48291 921.40588 495
-15215.99316 5851.24170 1194.02234 414
-14695.77246 5754.38037 379.28525 479
-14606.60059 5718.84180 637.74237 488
-15143.15234 5926.92236 921.07904 495
-15164.64258 5938.94482 1191.48926 414
-14642.29297 5839.15527 378.26144 480
-14557.32910 5803.93848 632.85559 489
-15089.61914 6013.87988 922.78748 495
-15108.25195 6025.33643 1189.80603 414
-14588.55859 5922.36475 379.67133 480
-14503.16211 5888.82959 632.95746 489
-15035.01367 6100.78564 920.42175 496
-15059.73633 6110.18311 1191.23059 415
-14536.37012 6005.74219 376.39346 480
-14454.04004 5970.12988 634.23199 489
-14983.11133 6190.56201 920.50549 496
-15008.87305 6197.58398 1186.44824 415
-14485.38965 6088.63037 376.86789 480
-14403.49414 6052.40479 634.34607 489
-14930.08203 6273.85791 916.70587 496
-14956.25879 6286.39600 1187.12939 415
-14432.59180 6171.98486 377.66309 480
-14351.34766 6136.36084 634.94012 493
-14876.93164 6359.89111 916.51019 496
-14900.95605 6373.44678 1185.32129 415
-14382.32812 6256.96289 377.71469 481
-14298.64258 6220.27637 631.96820 493
-14821.91504 6444.41162 916.15216 497
-14850.84473 6457.30762 1184.72729 415
-14330.14062 6337.31299 376.13513 481
-14248.51758 6305.44775 633.61694 493
-14702.79297 6504.52539 914.40533 394
-14802.12793 6548.51318 1183.05420 415
-14277.88281 6421.29736 378.26752 481
-14197.48828 6386.56543 631.36206 493
-14647.38477 6584.61914 912.47229 394
-14751.00391 6632.12939 1185.68005 415
-14228.19531 6503.49658 374.85788 481
-14146.68066 6466.88672 629.37665 494
-14593.14160 6672.48193 911.18146 390
-14696.26367 6719.85498 1183.46082 415
-14174.74219 6588.58447 378.16684 481
-14098.92383 6552.61670 629.87866 494
-14539.83887 6755.28857 910.30505 390
-14645.92090 6802.87793 1183.31055 497
-14790.03613 6870.37012 1460.61597 353
-14121.46973 6669.28271 376.62079 482
-14046.78711 6634.33740 630.56744 494
-14482.10352 6836.30762 908.69623 390
-14590.68359 6890.63818 1180.30408 497
-14742.87793 6960.86279 1463.96851 353
-14757.28711 6969.96338 1732.47644 316
-14072.07324 6750.37158 375.18362 482
-13995.41797 6717.45557 627.78162 494
-14503.58594 6955.86084 912.62256 498
-14516.34570 6961.57031 1177.95227 441
-14519.57031 6965.12256 1443.48621 441
-14022.29199 6833.56250 373.31271 482
-13947.26953 6796.34277 631.29169 494
-14394.29004 7014.43066 911.12854 442
-14397.72852 7019.13232 1174.10242 442
-14399.50586 7018.25684 1437.53918 441
-13967.77246 6914.60693 373.94968 482
-13897.06934 6879.47266 630.54559 494
-14277.44629 7069.83545 907.03821 443
-14280.59570 7070.06006 1166.67188 443
-14282.75391 7068.88721 1433.54956 442
-13916.41797 6997.46143 376.16681 482
-13847.62012 6960.84277 627.09845 495
-14167.06250 7121.53467 900.11011 444
-14165.28320 7122.21338 1163.85278 444
-14170.94922 7126.20752 1423.26099 443
-13867.18750 7080.92383 372.80832 482
-13796.99512 7041.70361 627.30499 495
-14101.13086 7200.56250 901.58807 498
-14097.45801 7197.04541 1160.71497 498
-14095.34180 7196.03418 1421.57666 498
-14362.34766 7332.51318 1714.95813 469
-13816.80469 7163.38477 374.79800 483
-13744.84668 7125.19385 629.60034 495
-14050.84180 7280.73047 899.21259 498
-14020.15527 7266.51172 1158.59985 498
-14046.34570 7278.22998 1421.46313 498
-14309.80957 7418.47314 1713.56580 469
-14760.05469 7648.83496 2037.74304 411
-14749.94727 7645.15918 2315.21948 411
-14749.66797 7644.68506 2595.15381 483
-14752.50781 7647.14893 2876.16357 471
-13764.74414 7242.13867 376.22031 483
-13695.65820 7207.21973 630.15161 495
-13997.82031 7363.08740 897.57178 499
-13966.29297 7347.88672 1156.19849 498
-13992.61426 7363.55908 1420.31860 498
-14254.65039 7499.15186 1710.41394 469
-14165.14258 7455.20508 2505.98486 389
-13711.94629 7325.32959 375.65332 483
-13643.68457 7289.63525 629.13422 495
-13944.28516 7449.69238 900.27582 499
-13914.88477 7434.16016 1159.81091 499
-13939.08301 7447.27295 1419.08923 498
-14202.24121 7584.15088 1710.29517 469
-13663.16406 7404.19238 374.44418 483
-13595.53223 7368.65088 629.79291 495
-13891.98438 7530.58789 896.92462 499
-13863.19043 7513.32666 1158.68958 499
-13887.91895 7527.39111 1418.17578 498
-14147.93555 7668.48438 1709.57642 470
-13610.32227 7485.88818 375.91055 483
-13547.24902 7453.40674 628.13007 495
-13841.48828 7612.91846 898.79047 499
-13813.74219 7599.64111 1158.94287 499
-13838.86133 7614.39551 1419.45312 498
-14096.91797 7751.57666 1711.10022 470
-13561.58105 7570.00732 374.48788 483
-13496.36816 7531.35986 626.41425 495
-13789.45312 7696.68799 898.34949 499
-13759.62695 7681.72119 1158.06812 499
-13785.16895 7696.57373 1419.05640 499
-14044.25977 7838.05664 1711.61499 470
-2236.29443 1310.80627 42.11492 494
-2243.48486 1314.66516 85.99895 477
-13510.67285 7649.80957 376.07187 483
-13445.57617 7612.30664 628.45239 495
-13739.22461 7780.76074 899.34802 499
-13711.34277 7762.42871 1155.60303 499
-13733.47852 7778.65234 1419.37878 499
-13989.66895 7921.46484 1710.21753 470
-2235.44458 1328.90186 41.96136 362
-13458.34082 7730.33057 374.45169 483
-13397.09863 7695.54346 625.54620 495
-13686.28809 7861.57227 898.50452 499
-13659.86816 7847.85449 1154.41614 499
-13572.66504 7796.31494 1408.25122 344
-13938.50488 8004.33887 1708.15564 470
-13408.19629 7810.84766 371.81476 483
-13344.21777 7778.57275 626.90814 498
-13634.64258 7942.97998 898.31586 499
-13633.31934 7945.58545 1156.95044 499
-13340.68848 7775.36963 1390.33374 499
-13886.97168 8089.34863 1707.09912 472
-13356.51953 7894.54395 373.87970 483
-13294.68359 7858.21875 625.64062 498
-13583.71387 8028.33105 897.51263 499
-13582.72461 8026.48682 1157.19421 499
-13291.16797 7856.59131 1391.29163 499
-13832.85938 8175.73633 1706.24426 472
-13307.36914 7973.71924 375.72968 483
-13247.66992 7939.07471 625.53894 498
-13532.81055 8112.05322 895.59949 499
-13343.62402 7995.24414 1143.73425 489
-13239.15039 7935.18262 1391.01123 499
-13782.69043 8259.44336 1709.83630 472
-13255.63574 8054.29785 373.70401 483
-13196.60645 8021.12549 626.47290 498
-13480.75684 8194.63574 898.51965 499
-13480.71973 8192.96484 1158.08850 499
-13190.77539 8017.35352 1388.80444 499
-13732.06152 8346.53809 1710.07837 472
-13203.65234 8135.78906 374.54889 483
-13149.21289 8104.08105 626.34454 498
-13431.01465 8276.99902 894.89911 499
-13425.47168 8274.90723 1156.12000 499
-13139.42285 8098.56494 1388.55505 499
-13680.95703 8428.40430 1709.81628 475
-13152.60254 8219.14160 373.58688 483
-13097.15625 8183.12012 624.51239 498
-13376.48047 8357.97656 898.84076 499
-13377.30859 8356.76953 1159.14563 499
-13201.75977 8249.67090 1399.89844 352
-13629.81250 8514.15723 1706.25659 475
-13104.37012 8299.45020 371.74612 483
-13046.13477 8266.52734 626.21893 498
-13359.38770 8462.45898 898.92096 461
-13352.56055 8458.74121 1156.97302 460
-13380.09180 8476.94238 1422.79749 457
-13587.50293 8607.16797 1711.65784 464
-13051.93848 8380.34180 371.59302 483
-13001.05273 8346.08789 624.65558 498
-13342.99902 8566.86328 900.30066 478
-13355.47949 8574.17090 1162.84827 460
-13384.92480 8591.85352 1429.36731 456
-13569.18555 8710.58105 1711.90881 463
-13000.54297 8459.99316 374.27139 491
-12951.66797 8427.48535 627.90588 498
-13321.44434 8670.15332 901.22803 478
-13354.86328 8689.72070 1165.33838 459
-13384.33887 8711.87402 1434.91846 455
-12951.79199 8546.12402 374.17636 491
-12900.12500 8510.23340 625.19135 498
-13298.96484 8772.88672 903.05798 477
-13338.84570 8800.56445 1168.15784 476
-13387.60449 8831.06348 1439.11108 453
-12899.19141 8626.79883 371.33459 491
-12849.93848 8589.40430 626.18408 498
-13275.33301 8876.24121 904.39856 477
-13319.90137 8905.33789 1174.58252 476
-12848.59570 8708.03711 374.22461 491
-12798.52441 8672.11719 627.47748 498
-13251.87695 8977.65137 908.79932 476
-12802.20508 8789.38281 373.80862 491
-12751.07227 8753.29102 625.83289 498
-13231.81934 9080.74902 908.20978 476
-12751.24414 8869.91211 375.98447 491
-12700.09863 8837.50293 628.72180 498
-12700.88965 8953.12109 373.53619 491
-12652.68848 8917.27441 629.52234 497
-12649.41797 9034.15527 371.87949 491
-12599.73047 9001.82129 625.49438 497
-12599.69434 9116.10059 376.16055 491
-12549.50488 9081.95020 626.02460 497
-12545.26660 9199.02734 376.11633 491
-12501.75684 9162.09277 628.51404 497
-12495.87988 9278.26074 376.17203 490
-12453.58789 9245.20801 628.01477 497
-12447.00781 9363.73633 375.67786 490
-12402.37695 9329.89844 629.94470 497
-12395.22461 9444.88281 375.13196 490
-12349.53613 9410.96191 628.46051 497
-12422.20703 9583.03809 119.82703 479
-12343.35254 9524.12598 375.89374 490
-12302.83789 9494.25391 627.46436 497
-12367.39453 9665.68262 118.12720 479
-12294.69824 9610.02246 372.81610 490
-12251.91211 9573.03320 627.89020 496
-12317.93359 9748.21387 116.17339 479
-12241.79102 9689.54102 373.76276 490
-12198.91895 9656.08887 631.73419 496
-12267.15430 9833.29980 118.36543 479
-12191.74609 9773.47363 375.22052 490
-12153.09082 9740.94922 630.46918 375
-12214.68262 9912.99609 118.07767 479
-12143.47266 9854.31738 375.58417 489
-12110.35352 9830.43262 630.97949 375
-12163.73340 9996.97559 118.06195 479
-12088.88184 9937.00098 376.26282 489
-12061.77051 9917.09766 630.53033 375
-12108.32031 10078.14258 117.02520 478
-12039.31738 10023.12598 376.51578 489
-12010.48340 9998.86230 631.04132 445
-12056.28223 10164.57715 115.82253 478
-11989.38281 10103.78125 374.43402 489
-11957.91406 10079.43262 631.01343 445
-12005.74414 10245.65723 117.23499 478
-11934.94531 10186.83887 375.30502 489
-11906.85547 10162.41016 633.45911 445
-11953.47559 10327.98047 117.88988 478
-11883.01367 10272.90527 374.55032 488
-11854.64648 10247.14062 631.49731 444
-11902.49023 10413.19629 119.82011 478
-11831.19238 10354.30371 376.49075 488
-11799.96582 10327.70312 632.60144 444
-11848.50195 10495.73047 119.93764 477
-11783.64258 10436.84180 379.10950 488
-11749.39844 10411.76562 632.75494 444
-11797.42188 10579.73340 119.99638 477
-11729.24316 10523.00195 375.32043 488
-11700.38379 10493.44434 633.67889 421
-11742.86230 10664.03418 117.67321 477
-11676.20996 10604.81445 377.48956 487
-11662.25391 10591.98926 635.34613 295
-11689.55762 10748.92090 119.51152 477
-11626.98145 10688.77344 378.44629 487
-11624.21973 10689.76953 637.28363 295
-11636.89648 10833.58398 118.09828 476
-11574.59570 10777.10938 377.25220 487
-12712.08203 11826.91016 687.63202 422
-11583.59863 10918.68848 116.48266 476
-11521.57324 10858.33105 378.32779 487
-12651.04102 11916.41602 686.86517 422
-11532.15332 11001.81543 117.21677 476
-11470.88086 10943.83105 376.91885 486
-12591.09570 12006.22656 688.09180 417
-11477.39551 11090.22949 117.86494 476
-11414.35840 11028.11719 377.54953 486
-11422.60938 11173.67969 116.23888 475
-11364.17578 11115.67871 378.44165 486
-11373.14746 11258.39941 116.25246 475
-11310.67578 11201.84473 380.66232 485
-11316.13867 11345.09082 118.71233 464
-11258.48730 11284.24023 379.66330 485
-11270.29492 11439.76660 118.73744 463
-11203.18945 11372.48926 382.23065 485
-11227.45410 11534.18945 119.36214 465
-11152.86133 11459.90039 382.35190 484
-11186.49121 11633.72949 120.20763 465
-11104.20996 11552.78711 380.03668 465
-11141.81836 11730.42285 117.52356 464
-11060.38184 11648.42676 382.82724 464
-11094.36035 11830.77734 117.05911 464
-11018.66602 11746.13672 382.01978 464
-11053.49805 11931.64648 118.19712 463
-10972.07617 11845.01855 383.33496 463
-11008.76758 12029.38086 117.25375 463
-10926.04590 11944.78418 386.09094 463
-10904.58008 11919.42285 649.07819 482
-10976.22266 12143.33203 119.94093 421
-10882.18066 12045.51562 383.94537 462
-10950.90625 12265.47266 120.06829 421
-10839.59375 12145.34473 386.41025 462
-10930.37793 12397.61914 117.53902 398
-10795.75879 12243.81445 384.98840 462
-10911.74414 12530.92383 115.52253 398
-10758.41309 12352.92871 388.24918 421
-10890.78418 12665.79199 116.19793 397
-10733.45215 12476.94824 387.36038 420
-10886.23926 12811.88281 115.48243 371
-10705.80664 12604.25781 389.21432 420
-10920.34277 13012.78320 118.43061 302
-10676.99902 12728.86914 388.98273 419
-10649.15137 12852.68262 393.71979 418
-10630.26465 12992.81641 391.94885 371
-10629.91602 13157.10547 394.27042 370
-10624.92871 13315.86328 397.87988 369
-10634.88379 13494.24316 400.64627 306
-26152.09766 40095.07031 -8626.63672 1000
-26527.47656 40670.42969 -3092.34180 1000
-6929.96631 14300.11914 3289.31201 1000
-686.79840 2219.63623 14.79566 303
-689.52032 2228.92163 52.71512 346
-658.94312 2184.67358 16.44326 345
-670.10120 2217.02539 53.59529 345
-669.37488 2259.32373 -26.06307 317
-638.32501 2167.37476 18.05841 382
-652.92834 2210.88892 53.78481 314
-635.90619 2205.20410 -21.96888 374
-618.13580 2152.56665 18.84702 394
-660.65625 2278.94971 51.54849 422
-615.01685 2187.09766 -20.67225 376
-599.66296 2140.27344 19.91647 416
-647.69928 2288.55298 51.45110 475
-593.99500 2168.88477 -19.08968 407
-581.96082 2130.09424 20.87155 417
-634.32324 2295.59033 51.13292 368
-575.82928 2157.01978 -17.76822 408
-564.42719 2121.20459 21.17977 406
-621.60675 2303.79883 51.32306 368
-553.11218 2130.65625 -15.61089 286
-548.05267 2113.36792 22.12858 406
-609.80267 2316.41284 51.14925 329
-532.10858 2108.22925 -13.60585 374
-531.11798 2106.24829 22.22810 417
-514.33496 2096.33740 -12.71183 375
-515.52264 2099.78662 22.73861 418
-497.14249 2085.67017 -11.37842 376
-499.71701 2093.16821 23.34980 369
-480.01767 2074.65845 -10.91288 377
-484.59036 2089.27393 23.65637 369
-464.42426 2066.53735 -9.59806 444
-469.21637 2084.95117 24.19437 370
-448.77731 2060.10791 -9.48547 445
-454.80093 2080.55249 24.68801 372
-433.99792 2053.48340 -8.35726 446
-438.84647 2073.46704 25.51829 412
-458.61368 2148.54077 57.85320 463
-418.94543 2047.52148 -7.63279 454
-426.54825 2077.75684 25.19584 298
-442.88049 2143.97070 58.21840 464
-403.87207 2042.39526 -7.31293 455
-427.81097 2138.55566 21.99909 464
-428.17538 2139.57275 58.27113 464
-389.54742 2037.11438 -6.94675 456
-412.90686 2133.91382 22.67007 465
-418.79663 2159.11768 57.88098 352
-374.88562 2031.40125 -6.23203 460
-400.47919 2141.51904 22.33627 375
-404.20792 2156.72314 57.70884 354
-361.02594 2027.50110 -5.77033 465
-392.61395 2167.37183 21.38595 373
-402.48770 2210.82251 56.41487 350
-346.98459 2023.65234 -5.45507 466
-384.65179 2194.14355 20.02915 372
-394.12842 2238.10815 55.60725 349
-332.86469 2019.37488 -4.79835 467
-354.83621 2120.98657 23.85868 468
-377.46487 2227.17651 56.05006 364
-319.21777 2015.32898 -4.25440 468
-339.71606 2116.36182 24.51964 469
-305.22998 2011.24658 -3.60660 468
-324.28937 2105.94775 24.99918 470
-324.69684 2106.73120 60.42874 470
-291.86871 2007.28467 -3.28827 469
-309.89816 2101.43506 25.33819 470
-310.28470 2102.18213 60.23115 470
-277.96942 2003.41858 -2.73549 470
-300.56363 2120.83765 24.79284 365
-299.47412 2118.25000 59.89000 365
-264.76389 1999.32837 -2.74985 470
-289.97974 2137.87183 23.68496 449
-293.31125 2157.28735 58.63653 472
-289.83627 2138.21167 166.25131 384
-251.07103 1995.48547 -1.99302 471
-283.15167 2176.51099 22.34434 472
-279.56717 2157.26172 130.61612 458
-276.16867 2137.26465 166.33621 429
-242.32393 2018.72974 -36.92886 317
-237.59053 1991.25793 -1.54727 472
-286.96924 2279.97778 17.22465 473
-264.04056 2144.91626 166.49014 369
-228.60966 2012.16748 -36.63835 318
-224.29793 1987.80261 -1.12726 472
-233.60527 2043.53735 28.67736 474
-247.37772 2128.40112 200.94727 436
-214.73886 2005.61401 -35.90327 318
-211.08925 1984.01355 -0.72667 473
-220.01515 2039.56458 29.16404 474
-220.31932 2039.89319 63.05025 475
-240.61594 2168.55664 166.27827 474
-240.31387 2169.07886 202.17068 474
-240.60455 2170.11963 238.45528 474
-201.20575 1999.17432 -34.81907 318
-198.46733 1980.26965 -0.74504 474
-206.53874 2035.36121 29.32087 475
-206.72168 2035.65588 63.59250 475
-187.91547 1992.72473 -34.23895 319
-184.99454 1976.26978 -0.03638 474
-195.81514 2051.28076 29.16821 281
-195.92354 2047.99548 63.12644 431
-174.46283 1986.41357 -33.73383 319
-172.36107 1972.47156 0.02631 450
-188.89883 2092.96191 27.00849 354
-189.01776 2092.10010 61.48507 354
-161.18785 1980.27686 -33.25737 319
-159.18820 1969.25989 0.49233 450
-179.83209 2123.23779 25.51550 353
-179.74716 2122.40552 60.64735 353
-147.69156 1974.13428 -32.56034 319
-146.59563 1965.44824 1.20517 451
-170.58086 2153.91528 24.29837 351
-170.20726 2152.99756 59.35132 351
-134.53134 1967.86877 -31.68713 320
-134.24333 1962.06055 1.44700 451
-160.89664 2184.71240 22.54569 356
-160.42043 2184.15430 58.84753 356
-121.64614 1962.92285 -31.27423 417
-121.12566 1958.53772 1.67383 452
-148.47858 2195.88599 22.13992 287
-149.35239 2204.18726 58.35055 454
-108.99612 1958.61401 -30.42752 417
-108.86377 1955.28320 2.04489 452
-117.84547 2041.54297 97.20710 437
-118.00573 2040.20239 130.69118 480
-96.74229 1953.99683 -30.41771 418
-96.38027 1951.57385 2.46842 453
-107.52387 2064.78125 164.63963 336
-107.01720 2057.01636 232.28139 448
-84.03516 1949.89233 -29.84237 418
-84.04554 1948.34985 2.47903 453
-97.46845 2095.49854 165.22195 335
-71.43513 1945.38538 -29.38834 419
-71.37698 1945.20825 2.85281 454
-87.69986 2128.87598 165.75673 327
-59.10212 1941.23608 -29.05894 419
-58.93696 1941.53845 3.00404 454
-77.69984 2166.01587 130.66747 433
-46.57087 1936.87500 -28.16464 419
-46.88186 1937.95935 3.38843 455
-34.42262 1932.39221 -27.98733 420
-34.49794 1935.05798 3.55724 455
-21.92024 1927.96863 -27.44024 420
-22.32016 1931.71826 3.76912 455
-10.07685 1924.11682 -27.06553 421
-10.02505 1928.32385 4.47621 456
2.14848 1919.64929 -26.78670 421
2.02509 1925.01416 4.59868 456
14.48245 1915.71228 -26.58033 422
14.06448 1921.23376 4.70619 457
26.25100 1911.39832 -25.76392 422
26.01296 1918.12244 5.11892 457
38.28904 1907.24609 -25.74990 422
37.89732 1914.91138 5.26166 458
50.20002 1903.52527 -25.22665 484
49.85542 1911.64185 5.68731 458
61.77924 1899.76367 -25.07789 484
61.56746 1908.33289 5.93744 458
73.55085 1896.40845 -24.71168 497
73.58784 1905.30774 6.29517 389
85.56875 1896.72388 -24.57028 438
85.37189 1907.01074 5.92062 404
84.12656 2044.47559 30.16340 433
97.29756 1897.40027 -24.62369 438
97.00028 1909.29797 5.91462 404
108.83594 1897.91797 -24.87310 438
109.68895 2116.85107 -7.87285 317
120.42285 1899.06116 -24.50126 438
122.98060 2132.15674 -9.10658 485
132.51941 1901.47974 -24.77481 341
135.95523 2128.59399 -8.54812 486
149.63713 2146.00317 -45.17378 341
149.01674 2126.58203 -8.67268 495
162.14105 2127.29102 -8.68235 473
175.52917 2127.82202 -8.79652 473
188.45934 2127.92456 -8.84904 473
201.83052 2130.52710 -8.83770 393
9549.50098 45144.18359 3903.87598 1000
1362.65869 4945.26904 -884.31232 1000
522.23669 845.72479 -24.25865 362
523.97778 836.07288 -22.88658 426
525.19452 838.67078 -7.68081 426
526.57855 841.01239 7.73204 426
529.02832 846.19855 22.50684 351
527.66986 830.76843 -22.43272 496
528.81750 832.54724 -7.17333 472
529.78192 834.54675 8.22190 472
530.89838 836.73712 23.52747 438
531.80371 838.66974 38.72364 472
532.80298 840.82159 54.15197 421
532.47791 827.56781 -22.25546 496
533.54517 829.36823 -6.98803 496
534.47668 831.13477 8.27960 496
535.44501 833.39581 23.61473 497
536.17029 834.79663 38.88811 498
537.23993 836.34320 54.16970 499
538.30463 826.01300 -22.46565 472
539.26019 827.97406 -7.27490 471
540.31970 830.13110 8.16202 471
541.52002 832.44586 23.41539 411
543.51697 836.18762 38.53972 408
544.34570 837.61359 53.90374 292
545.28339 826.66937 -23.00439 426
546.56024 829.44434 -7.76898 427
548.51184 832.98950 7.35623 363
3821.98877 1296.42664 650.93164 1000
3494.25806 1158.80200 -104.37349 300
3486.71143 1132.94946 -102.96600 301
3652.48584 1187.64685 -52.61555 257
3493.62573 1111.93127 -103.31428 431
3686.95923 1175.22034 -53.65569 496
3514.00293 1095.69763 -104.15586 422
3690.24829 1151.91199 -53.68563 496
3534.67261 1078.53369 -104.82773 418
3693.13477 1128.80273 -53.30999 496
3555.19287 1061.59167 -105.76883 417
3842.31323 1150.13354 -60.91132 275
3576.62354 1044.86926 -106.69642 410
3835.98413 1122.38477 -60.73311 465
3599.49438 1028.20813 -107.81303 399
3607.63477 1031.17407 -48.07877 257
3625.68848 1012.08783 -109.43949 392
3614.22046 1009.83075 -48.49436 409
3653.22314 996.61145 -110.92529 388
3638.29736 993.26849 -48.73839 411
3682.63013 981.99323 -112.43701 379
3664.58521 976.96667 -49.96249 427
3718.46045 967.34283 -114.03819 352
3693.46191 961.06653 -51.06705 413
3762.98535 955.44141 -117.12722 352
3728.67114 946.27069 -52.45892 379
3810.14941 942.86084 -119.81693 351
3775.19238 934.15826 -55.14333 367
3855.95874 930.20258 -122.21326 359
3823.63110 922.42273 -56.63121 365
3904.39771 917.64594 -125.51616 362
3874.55933 910.67944 -59.18090 364
3924.56299 897.91821 -61.63261 363
3976.82642 884.69257 -64.18227 361
4030.37354 871.85126 -65.93614 360
4085.43457 858.07483 -68.54609 359
2356.19385 244.35751 -54.50600 400
2350.44824 229.85818 -53.82649 499
2356.00806 230.17574 -16.69173 499
2361.15649 230.80368 20.48442 487
2358.16748 216.28793 -54.15910 392
2367.05444 217.10843 -17.18857 322
61797.96875 4339.47168 -12165.62891 1000
51527.02344 1717.50049 -10097.77344 1000
3358.85425 -332.34113 -28.80729 415
3353.31030 -352.13098 -28.44098 479
3357.77588 -352.48053 25.40517 444
4305.76465 -665.45074 -6.90922 362
4286.00586 -688.58075 -5.52617 475
4349.32471 -726.83020 -79.16991 386
4272.40479 -712.90991 -6.17828 481
4324.18457 -748.44971 -77.68812 418
4259.17041 -737.55493 -6.01575 464
4303.07129 -771.57007 -77.64532 425
4246.20508 -761.15564 -5.71911 429
4286.35205 -794.89594 -76.87919 419
4236.12939 -785.78955 -5.16414 430
4259.80469 -816.57257 -75.56754 483
4225.43262 -810.58472 -4.53766 435
4233.11816 -837.84521 -74.24179 300
4215.27393 -834.11981 -5.15441 409
4209.52783 -859.77374 -73.59200 307
4205.26855 -859.20953 -4.48199 413
4194.08398 -882.62732 -72.86357 374
4196.77148 -883.60724 -4.20907 413
4238.63818 -892.63654 132.83983 317
4180.85547 -906.07025 -73.05527 376
4188.25488 -908.16101 -4.06175 359
4189.95117 -907.55664 133.48500 471
4168.02295 -929.16577 -72.84648 377
4181.32520 -932.44470 -4.41334 359
4252.10547 -949.02136 63.51531 319
4181.26514 -933.07605 133.05785 482
4157.56885 -953.79138 -72.48223 436
4174.22461 -957.41052 -4.59563 360
4188.75879 -961.19916 64.82471 499
4174.97070 -958.04944 133.59396 482
4148.30420 -977.83582 -71.33196 438
4166.49609 -981.38025 -4.12412 360
4183.05322 -986.15894 64.77824 499
4169.28467 -982.25928 132.99017 482
4138.74756 -1001.88904 -71.47920 439
4158.92432 -1007.07251 -4.32014 361
4177.56982 -1010.71204 64.30861 499
4164.03223 -1007.71997 133.58260 349
4131.10742 -1025.58850 -71.79044 440
4151.36768 -1031.83679 -3.96953 361
4171.06055 -1036.61023 63.67910 499
4171.41943 -1035.90869 133.72551 425
4124.34229 -1050.55908 -71.95609 440
4143.06592 -1055.35144 -3.80750 362
4158.62012 -1059.97021 64.19344 499
4165.52246 -1061.62622 132.57706 425
4118.16016 -1075.18604 -71.81773 441
4136.28613 -1080.89209 -4.31979 362
4154.48291 -1084.83203 64.25302 499
4158.20166 -1086.53064 133.31552 425
4112.11377 -1100.42493 -71.91795 440
4129.07715 -1104.84143 -3.33225 363
4147.87354 -1110.58044 64.16241 499
4152.03027 -1111.49829 133.33778 425
4106.80029 -1125.96057 -71.27082 440
4121.90576 -1129.82971 -4.06644 363
4147.30078 -1136.41187 64.28432 499
4145.39648 -1136.65576 133.05855 425
4101.07861 -1150.39514 -72.19007 445
4114.72168 -1154.17102 -3.70189 363
4141.09229 -1162.14478 63.76713 499
4139.55957 -1160.95044 133.36964 425
4095.38403 -1175.26404 -72.09205 388
4106.53857 -1179.00269 -3.59990 363
4135.93799 -1187.88098 64.32652 499
4132.43066 -1186.69629 133.70334 425
4091.48633 -1201.50598 -71.85246 388
4099.43750 -1203.52673 -4.11076 354
4130.40625 -1212.22229 64.61073 499
4126.15332 -1211.30969 132.74261 425
4260.00830 -1252.06519 204.58318 258
4085.63354 -1226.33044 -71.78362 382
4092.59082 -1228.64832 -3.88932 354
4123.95410 -1238.12988 64.52965 499
4119.49658 -1236.66016 132.66301 425
4139.41504 -1242.65491 202.26735 330
4081.27441 -1252.00671 -72.18913 382
4085.52124 -1253.67834 -4.16621 418
4123.56934 -1265.47083 63.79887 472
4113.26953 -1261.54785 133.24692 425
4075.94092 -1276.83386 -72.91295 382
4079.57983 -1277.92407 -4.23662 418
4193.68164 -1315.21057 204.19209 454
4071.74805 -1302.26843 -72.50941 382
4072.19189 -1303.02026 -3.76343 418
4243.21729 -1359.24402 204.54482 493
4065.70142 -1327.66174 -3.77783 418
4188.99756 -1369.40283 204.51819 341
4310.28955 -1526.04590 -13.43016 498
4031.91846 -1452.23230 -4.10881 439
4024.68042 -1477.39941 -4.26662 439
4019.12646 -1502.49231 -4.77464 439
4011.67480 -1528.04126 -4.27069 438
4005.84790 -1552.81128 -4.92782 438
3998.56592 -1578.28455 -4.31545 438
4100.64258 -1619.15906 62.96577 423
4078.44019 -1639.39734 -8.21660 496
4084.81519 -1642.05017 62.26096 459
4064.67139 -1661.78699 -7.90933 494
4070.15698 -1663.67200 62.80939 467
4061.00269 -1688.57605 -7.66664 439
4062.75146 -1689.86499 62.41748 485
2732.85278 -1802.69849 27.87010 315
2718.93311 -1817.08606 28.17217 414
45213.22656 -40706.81250 -11944.29102 1000
1876.13574 -1800.13245 7.79492 385
1861.36938 -1785.02441 50.32759 371
1849.95862 -1795.94177 9.39809 388
1835.35791 -1780.44177 50.87339 389
1825.04968 -1791.40564 10.39097 387
1809.50305 -1775.81885 51.73899 395
1799.71875 -1786.81189 11.21525 389
1779.52637 -1766.58215 52.63747 399
1804.60803 -1792.67664 92.23727 315
1774.14844 -1782.72461 11.81857 391
1755.54114 -1762.73022 53.36761 401
1792.55225 -1801.71106 91.80698 363
1749.94067 -1779.02490 12.82369 396
1731.23206 -1758.71130 53.74277 402
1744.08606 -1772.44470 92.61845 389
1726.64966 -1775.97693 13.79776 397
1707.19763 -1754.85352 54.48035 403
1720.96289 -1769.28906 93.17255 373
1703.86816 -1772.37488 14.66596 398
1684.38159 -1751.14001 55.15547 404
1697.69800 -1765.26929 93.51510 374
1681.11780 -1769.02881 15.58115 399
1661.52405 -1747.02856 55.85545 405
1674.24890 -1761.46887 93.81986 375
1658.64893 -1766.09912 16.39923 401
1638.44189 -1743.74536 56.19441 365
1652.06372 -1758.41504 94.17830 410
1636.71912 -1763.31604 17.18064 402
1616.50659 -1739.99756 56.72599 366
1783.82312 -1930.12097 90.65063 443
1615.20740 -1760.00647 18.20460 403
1595.06470 -1737.03699 56.94621 367
1772.36938 -1942.06580 90.83437 418
1593.42407 -1756.74170 18.79262 404
1573.41150 -1733.24915 57.78634 410
1760.11646 -1951.85156 90.15980 417
1572.32141 -1754.21411 19.95246 405
1552.08411 -1729.91516 58.16288 411
1558.55066 -1738.07959 95.01141 414
1551.34338 -1750.93860 20.13817 382
1530.97559 -1726.21790 58.82664 413
1538.80225 -1735.64221 95.30007 415
1531.19556 -1748.18433 21.02681 383
1511.93640 -1725.70959 59.32630 264
1518.01392 -1732.61682 95.96006 416
1510.43506 -1745.40332 22.07453 384
1492.31079 -1722.47668 59.80800 415
1497.66370 -1729.49353 95.77387 418
1490.86694 -1742.45300 22.28503 385
1472.70007 -1719.91052 60.13179 424
1478.01587 -1726.90540 96.03181 419
1470.65564 -1740.02014 23.15451 387
1454.16907 -1718.56372 60.39059 440
1458.36975 -1724.41309 96.16376 445
1451.76379 -1737.44727 24.16041 394
1436.79077 -1718.09155 61.09466 450
1441.93945 -1724.52441 96.47871 451
1433.80383 -1737.11780 24.59805 400
1419.80151 -1718.70642 61.55446 450
1424.99158 -1724.87378 96.80558 452
1417.48389 -1737.75964 25.26503 406
1403.49878 -1719.53455 61.63107 460
1412.14075 -1730.45154 96.77734 489
1401.78491 -1739.48547 25.14442 406
1388.52661 -1720.73633 62.06513 461
1400.89771 -1737.64185 96.82902 489
1386.87183 -1741.13245 25.70859 415
1373.14563 -1722.83276 61.87534 462
1393.36816 -1749.66333 96.60769 414
1371.74951 -1743.26416 26.12792 416
1357.91284 -1724.57800 62.57343 468
1389.91272 -1767.55371 96.41151 413
1404.44824 -1787.82983 132.17693 411
1356.93799 -1745.34863 26.41803 416
1342.47986 -1725.83228 62.35856 262
1386.49622 -1786.36987 96.37283 322
1400.75684 -1806.10229 132.54146 408
1342.73389 -1748.20728 26.77183 416
1326.62610 -1726.49536 62.68829 477
1379.13745 -1799.31836 95.88657 348
1397.71594 -1824.64062 132.50375 411
1328.07373 -1750.82446 26.71481 417
1312.76050 -1729.23425 62.88783 478
1486.96936 -1975.83923 92.63109 424
1394.62854 -1844.26208 132.36307 322
1314.38989 -1753.85059 27.23223 422
1299.16553 -1732.99268 63.22340 485
1466.52673 -1971.89050 93.31553 425
1390.68762 -1863.50854 132.55360 409
1300.48499 -1757.16614 27.72705 431
1285.99072 -1736.31421 63.53180 420
1380.97266 -1874.20459 95.46729 419
1386.85779 -1883.08960 132.54602 408
1287.16809 -1761.22839 27.69890 431
1272.98853 -1739.90906 63.47842 422
1366.04736 -1877.23120 95.30278 477
1383.38013 -1902.47107 132.68102 407
1273.82520 -1765.11755 27.82769 437
1260.07031 -1743.71619 63.51711 422
1357.97717 -1890.28613 95.33023 476
1379.88452 -1922.77783 132.39627 406
1261.40442 -1769.69214 28.15823 437
1246.98560 -1748.00684 63.79966 489
1350.02612 -1903.64392 95.09050 475
1248.51917 -1773.56946 28.44946 444
1234.00952 -1752.19739 64.06920 490
1341.94507 -1916.66626 95.06186 475
1235.55579 -1777.85889 28.13187 436
1221.63098 -1755.78284 64.21057 490
1324.19556 -1914.82556 94.91811 405
1225.32227 -1785.75085 28.06345 274
1208.76831 -1760.40271 64.03401 492
1302.17578 -1906.52185 95.43303 389
1230.03601 -1817.67139 26.74749 273
1196.32153 -1764.25330 64.23183 492
1276.51282 -1892.18774 95.84176 354
1235.21606 -1851.42419 25.06921 273
1184.59814 -1769.45056 64.04601 495
1246.12622 -1869.14148 96.13019 336
1172.23889 -1773.87329 64.22320 496
1219.90833 -1852.29419 96.57923 259
1160.46521 -1779.02185 64.10471 497
1149.05518 -1784.21497 64.58882 408
1137.01257 -1789.88025 64.57237 408
1127.87036 -1799.15039 64.13760 408
12666.10059 -41907.56641 5938.63477 1000
13905.36328 -53056.00781 2881.03760 1000
10820.71582 -62960.48828 -8214.38672 1000
10.33366 -1272.29065 -120.17365 1000
-213.34569 -3129.07275 134.34660 393
-213.78998 -3128.98193 186.36385 323
-554.87335 -2525.25464 176.22047 424
-589.84619 -2532.85693 176.87524 364
-589.11218 -2529.87744 219.94479 427
-588.96930 -2527.94873 262.32584 473
-588.76483 -2526.60254 305.11090 496
-940.57819 -1908.09753 239.49232 305
-974.43616 -1915.08862 97.40678 494
-973.90546 -1914.11133 132.90854 494
-973.31439 -1912.94080 169.08681 494
-972.96777 -1912.15601 204.73561 494
-972.20551 -1910.88696 240.84846 498
-971.80005 -1909.86011 276.44446 498
-971.32214 -1908.70459 312.13983 498
-4111.33154 -2326.83032 211.00984 356
-4129.57959 -2303.31348 210.92685 296
-3516.58032 -1912.24146 198.63411 452
-57369.75781 -29996.79492 -16100.45801 1000
-2940.38452 -1512.27515 187.79872 436
-33860.48047 -14900.25293 -4748.10400 1000
-21360.29297 -3501.27759 131.82063 1000
-196.19070 -10.97230 53.35482 324
-196.19968 -9.18510 53.35412 324
-196.25246 -7.37084 53.31830 324
-196.16914 -5.57171 53.30124 324
-196.19283 -3.74501 53.30947 324
-196.15758 -1.99715 53.35897 324
-196.08315 -0.20042 53.33231 324
