# .PCD v.7 - Point Cloud Data file format
VERSION .7
FIELDS x y z rgb
SIZE 4 4 4 4
TYPE F F F U
COUNT 1 1 1 1
WIDTH 1289
HEIGHT 1
VIEWPOINT 7221.375977 -370.395111 127.504684 -0.678803 -0.094638 -0.094831 0.721995
POINTS 1289
DATA ascii
-14222.20020 56.70527 225.42073 466
-18720.66406 189.32454 428.53821 466
-18677.45703 304.32120 429.98370 467
-44177.25391 721.68976 8164.24268 1000
-18627.00391 421.82358 430.72089 467
-18629.22656 418.11548 737.15057 393
-18581.60742 534.55328 430.13974 468
-18574.54492 530.82336 735.83875 394
-18531.93555 647.65729 426.03189 468
-18521.46484 644.07904 731.20056 410
-18484.19531 756.80444 429.49930 469
-18476.41211 757.39001 731.39838 422
-18441.21094 872.90961 424.22284 469
-18430.57812 868.52576 730.94891 423
-18395.08203 980.21124 427.33099 470
-18385.73047 983.43683 729.89148 423
-18347.00781 1092.04395 426.47296 470
-18301.39648 1203.06787 421.96307 471
-18252.93359 1314.94507 425.62738 471
-18209.61914 1425.13660 422.34009 472
-18162.71875 1532.79321 422.11710 472
-18118.06836 1640.49487 423.02039 473
-18075.54102 1748.02808 421.90964 473
-18027.19531 1859.12109 420.90225 473
-17985.66406 1964.09497 423.02405 474
-17937.60156 2070.43945 421.07898 474
-17897.42773 2180.49902 421.56812 475
-17852.48047 2284.69849 417.66541 475
-19606.60547 2511.90942 771.68329 427
-17806.98438 2392.48120 415.97928 475
-19552.59570 2625.66357 770.91260 427
-17762.46484 2495.06030 416.02338 476
-18469.53125 2594.60107 738.48547 476
-18464.88281 2598.48071 1042.72668 476
-17716.68164 2605.00366 420.17529 476
-18337.66602 2695.37598 733.41663 477
-18396.16406 2699.71606 1042.54749 477
-17675.34180 2706.74268 416.63184 476
-18272.58984 2799.39160 733.45160 478
-18328.32422 2809.95654 1038.29431 478
-17631.92578 2812.31714 418.26270 477
-18205.02344 2904.02271 729.53107 478
-18261.15234 2911.97900 1034.19104 478
-299.48871 64.52368 40.09368 313
-17586.01953 2919.25708 414.80951 477
-17572.51172 2916.52051 709.41797 295
-18195.91211 3018.39990 1031.56104 479
-278.78317 63.48743 38.45849 347
-294.72446 66.21198 41.14249 341
-17542.78906 3021.19629 416.58075 477
-17519.75195 3014.40454 705.79895 300
-18130.59766 3119.94556 1031.93054 479
-276.66107 65.41193 38.90193 345
-292.81210 68.27087 41.54244 340
-4482.17236 813.06305 53.71316 492
-4490.37061 814.39600 129.60255 490
-17503.31445 3123.13110 415.91336 478
-17462.46875 3116.23877 709.12573 300
-18061.50000 3225.58105 1029.59009 480
-274.89749 67.36200 39.30225 345
-294.40494 71.04463 40.97842 318
-17460.66016 3226.17749 415.41995 478
-17412.70312 3219.62744 706.75732 300
-17995.59180 3326.10938 1026.02625 481
-274.80515 69.68756 39.18024 321
-17413.00195 3333.94263 413.11905 478
-17359.31250 3320.96436 705.93878 420
-17942.18164 3430.37329 1026.79602 493
-276.64322 72.41659 38.60547 319
-17369.59961 3436.80933 416.39285 479
-17316.10547 3425.43481 701.63623 421
-17897.98242 3539.62183 1025.37256 494
-17329.14258 3537.69849 412.30576 479
-17268.82422 3525.69043 704.06653 421
-17850.82227 3645.42822 1023.04108 494
-17284.66992 3640.87622 414.43912 479
-17226.18555 3626.86841 703.20172 421
-17807.45508 3751.25391 1018.91968 494
-17245.57812 3743.88232 412.56488 480
-17180.02734 3730.12817 702.96124 421
-17761.91602 3853.84277 1018.69720 494
-17202.49414 3844.77979 414.27509 480
-17135.06250 3829.21924 702.80505 422
-17713.53516 3959.56616 1019.56012 495
-17160.71094 3947.39404 411.67532 480
-17090.78320 3931.39624 698.99701 461
-17564.54492 4040.91846 1013.84778 496
-17114.71875 4046.14893 411.65973 480
-17050.23242 4033.93555 697.49231 461
-17522.49805 4142.59717 1013.00000 494
-17073.71094 4150.75244 411.49634 480
-17006.94336 4134.35400 699.96503 462
-17477.98047 4245.93311 1010.15436 494
-17619.39258 4279.36719 1316.35693 495
-17031.80859 4249.40625 413.80502 481
-16965.25391 4234.09912 696.67834 375
-17428.84180 4347.78760 1010.68536 489
-17572.29883 4383.83008 1315.26025 496
-17748.21680 4428.62988 1629.05420 364
-16990.36523 4348.58203 410.82776 481
-16920.74023 4332.52881 699.05396 495
-17384.52148 4453.98975 1006.78369 489
-17529.40430 4490.34668 1314.85583 496
-17651.75586 4518.16504 1622.16895 494
-16949.69922 4451.15576 409.76044 481
-16879.23633 4436.13818 699.74353 496
-17442.77148 4583.58789 1015.13434 496
-17449.35547 4585.09863 1312.42017 434
-16905.41211 4552.96826 411.85919 481
-16839.81250 4536.25391 695.71655 496
-17326.89844 4667.17773 1007.18475 435
-17323.65234 4666.33350 1303.93066 435
-16865.35156 4653.66113 412.43655 482
-16798.61133 4635.96191 699.24146 496
-17205.57617 4746.38867 1006.80969 436
-17200.57031 4744.72803 1299.57056 436
-16822.75586 4755.38965 409.37469 482
-16753.24023 4733.09717 696.33075 496
-17102.85742 4832.26855 1002.90497 497
-17097.87305 4833.11572 1292.36316 497
-17243.63867 4869.31152 1602.33740 353
-16781.73828 4851.48291 409.00925 482
-16714.43359 4831.91406 698.02374 496
-17056.82812 4931.61621 1000.36450 497
-17055.67773 4931.50635 1291.19080 497
-17179.92578 4966.27393 1598.12524 390
-17823.77930 5154.55762 2576.20923 274
-17821.00000 5150.94775 2889.87769 479
-16735.88281 4955.16504 412.80014 482
-16671.46484 4932.16309 698.20435 497
-16985.60156 5026.74951 998.58356 497
-16982.19336 5022.75684 1292.02429 497
-17133.77930 5069.22510 1596.82190 391
-17359.35156 5136.24756 1914.92822 484
-16697.19727 5054.22705 411.34949 482
-16632.57617 5031.88672 696.90381 497
-16942.89648 5128.70215 995.85028 498
-16938.62109 5124.00879 1291.11011 497
-17082.43164 5171.40576 1592.27942 391
-17315.07812 5237.80176 1912.71387 484
-16656.98242 5154.89453 410.63873 482
-16590.31445 5131.21924 694.88745 497
-16898.75391 5227.24561 997.53021 498
-16895.73242 5227.00684 1288.06836 498
-17037.89453 5269.69629 1592.84509 391
-17269.79688 5343.70996 1912.74768 485
-16613.57812 5252.27637 411.50128 482
-16546.55273 5230.22705 695.59613 497
-16853.89062 5326.45020 996.11224 498
-16850.11133 5328.51172 1285.32104 498
-16991.18359 5373.28271 1592.75537 391
-17221.75781 5446.76074 1911.95593 485
-16571.51367 5354.32666 410.20535 483
-16505.05078 5329.82227 693.39386 497
-16809.28711 5428.56055 994.38843 498
-16805.47266 5428.80908 1288.47290 498
-16943.77344 5470.11426 1591.48999 391
-16529.47852 5450.28516 411.57574 483
-16464.23047 5428.22949 695.18842 497
-16766.49609 5528.20703 994.25244 498
-16764.06836 5526.24170 1288.42651 498
-16897.70117 5571.67725 1588.33582 391
-16486.99023 5549.98633 408.64359 483
-16424.83398 5531.24365 693.06415 497
-16753.75977 5641.15137 994.48944 498
-16751.26758 5638.47412 1287.50696 498
-16848.91211 5673.02393 1586.47559 391
-16448.39453 5651.44971 409.25485 483
-16382.27246 5628.80176 693.63385 498
-16706.65039 5739.70264 994.93469 499
-16703.52930 5737.17676 1285.25769 498
-16802.56250 5771.79736 1587.66650 391
-16404.61523 5750.15283 410.46915 483
-16341.87500 5726.61084 694.22070 498
-16500.34766 5781.45947 986.25037 426
-16438.25781 5761.04004 1272.60095 468
-16760.14453 5870.61328 1587.59485 391
-16365.17285 5845.91650 409.37537 483
-16301.92480 5824.88184 694.79694 498
-16621.98242 5936.93945 995.45844 499
-16617.87305 5936.54639 1285.79846 499
-16711.71094 5971.00781 1586.39050 392
-16323.63965 5946.19971 408.69577 483
-16259.42480 5925.89355 693.08661 498
-16579.65430 6039.33301 995.57349 499
-16575.18359 6038.41895 1283.14014 499
-16666.56055 6070.82715 1585.77258 383
-56576.52734 20531.32812 10054.23730 1000
-16283.05957 6045.00293 409.39172 483
-16218.84570 6024.84229 691.79437 498
-16534.14062 6140.08789 996.12109 499
-16533.95703 6138.88721 1283.77930 499
-16622.20508 6170.36816 1584.68970 368
-16238.48535 6143.93311 411.54968 491
-16179.00293 6121.67871 695.41199 498
-16537.58594 6258.17432 998.46680 467
-16540.19141 6256.84570 1288.51147 467
-16650.56055 6301.00488 1592.19177 368
-16197.19824 6242.68457 411.90802 491
-16136.07715 6219.18115 694.99188 498
-16543.59180 6375.09326 997.56720 482
-16557.97266 6381.10400 1293.04297 466
-16678.78125 6428.37012 1598.36182 369
-16157.97852 6343.61328 409.94131 491
-16097.98242 6320.81641 691.19458 498
-16538.14453 6488.22168 1000.58618 482
-16576.23633 6505.83838 1297.71582 466
-16119.43359 6440.11230 408.00986 491
-16056.01758 6417.62402 695.38788 498
-16528.44922 6602.78613 1004.57373 482
-16581.40430 6625.88965 1302.44043 481
-16075.35742 6541.21631 410.97107 491
-16014.84180 6515.22266 693.97058 498
-16521.43555 6719.30127 1003.26904 481
-16036.06836 6639.82080 410.33804 491
-15976.21094 6614.95996 692.81458 498
-16512.79102 6834.89941 1003.61346 481
-15992.36816 6736.08154 408.90097 491
-15931.76758 6714.32178 690.67377 498
-15955.16699 6835.45312 409.87369 491
-15893.69238 6811.66748 694.04291 498
-1664.42200 760.40417 37.28471 473
-1669.79602 762.86127 68.42258 428
-15909.36719 6934.70361 411.07492 491
-15848.70020 6907.50146 695.55206 498
-1656.86938 770.27216 37.49154 495
-1660.19226 771.86725 68.72406 495
-1663.70715 773.15259 100.08745 494
-15870.12109 7032.54932 408.63324 491
-15808.91309 7008.95801 691.23871 498
-1658.34973 783.59918 37.36531 422
-15827.82129 7132.47852 409.33936 491
-15768.20508 7107.40869 691.78900 498
-15787.36719 7233.07178 409.15103 491
-15728.04102 7204.05664 691.96417 498
-15749.16602 7332.52832 410.00412 491
-15684.79688 7302.46777 694.78992 498
-15706.00000 7429.55322 408.92075 491
-15646.05078 7399.81543 694.49121 498
-15663.50977 7527.59766 411.24426 491
-15606.53906 7499.21387 695.17377 498
-15622.44141 7628.91504 411.21536 491
-15563.86816 7596.77686 694.02173 498
-15583.13379 7727.07715 411.21960 491
-15521.53418 7698.84766 692.21637 497
-15541.37207 7828.04053 408.19275 491
-15482.11426 7796.07568 694.01575 497
-15499.47461 7927.58545 413.18146 491
-15442.16699 7896.82764 696.97650 497
-15459.16211 8025.72314 408.71500 491
-15399.14453 7992.85498 693.93805 497
-15418.72656 8123.39453 409.30515 490
-15356.59961 8093.43896 696.25330 497
-15376.85059 8224.88281 409.97015 490
-15314.38477 8190.52148 697.31964 497
-22073.00391 11961.04785 -4461.36963 1000
-15331.34668 8323.87012 409.78183 490
-15275.46680 8290.46289 694.15533 497
-15289.70996 8425.04004 413.18164 490
-15235.28320 8392.44531 694.64374 497
-15252.17969 8524.42773 413.83237 490
-15191.29980 8492.21289 694.74994 496
-15209.49316 8625.63281 412.55893 490
-15153.13379 8591.19727 699.03833 496
-15166.11035 8725.60449 412.12766 489
-15108.87793 8690.89551 698.21533 496
-15122.61816 8822.72461 413.14218 489
-15065.39258 8792.03223 698.20642 496
-15081.07422 8926.51758 410.90988 489
-15027.90234 8890.12988 696.76562 496
-15041.55762 9024.48730 415.42413 489
-14983.19531 8993.42285 699.37872 495
-15000.71191 9128.04395 414.86649 489
-14942.96484 9091.87891 701.95776 495
-45837.28906 27777.05273 12624.09961 1000
-2910.88135 1840.86682 72.91199 289
-3012.09009 1903.42505 130.28362 288
-14955.05176 9228.64062 414.18268 488
-14899.25879 9191.16016 702.69366 495
-2826.64111 1813.26477 74.54791 335
-3043.31274 1948.09192 130.45374 278
-14913.00488 9330.08301 414.95413 488
-14856.25098 9292.53906 702.06238 495
-2770.41382 1803.01318 75.52734 349
-3065.67090 1989.55835 131.08875 471
-14872.32715 9432.81738 414.45331 488
-14818.13574 9396.28613 701.07806 494
-2721.62891 1796.83679 76.52924 362
-3044.17749 2003.25671 131.01663 444
-14836.02734 9539.55664 414.10413 471
-14773.84766 9497.81543 700.16656 493
-2676.91528 1792.42151 76.77304 363
-2836.60474 1895.60352 131.11729 364
-14810.64844 9647.96484 416.18668 471
-14737.93359 9598.85059 703.45526 493
-2632.60913 1787.71863 77.38498 364
-2799.86475 1897.51123 130.71272 422
-14782.33008 9758.65527 413.71866 471
-14697.39551 9708.29688 704.74207 492
-2591.04858 1784.24866 78.44034 366
-2784.58936 1913.10498 130.58958 444
-14750.91406 9871.39648 417.93912 471
-14660.61035 9810.56836 705.54681 492
-30650.58398 20445.30078 3753.66357 1000
-2550.02026 1779.53125 78.52703 367
-2698.87622 1880.12500 130.79352 368
-14723.42285 9981.19629 418.60184 470
-14626.11133 9917.09961 705.51233 477
-2509.18579 1776.42920 79.72141 368
-2598.15381 1836.48364 130.76791 369
-14690.53906 10096.85352 416.18970 470
-14595.35742 10029.29590 706.70844 476
-2470.18384 1772.11389 79.68622 369
-2573.39551 1844.26624 131.10165 465
-14663.33594 10206.16992 416.35068 469
-2677.97119 1916.38770 241.04060 309
-2431.89722 1769.16956 80.43840 371
-2572.32227 1866.99146 130.92868 464
-2655.37915 1925.59009 186.09511 485
-2641.04614 1915.15479 240.21687 372
-2394.13818 1765.07800 81.12099 372
-2570.51318 1889.87878 131.00897 467
-14640.35938 10461.79883 421.52786 430
-2649.14600 1946.94458 240.67383 425
-2356.66431 1762.02783 81.16564 373
-2568.21460 1912.96069 131.14340 466
-2490.28760 1857.66846 182.83781 499
-2488.65723 1856.67200 235.20755 499
-2635.01270 1961.98767 295.31989 374
-2320.93896 1758.28723 82.04190 375
-2565.01099 1936.43518 131.11552 465
-14634.99707 10733.47070 425.48944 408
-2478.46509 1873.46240 234.69351 465
-2285.74902 1755.00720 82.62630 376
-2562.67188 1960.21228 131.01035 464
-14642.32129 10875.18262 424.34799 407
-14446.62988 10730.43750 717.40063 475
-2258.07007 1757.64026 82.86702 417
-2560.30078 1983.64636 130.94945 467
-14664.00781 11033.86523 429.10849 382
-14434.99902 10865.10449 719.43921 420
-2235.79028 1762.67554 83.54910 418
-2556.34644 2005.78186 130.83298 464
-14701.12207 11207.43555 429.60367 313
-14428.44336 10997.14453 722.40350 419
-2215.43628 1769.40662 83.16306 380
-2469.70386 1964.50464 236.21336 462
-2293.81934 1852.84656 81.94341 458
-2478.98608 1996.82996 131.03258 499
-14444.16211 11295.42871 727.15387 421
-2291.35229 1874.62061 81.73429 458
-2273.11182 1860.42590 179.82043 495
-14465.54102 11454.44629 731.80170 382
-2288.98779 1896.88232 81.37721 457
-2292.82031 1899.24548 130.93008 499
-14489.47070 11620.78516 735.43036 381
-2286.89771 1919.07263 81.36379 455
-14592.84961 11851.02930 742.74054 318
-2284.48975 1941.64136 80.48013 454
-2282.87280 1964.16077 80.72120 453
-2280.70361 1986.80298 79.94246 452
-2257.17188 1992.34241 80.98045 389
-2231.75171 1995.89941 81.26016 427
-2209.53687 2001.45215 81.08450 428
-2189.81250 2007.99536 80.99390 378
-5971.92822 9661.99219 -1372.46814 1000
-18077.60547 47676.88672 -11773.30078 1000
-1881.50269 31064.07812 129.74922 1000
9666.99707 50297.08594 2646.16992 1000
11849.25293 57884.45312 -835.68201 1000
216.73378 434.29037 11.02269 323
217.55682 426.90479 12.82597 392
218.10898 428.67334 20.18673 392
218.91579 431.72675 27.13802 324
219.20639 422.86868 13.84003 448
219.61220 424.20950 21.10870 393
220.06209 425.89673 28.34533 393
220.59383 427.65012 35.67405 393
221.10957 429.28012 42.85000 393
222.00609 432.24545 49.92904 324
221.20250 420.20618 14.38888 449
221.60649 421.37247 21.71250 449
222.02026 422.65094 29.02952 449
222.35315 423.84052 36.25962 449
222.69389 425.03302 43.58926 450
223.09259 426.45575 50.79077 394
223.85425 428.91901 57.88502 389
224.18143 430.06241 65.24075 327
226.07628 436.14951 71.88155 466
223.40038 417.96667 14.67146 485
223.79781 419.02536 22.11287 485
224.01910 420.10605 29.36635 486
224.40292 421.25211 36.67989 486
224.74617 422.34058 43.95774 450
225.18918 423.63144 51.27638 450
225.69415 425.37689 58.38506 455
225.91975 426.05069 65.78978 444
226.29472 427.35782 72.93062 446
226.65515 428.52417 80.30107 446
227.17055 430.39935 87.48603 385
227.99750 432.93292 94.64013 266
225.71686 416.42819 14.90370 485
226.02002 417.45856 22.36401 486
226.40895 418.54932 29.61527 486
226.76984 419.54523 36.92992 486
227.00992 420.52200 44.15152 487
227.34297 421.66089 51.40107 487
227.82210 422.80283 58.67821 461
228.06590 423.67432 65.97179 491
228.38647 424.73782 73.23137 487
228.67908 425.79224 80.51528 487
229.12289 427.00461 87.80569 464
229.44936 428.22189 95.00224 464
228.23679 415.13376 15.12417 498
228.50311 416.26001 22.39734 498
228.80899 417.19730 29.76375 499
229.22156 418.21829 37.00160 499
229.45882 419.21545 44.33389 499
229.85420 420.25006 51.55802 499
230.22575 421.67731 58.76661 499
230.48071 422.24982 66.02380 491
230.73502 423.28006 73.36143 298
231.10332 424.21420 80.60015 499
231.42923 425.14386 87.84192 499
231.69696 426.11533 95.17832 499
233.11853 430.54236 102.22960 474
230.75514 414.40289 15.08020 498
231.09024 415.38187 22.38179 498
231.38762 416.33752 29.68456 499
231.76848 417.34592 37.04686 499
232.03665 418.37854 44.32494 499
232.43181 419.42346 51.60526 499
232.93005 420.93939 58.75154 499
233.15263 421.51660 65.99802 490
233.38130 422.54550 73.29668 490
233.78154 423.49854 80.57611 487
234.08749 424.58304 87.77348 494
234.43941 425.74918 95.04550 494
236.23955 430.98499 102.14413 495
233.38220 413.87933 14.97344 485
233.83292 414.98798 22.29677 486
234.19711 416.00681 29.54596 486
234.54698 417.13388 36.87968 486
234.89061 418.14899 44.17593 487
235.24480 419.29355 51.38013 487
235.71744 420.73956 58.58937 459
235.93184 421.40878 65.97469 490
236.36238 422.58194 73.21285 451
236.79597 423.73993 80.41310 451
237.18172 425.00165 87.74952 450
237.58749 426.37732 94.94595 395
236.26308 413.84113 14.72178 485
236.62817 415.01910 22.07039 485
237.05307 416.00082 29.33536 486
237.41640 417.19601 36.66936 450
237.87114 418.52969 43.96171 450
238.34122 419.80371 51.12568 450
238.85092 421.34003 58.39269 464
239.15535 422.48334 65.58320 441
240.63832 426.52597 72.54514 374
240.34335 425.57120 80.05844 395
241.21217 428.19684 87.20553 330
239.36180 414.34106 14.37046 449
239.77271 415.65677 21.67578 449
240.25772 416.94788 29.00484 449
240.64600 418.16437 36.28589 450
241.15665 419.60657 43.44614 395
241.74702 421.35022 50.71376 397
242.61667 423.84900 57.75795 377
243.37000 425.95291 64.93866 332
242.52364 415.28128 13.83521 448
243.03259 416.83594 21.09955 394
243.72339 418.62997 28.35789 394
244.29929 420.47580 35.51446 396
245.12733 422.71289 42.59271 325
246.23679 417.65811 12.91877 393
246.95123 419.47684 20.18471 324
248.13347 422.96945 26.93913 324
26695.53320 47190.64844 9988.48340 1000
1183.78882 1498.46741 40.27237 476
1186.29333 1501.93738 70.50906 468
1192.21472 1490.76892 40.49123 475
1194.91016 1494.29309 70.85277 468
1201.52661 1483.94055 40.75096 475
1203.42810 1486.89148 70.97499 441
1210.70703 1477.38123 40.40285 460
1212.61902 1479.88293 70.60828 459
1220.03723 1470.94604 40.61500 451
1221.44421 1472.85461 70.94531 459
1229.09399 1464.22668 40.74803 449
1230.20166 1465.58252 71.00232 470
1238.25708 1457.73254 40.51852 447
1239.25940 1458.82690 70.80238 478
1247.96826 1451.01086 40.49987 447
1248.42224 1452.20020 70.97914 478
1257.17896 1444.53271 40.28357 447
1257.58704 1444.93237 70.73197 483
1266.70825 1438.05664 40.18538 447
1267.03760 1438.63074 70.87520 488
1275.94226 1431.58020 40.41562 447
1276.11475 1432.22729 70.82773 488
1285.26660 1425.34302 40.41006 447
1285.84204 1425.61707 70.95033 488
1294.85376 1418.47205 40.32189 447
1294.97363 1419.08582 70.97443 495
1304.54626 1412.43835 40.04855 445
1304.50952 1412.34167 70.70761 493
1428.21790 1556.38135 98.31367 379
1313.98645 1405.97449 40.19475 445
1314.26257 1405.80627 70.89481 493
1425.59192 1534.76978 98.52050 380
1324.55493 1400.52917 40.24724 440
1323.59656 1399.82983 70.63023 495
1423.05396 1512.55273 98.68076 381
1334.70618 1394.65259 39.95448 439
1334.09045 1393.81958 70.44698 491
1421.46155 1491.86267 99.17778 382
1345.27795 1389.48376 39.91727 436
1344.06836 1388.10242 70.58784 492
1419.02356 1471.43054 99.07970 383
1356.08984 1384.07202 39.88434 436
1354.58984 1382.76074 70.53327 489
1417.02966 1450.65723 99.51390 384
1366.71082 1378.88049 39.21627 436
1365.38916 1377.47253 70.32625 490
1414.82190 1430.95972 99.87938 385
1377.89612 1374.30347 39.25133 431
1376.29675 1372.41846 70.33723 486
1412.46680 1411.14893 100.24444 387
1389.29199 1369.43640 38.90799 433
1387.55786 1367.50574 70.26431 483
1410.46802 1391.93481 100.35200 388
1400.66089 1364.46240 38.74707 429
1398.99536 1362.68372 69.81329 483
1412.34827 1376.84143 100.64824 488
1412.46033 1360.27307 38.62118 429
1410.05103 1357.38660 69.63450 481
1419.96741 1367.54834 100.80575 488
1424.78210 1356.15564 38.46146 427
1421.95081 1352.92517 69.86550 476
1426.75146 1358.02478 100.45828 487
1437.34644 1352.19080 37.79456 426
1434.25647 1348.69409 69.55806 474
1439.11255 1353.81189 100.31939 473
1450.84009 1348.65625 37.50294 415
1446.59460 1344.81909 69.13655 467
1451.69434 1349.71094 100.25794 469
1464.68433 1345.62280 37.11472 416
1459.61829 1341.21191 69.02602 465
1464.31299 1345.33813 100.21772 456
1479.09021 1343.60925 36.67044 407
1473.45435 1338.04822 69.08112 451
1479.17358 1343.32190 100.27859 446
1493.99475 1341.32324 36.41246 405
1488.37341 1336.00720 68.36374 443
1494.15869 1341.31519 99.96863 445
1509.39856 1339.57275 36.23156 404
1503.61267 1334.09644 68.13313 442
1509.22705 1339.21375 99.77969 444
41724.22656 38832.68359 -12169.32227 1000
1524.63782 1337.60864 35.44263 407
1519.09839 1332.27454 67.76941 441
1524.61646 1337.14307 99.61359 443
1540.73474 1336.30090 35.12104 406
1534.32141 1330.34485 67.37209 440
1538.94153 1334.35901 99.72137 443
1557.26343 1334.59924 34.44192 406
1550.34778 1328.41565 67.24299 439
1573.63501 1332.97253 33.69067 412
1566.32446 1326.28809 67.11382 438
1589.46802 1330.82483 33.25135 411
1582.40015 1324.34827 66.77266 437
1823.10852 1538.74292 93.88525 376
1605.77441 1328.56689 33.16330 410
1598.61047 1322.17688 66.12506 436
1825.73511 1521.14294 94.30650 414
1622.12146 1326.34851 32.18536 409
1614.87231 1320.44214 65.91559 435
1823.35449 1500.86646 94.67690 416
1638.30933 1324.10168 31.80664 408
1631.43921 1318.18030 65.70439 434
1817.65173 1477.38623 94.76888 372
1654.89038 1321.57202 31.25566 407
1648.29053 1316.11548 65.34373 433
1825.74524 1465.83911 94.75394 441
1671.49988 1319.64587 30.71831 407
1665.20386 1313.79834 64.87872 432
1830.74768 1452.15161 94.67857 403
1689.28699 1317.51050 30.07868 415
1682.55359 1311.89722 64.67861 431
1829.06128 1432.77686 94.87086 341
1707.00806 1315.25720 29.30148 414
1699.81213 1309.34851 63.86382 430
1831.08289 1416.99219 94.90576 261
1725.31152 1313.85059 29.13431 413
1717.08093 1307.15417 63.58775 429
1728.17651 1316.53186 97.51897 294
1743.51855 1311.87805 28.11991 412
1735.37500 1305.38379 63.23641 428
1809.32153 1363.89941 95.90255 386
1761.69556 1309.97363 27.52764 411
1753.10583 1303.10425 62.77505 427
1807.98608 1345.92285 96.01999 348
1780.26221 1307.87036 26.86112 412
1771.02539 1300.56641 62.46249 426
1807.23633 1328.54980 96.13557 294
1799.51306 1305.40674 26.53742 412
1789.47119 1298.19470 61.76168 425
1812.27393 1315.31799 96.71385 375
1818.08728 1303.41541 25.79273 409
1808.38892 1296.05859 61.81555 424
1837.79224 1301.22437 25.24138 409
1827.20276 1293.66614 61.20123 423
1856.61902 1298.80115 24.44460 408
1846.25366 1291.01465 60.81971 422
1874.38989 1295.12195 23.55680 410
1898.03113 1295.09717 22.63044 394
21014.35938 12955.55957 535.46741 1000
46524.24219 11431.39844 -8561.04395 1000
52536.51953 10884.94434 -735.21198 1000
5465.49268 877.43481 759.59033 1000
32551.27539 2266.92310 6059.66113 1000
1290.82031 17.64070 13.96478 435
1296.43726 17.70906 33.34137 374
1287.44812 10.54155 14.47825 498
1290.52966 10.56241 34.04974 477
1294.15869 10.27889 53.53301 477
1299.13855 10.43824 72.86523 378
1287.89587 2.97999 14.28633 494
1290.42419 3.06375 33.82078 493
1293.42847 2.98203 53.63728 493
1295.69324 3.02831 72.98418 494
1292.98254 -4.25414 13.91824 416
1295.80090 -4.48486 33.42854 415
1300.25183 -4.23063 52.98468 337
2331.98608 -187.76459 22.26470 336
2317.61987 -186.43521 59.33354 378
2304.90186 -199.08249 23.62539 359
2294.16748 -197.90735 60.16824 380
2356.15649 -204.02408 95.61176 293
2289.23877 -211.65277 24.28784 407
2282.21216 -210.68488 60.58724 487
2368.69165 -218.86061 95.03790 269
2281.04248 -224.04166 24.20079 418
2275.85010 -223.92091 60.90026 484
2325.27295 -228.93230 95.69389 426
2272.76733 -236.98552 24.87940 441
2268.96338 -236.52277 60.62569 488
2414.15063 -251.99231 94.47318 312
2266.99756 -249.62660 25.06810 461
2265.15332 -249.75235 61.22402 486
2261.12402 -262.60049 25.45474 464
2259.69946 -262.61182 61.31533 489
2301.74683 -267.54108 96.32378 491
2254.65942 -275.17465 25.39431 464
2254.81787 -275.05408 61.05046 471
2296.29395 -280.83664 96.33585 491
2248.57397 -288.11713 25.86020 488
2250.71118 -287.96805 61.44697 471
2243.46411 -300.51746 25.55809 489
2246.14941 -301.25183 61.43143 471
2299.54492 -322.68237 -13.72129 435
2238.30688 -313.35739 26.16994 493
2241.95483 -313.95273 61.17595 473
2293.03638 -335.59903 -13.12175 435
2233.66724 -326.48337 26.13399 493
2238.75000 -326.90302 61.44737 435
20910.40039 -3172.66577 826.15417 1000
2286.54858 -348.14456 -13.43158 422
2229.13599 -338.72607 26.25417 493
2235.79565 -340.03772 61.30640 440
2279.53345 -360.84341 -12.70224 423
2224.12476 -351.43130 26.15054 493
2232.72827 -353.22894 61.77811 440
2273.66846 -373.83267 -12.50072 432
2219.74878 -364.35425 26.58234 494
2229.21948 -365.78146 61.75377 440
2258.32446 -384.55835 -11.39813 496
2215.21704 -376.85117 26.53524 495
2226.75122 -378.80182 61.85849 412
2262.86084 -399.19766 -12.13726 437
2215.55688 -390.40851 26.69648 497
2224.23901 -392.41904 61.37045 412
2233.36523 -407.50894 -10.39349 299
2209.88257 -402.79462 26.85289 446
2221.33350 -404.95978 61.74954 417
2222.84277 -418.84848 -9.90059 306
2204.77075 -415.58032 26.61291 498
2218.96973 -418.34537 61.42611 417
2391.97803 -452.36789 94.47197 252
2215.76929 -430.89026 -9.75807 373
2201.04590 -428.04361 26.87335 498
2216.41309 -431.48712 61.59090 418
2302.13110 -449.01617 95.88228 350
2326.84497 -453.49734 169.91902 348
2342.90967 -456.92389 207.95947 283
2209.97021 -443.80585 -9.16741 373
2199.74683 -441.37885 26.41739 499
2215.18335 -444.95432 61.59103 361
2342.80981 -471.60156 94.70724 252
2338.16455 -470.32574 132.61546 320
2296.51855 -461.81488 169.26657 349
2311.70996 -465.07278 206.84825 302
2204.66919 -455.95337 -9.21141 375
2196.27979 -454.34009 26.70939 499
2213.86279 -458.06760 61.77775 361
2324.49976 -481.83585 95.39542 253
2311.12256 -479.24847 132.77708 348
2267.53296 -469.44138 169.01859 350
2277.07227 -471.60455 205.92805 303
2198.97778 -468.27954 -8.92294 375
2192.91187 -466.91156 27.01623 499
2212.64795 -471.56903 61.23124 361
2310.06836 -492.89124 95.36371 253
2281.11108 -486.85703 132.38960 349
2235.80518 -476.49619 168.44023 376
2238.79224 -477.28677 204.81212 317
2194.29395 -481.20731 -8.63890 375
2187.03809 -479.31827 27.14851 499
2211.08472 -484.47803 61.45476 361
2295.19678 -504.09320 95.43628 253
2252.76245 -494.44522 132.34879 351
2220.45020 -487.04559 168.12184 497
2230.30518 -489.23154 204.46214 419
2190.75977 -493.84088 -9.14075 435
2184.27295 -491.94934 26.83272 499
2210.51758 -498.06274 61.37179 360
2266.10327 -511.20609 95.88723 350
2224.32031 -501.27997 132.48962 352
2219.65283 -500.18567 168.43234 497
2230.09326 -502.77863 204.54121 419
60363.72656 -14174.33398 13519.00684 1000
254.20248 -61.44464 -17.08519 435
2182.22168 -505.13016 27.01963 458
2220.30786 -514.70599 60.91088 498
2237.34619 -518.73816 96.33240 351
2217.12427 -513.65204 132.35872 498
2218.33350 -514.14685 168.43097 496
2228.78906 -516.48596 204.46523 419
2184.30420 -519.60114 -8.62913 434
2181.39429 -518.60419 26.73906 499
2216.75391 -527.61700 60.77819 496
2216.55005 -527.31580 96.76328 496
2217.18970 -527.29907 132.65921 496
2217.33325 -527.63617 168.41731 496
2227.57886 -529.85425 204.71817 418
2181.63062 -532.10596 -9.12398 435
2179.41577 -531.99652 26.57396 499
2215.44141 -540.83337 60.55936 496
2215.54492 -541.33545 96.79221 496
2216.30225 -541.31445 132.49118 496
2216.36377 -541.27209 168.68222 496
2226.81152 -543.81622 204.81895 418
2178.22607 -545.45361 -8.85401 435
2176.36328 -544.51672 26.60029 499
2214.67993 -554.82025 60.81964 496
2214.69702 -554.38043 96.69698 496
2214.95850 -555.04449 132.56734 496
2215.17700 -554.52173 168.39281 496
2225.50684 -557.40552 205.01686 418
2175.71240 -558.29620 -9.16383 434
2170.54370 -556.90631 26.85567 497
2213.33276 -568.42438 60.94610 495
2213.83276 -568.37714 96.59154 495
2213.66553 -568.68243 132.75188 495
2214.17529 -568.80731 168.81937 495
2224.34204 -571.18762 204.66762 418
11629.51465 -3089.75415 3127.20068 1000
2173.53979 -571.46490 -9.07169 434
2168.82935 -569.86066 26.48009 496
2211.92432 -582.18768 60.47168 495
2234.53564 -588.45056 95.94331 495
2211.90015 -581.73676 132.64938 492
2212.09790 -581.62921 168.78934 493
2223.51099 -584.92737 204.77184 418
2171.68555 -584.76605 -9.12929 434
2166.49243 -583.10339 26.71427 496
2210.82227 -595.37354 60.33863 495
2211.53491 -595.80011 96.54448 495
2211.69507 -595.50757 132.42111 495
2211.51953 -596.13763 168.49211 495
2221.87793 -598.56238 205.04788 418
2169.15869 -597.46240 -9.20843 434
2164.61108 -596.61890 26.80171 496
2209.11597 -609.00037 60.48556 494
2204.83618 -608.07544 96.77440 495
2205.44287 -608.12402 132.61331 495
2205.53198 -608.09430 168.69499 494
2221.08203 -612.26654 204.91266 418
2217.84424 -611.98651 241.25677 457
2218.07568 -611.46631 277.54279 456
2218.60742 -611.84607 313.94318 297
2219.20361 -612.37164 351.08279 297
2167.79663 -611.25653 -9.40673 433
2162.89160 -609.63715 26.52167 495
2207.79785 -623.08636 60.11273 494
2203.90601 -622.04199 96.27068 494
2204.28271 -622.14874 132.87070 494
2204.87012 -621.86688 168.80466 494
2220.23389 -626.62378 205.28426 417
2165.92578 -624.53271 -9.64457 433
2161.50415 -623.35297 26.01723 494
2206.98901 -636.57214 60.27533 494
2202.67554 -635.46954 96.38811 494
2203.34180 -635.84259 132.46164 494
2203.42456 -635.43970 169.02180 494
2218.97192 -640.19769 205.44199 417
2164.75684 -638.26843 -9.59346 432
2159.85498 -636.56012 26.50451 494
2205.49927 -650.76599 60.05367 493
2201.80664 -649.41779 96.72977 494
2202.11206 -649.80652 132.92285 494
2202.61353 -649.35394 168.68394 493
2217.87891 -654.53455 205.61412 417
2163.21313 -651.35358 -9.87507 431
2158.64233 -649.79559 26.12309 492
2204.54443 -664.36261 60.32932 493
2200.33789 -662.95367 96.60960 493
2201.32471 -663.37146 132.38977 493
2201.53931 -663.60669 168.76825 493
2217.00146 -668.31445 205.32454 417
2162.51196 -665.16235 -9.93523 431
2157.63330 -663.47345 25.78761 492
2203.60693 -678.76868 59.71886 493
2199.50244 -677.11090 96.26543 493
2199.63989 -677.36786 132.55589 493
2200.06934 -677.60437 168.77032 493
2215.55396 -682.62854 205.57089 416
2161.11670 -678.74084 -10.40851 431
2156.30151 -677.09558 25.83287 491
2202.66675 -692.23883 60.05344 492
2203.22119 -693.07019 96.14674 493
2203.51709 -692.95331 132.62744 493
2203.90405 -692.63147 168.72102 492
2213.92944 -696.31738 205.93422 418
2340.32739 -737.68945 249.12273 291
2160.22974 -692.81335 -10.19920 430
2155.25708 -691.27295 25.47689 491
2201.27441 -706.35291 59.48814 492
2202.32788 -706.90509 96.41377 492
2202.90479 -707.03717 132.85880 492
2203.40454 -707.21783 168.89697 492
2213.83838 -710.58398 206.09656 416
2159.78394 -706.91296 -10.49261 430
2153.72852 -704.90509 25.38509 491
2200.31909 -720.54144 59.30319 492
2201.12256 -720.67450 95.93873 492
2201.60571 -720.86688 132.54828 492
2201.71973 -721.07428 169.01248 492
2213.04443 -725.11047 205.77823 415
2158.58350 -720.41473 -10.76972 430
2152.50146 -718.79633 25.10442 490
2198.77612 -734.70282 59.58885 491
2200.25464 -735.08917 96.09474 491
2200.41113 -735.34174 132.39876 491
2200.87231 -735.42230 168.99025 491
2212.25439 -738.99951 206.46706 415
2157.57739 -734.64355 -11.33373 430
2152.81689 -732.87415 24.83114 491
2198.01294 -748.79987 59.39673 491
2198.93481 -749.43634 96.14308 491
2199.70850 -749.27832 132.85205 491
2199.73462 -749.13599 169.38152 491
2210.99316 -753.62805 206.20387 415
2279.59814 -777.90253 246.96735 491
2308.29419 -787.87048 287.13101 428
2156.55054 -748.56384 -11.38016 429
2154.21655 -747.53961 24.85336 490
2197.02661 -763.07532 59.53991 491
2198.03589 -763.04114 95.62547 491
2198.33374 -763.57697 132.83952 491
2197.49585 -763.16925 169.06705 255
2209.84473 -767.96075 206.50233 415
2301.40161 -800.87537 247.86909 487
2298.34717 -799.77826 286.30707 474
2155.90283 -762.67700 -11.64131 429
2153.12451 -761.76794 24.72338 490
2196.45776 -777.81952 58.92363 490
2196.91650 -777.47461 96.15477 490
2197.26147 -777.48560 132.40938 490
2196.28442 -777.46436 169.23587 489
2208.60254 -781.92517 206.36809 414
2282.53589 -809.35760 247.32439 364
2296.46118 -814.76630 287.13419 457
2155.18481 -776.88977 -11.89905 429
2152.09595 -775.67133 24.24468 490
2195.16113 -791.94006 59.05811 490
2195.39893 -791.66907 96.08899 490
2195.55786 -791.80389 132.41206 490
2196.25098 -792.32367 169.73685 490
2207.30176 -796.42920 206.57346 414
2262.25684 -816.94336 246.34587 344
2154.27930 -791.10883 -12.54352 428
2151.25977 -789.39941 24.21665 489
2193.92358 -805.95264 59.08140 489
2194.32690 -806.52173 95.77657 489
2194.45020 -806.12097 132.43657 489
2194.89771 -806.60962 169.20036 489
2206.29590 -810.62720 206.61426 414
2293.34961 -844.07324 248.47198 334
2153.20044 -805.16785 -12.45783 432
2147.55151 -802.47760 23.95413 489
2435.07617 -914.81122 50.18957 489
2200.01709 -823.47552 132.51622 442
2323.00562 -871.24561 211.03786 251
2273.55591 -852.18512 247.63208 496
2317.09888 -868.93463 289.16074 449
2152.00049 -819.17548 -12.70447 432
2145.76172 -816.56519 24.20554 489
2270.91260 -866.27368 248.15698 485
2323.17944 -887.47083 290.21225 473
2151.01514 -833.55701 -12.90273 432
2147.43140 -831.96674 23.59261 488
2273.41504 -883.19147 248.08342 467
2320.74585 -902.14136 290.58871 495
2150.63501 -848.00275 -13.77329 431
2146.54907 -846.38165 23.34130 487
2308.05933 -912.44769 250.49910 388
2305.06641 -911.98883 289.65408 401
2149.66943 -862.66565 -13.93568 431
2145.08350 -860.72125 23.25622 487
2280.51587 -917.31732 249.67921 417
2148.54590 -876.93091 -14.01991 430
2144.42529 -874.96436 23.16534 486
2193.63062 -895.89874 57.47743 259
2147.92993 -891.52905 -14.51487 375
2140.50562 -888.28290 22.81975 486
2146.94214 -906.43195 -14.49221 375
2139.35742 -902.67871 22.32103 486
2460.71045 -1044.30957 48.16377 310
2146.50293 -921.38806 -15.13902 375
2140.78101 -918.57031 21.93873 485
2424.73804 -1046.09204 49.05216 485
2146.01123 -936.34967 -15.44687 374
2139.70679 -933.14600 22.14733 484
2404.88672 -1054.32202 49.09558 335
2145.17090 -951.29840 -15.88554 374
2138.44946 -947.96899 21.80085 484
2332.63696 -1038.07532 51.58261 332
2432.36353 -1083.78967 90.61990 333
2144.68286 -966.38776 -16.07344 374
2134.62988 -961.48389 21.83289 495
2291.04224 -1035.18018 52.92845 290
2298.14282 -1038.26538 92.35055 462
2298.69922 -1038.31506 132.30046 462
2143.91138 -981.22491 -16.30278 373
2133.03687 -976.46356 21.61375 483
2263.42554 -1038.21545 53.56799 340
2428.97949 -1117.65491 90.54886 384
2143.26636 -996.64691 -17.29750 373
2133.35669 -991.76147 20.90820 397
2233.81055 -1040.55823 54.65905 340
2428.03101 -1134.47961 90.19986 384
15239.59668 -7353.54395 962.60315 1000
2142.68066 -1011.83881 -17.43902 373
2133.80811 -1007.04248 20.48966 482
2179.26392 -1029.99524 56.15849 317
2426.56348 -1151.51611 89.96817 384
2141.65527 -1026.94397 -17.53954 372
2132.06396 -1022.56714 20.41263 481
2157.05566 -1034.75415 57.10004 311
2424.36182 -1168.63586 90.17396 395
2141.04932 -1042.85645 -18.12527 372
2130.09229 -1037.09912 20.11112 495
2155.00098 -1049.54077 56.49003 310
2167.31201 -1055.47742 94.21709 449
2140.46265 -1058.18201 -18.84519 366
2127.41382 -1051.12073 19.91187 480
2153.27490 -1064.89734 56.78168 310
2165.57690 -1070.96655 94.47202 480
2140.29834 -1073.84229 -19.24494 366
2125.84277 -1066.56042 19.39376 479
2150.94189 -1079.39856 56.12693 310
2163.46216 -1086.43848 94.11567 467
2139.19458 -1089.77234 -19.83332 365
2127.36255 -1082.99622 19.39410 479
2148.94580 -1094.56091 56.45311 310
2162.47681 -1101.61182 94.22981 467
2139.71997 -1106.34314 -19.80696 300
2126.26953 -1098.48608 19.07442 478
2147.18994 -1109.72009 56.21918 306
2160.99463 -1117.50854 94.26369 466
2124.58179 -1113.58557 18.37073 497
2145.11108 -1125.44543 56.12412 306
2160.24976 -1133.63074 93.99255 466
2121.11230 -1128.08386 18.10083 477
2143.17310 -1140.49182 55.70641 306
2158.44922 -1148.83264 94.18597 470
2119.84326 -1144.09802 17.91483 476
2141.16821 -1155.71399 55.41217 306
2214.46143 -1197.41650 92.53496 498
2124.41846 -1162.90991 17.59030 449
2206.40063 -1210.08398 52.60845 498
2208.04321 -1211.11438 92.88745 498
2215.43945 -1232.70654 11.52222 394
2200.51782 -1224.07556 53.04132 498
2202.23877 -1224.52258 92.95338 498
2198.73560 -1240.55798 52.52937 444
2201.47461 -1241.99976 92.50309 450
2201.84277 -1259.13611 52.33294 443
2203.15332 -1260.38892 92.09915 443
2161.98975 -1270.61633 132.32481 465
5205.39258 -3874.83789 1409.77039 1000
17892.77148 -17511.23438 -6556.58887 1000
29384.91211 -35100.69141 -7413.22168 1000
897.13110 -1533.34106 -8.10503 395
884.33868 -1531.24890 -7.56052 487
885.48669 -1533.69312 20.61134 486
886.53754 -1535.97095 48.88970 486
887.65302 -1538.39111 77.22587 459
874.95386 -1536.29346 -7.66830 488
876.03619 -1538.71191 20.37914 488
877.79828 -1542.13867 49.08059 445
869.80408 -1549.31946 -8.31413 330
3446.51221 -29719.01367 7648.77441 1000
90.73705 -1824.00024 13.88601 499
80.15475 -1670.35815 -3.36020 268
79.54114 -1864.08264 11.22950 499
69.82460 -1660.76990 -2.53265 472
69.74837 -1669.24463 23.89903 364
59.83602 -1660.42749 -2.65923 481
59.69130 -1656.62842 24.78807 395
55.92789 -1897.19373 40.64848 459
49.76463 -1660.54663 -2.79957 481
49.99401 -1653.07227 25.10669 492
44.57413 -1890.03186 40.60527 493
39.31369 -1660.35889 -2.92121 481
39.90900 -1652.51685 25.31756 486
33.13211 -1889.43982 40.51890 493
29.48759 -1660.37402 -2.75897 481
29.61036 -1652.46228 24.90371 486
29.77716 -1650.21521 52.35752 466
19.25891 -1660.35864 -2.95335 481
19.46703 -1652.65698 25.00049 486
19.65299 -1647.74451 52.44288 497
14.41494 -1776.82019 75.14217 263
8.74675 -1660.42993 -2.85213 481
9.25527 -1649.50781 25.21048 439
9.33738 -1647.72937 52.50234 499
6.71637 -1704.96753 77.48118 267
-1.09395 -1660.46545 -2.67796 481
-0.59441 -1648.77490 25.36232 497
-0.50615 -1647.61487 52.16685 499
-2.63227 -1688.25134 78.35191 266
-11.36552 -1660.41064 -3.09560 481
-10.70625 -1651.11694 25.25349 480
-10.51127 -1647.66113 52.42046 499
-13.03353 -1687.75378 77.90081 265
-21.53066 -1659.84424 -3.08811 481
-20.87331 -1650.87097 25.18305 481
-20.99573 -1647.24658 52.55482 499
-22.13076 -1665.86279 78.67518 493
-31.68394 -1659.80627 -2.84024 481
-31.31872 -1650.68176 24.86075 481
-30.88448 -1647.10046 52.47304 499
-48.56524 -1895.65625 71.46173 498
-41.91858 -1660.07751 -3.11776 481
-41.15514 -1650.97656 24.76562 481
-41.10562 -1647.04675 52.26667 499
-60.56157 -1895.23450 71.31171 498
-52.14527 -1659.96069 -3.29668 481
-51.56541 -1650.59131 24.71112 480
-51.10080 -1646.93164 52.01286 499
-72.29359 -1895.13635 71.21855 498
-62.39761 -1659.82874 -3.31628 480
-61.74365 -1650.57251 24.55089 480
-61.54324 -1646.76355 52.17463 499
-83.75989 -1895.17603 71.39476 498
-73.01745 -1659.90344 -3.31431 479
-71.65119 -1650.37244 24.90632 480
-71.73849 -1646.77258 51.96880 499
-72.28436 -1656.42896 78.78566 404
-83.24471 -1660.37769 -3.27653 479
-82.03745 -1650.11108 24.50210 480
-81.91930 -1646.40625 52.11388 498
-82.88493 -1656.03064 78.74608 448
-93.47615 -1660.26575 -3.63189 479
-92.34556 -1649.83411 24.66107 480
-91.76779 -1646.26770 51.95793 498
-119.07812 -1894.46228 71.26630 498
-103.79077 -1660.91479 -3.80711 479
-102.62637 -1649.74695 24.38712 480
-101.84171 -1646.14758 52.07415 498
-130.88020 -1894.47424 70.96384 498
-114.10049 -1661.12439 -3.75468 478
-112.51656 -1649.89746 24.21333 479
-112.32703 -1646.20850 52.02156 498
-142.29666 -1894.45776 71.32348 497
-124.20964 -1660.97498 -3.94505 478
-123.14485 -1649.71887 24.43690 479
-122.52898 -1645.89917 51.77848 498
-154.04289 -1894.36157 71.19387 497
-134.87396 -1661.45105 -3.97675 478
-133.24341 -1649.53613 24.34488 479
-132.60336 -1646.03345 51.68214 498
-165.91982 -1894.21326 71.20104 497
-145.15889 -1661.59363 -4.14707 478
-143.33601 -1649.09521 24.37218 479
-142.90123 -1645.84167 51.87329 497
-177.99911 -1894.37183 70.74596 497
-155.42487 -1661.84290 -4.56191 478
-153.64641 -1649.22473 24.12127 479
-153.07411 -1645.67432 51.66132 497
-189.55186 -1893.99194 70.85124 497
-166.00957 -1662.21216 -4.69434 477
-164.30104 -1649.01953 23.99742 479
-163.66110 -1645.49963 51.76602 497
-201.40277 -1893.84985 71.03789 496
-176.73572 -1662.55798 -4.46707 477
-174.15233 -1648.56934 24.09349 478
-173.78273 -1645.26172 51.53318 497
-175.09628 -1654.33972 78.28999 491
-186.98135 -1662.45691 -4.87152 477
-184.71489 -1648.74280 23.64953 478
-184.12675 -1645.31250 51.50447 497
-225.02757 -1893.72839 70.58517 497
-197.46011 -1662.80383 -4.79540 477
-195.28600 -1649.04578 23.45050 456
-194.29999 -1645.17456 51.44881 496
-236.86478 -1893.21667 70.35923 497
-208.31281 -1663.18750 -5.32037 476
-205.85040 -1648.93567 23.33020 456
-205.01593 -1645.01978 51.40400 496
-249.37410 -1895.33948 70.61923 476
-218.66087 -1663.67456 -5.31559 444
-216.22571 -1649.64758 23.52705 455
-215.13243 -1644.92175 51.33004 496
-258.95828 -1880.95337 70.83851 289
-229.60918 -1664.40369 -5.77980 443
-226.68321 -1649.72485 23.05029 455
-225.72795 -1644.74524 51.21179 496
-259.41153 -1822.70154 72.58096 292
-240.02238 -1665.40564 -5.89930 443
-237.02675 -1650.15295 23.07104 455
-236.04105 -1644.65027 50.79187 495
-268.90717 -1811.89954 72.69506 497
-250.86937 -1666.67566 -5.94094 443
-247.63379 -1650.51575 22.89227 455
-246.71292 -1644.33228 50.92979 495
-262.69467 -1724.48608 75.76241 497
-261.75003 -1667.39062 -6.50110 442
-258.34750 -1650.67432 22.70959 455
-257.22708 -1644.21948 50.80163 495
-263.16785 -1673.41943 77.42101 294
-272.76059 -1668.14160 -6.47894 445
-268.85959 -1650.55359 22.77421 454
-267.59088 -1643.95398 50.46342 495
-268.72528 -1649.10962 77.92150 494
-283.62131 -1668.68774 -6.87124 444
-279.43271 -1650.76587 22.48524 454
-277.85660 -1643.77466 50.66012 494
-279.15646 -1649.27039 78.14807 494
-335.24368 -1902.33411 101.74201 494
-289.96045 -1650.24890 22.31453 454
-288.36365 -1643.61938 50.49778 494
-289.71686 -1649.11047 77.91048 493
-347.66602 -1901.92615 101.52197 494
-300.91132 -1650.30933 22.30170 454
-299.16425 -1643.78430 50.51294 494
-300.49957 -1649.33777 77.92779 493
-359.72568 -1901.93359 101.66848 494
-311.30756 -1650.44092 22.12355 439
-309.60504 -1643.47070 50.26518 493
-311.12457 -1649.13953 77.64214 493
-372.14780 -1900.23706 101.14931 497
-322.35678 -1650.44385 21.60192 439
-320.52002 -1643.59241 50.13796 493
-321.81686 -1649.10132 77.59111 492
-383.63043 -1899.21765 101.62160 498
-333.10339 -1650.98108 21.59774 439
-330.93384 -1643.47156 49.91940 492
-332.53989 -1649.13013 77.31279 492
-395.43335 -1896.97998 101.54399 499
-343.99387 -1651.37195 21.26901 438
-341.74457 -1642.95288 49.90393 492
-343.26892 -1649.25732 77.62594 491
-406.70206 -1891.54053 101.36543 446
-354.78107 -1651.92114 21.07348 437
-352.80139 -1643.36047 49.49792 489
-354.20245 -1649.28845 77.42133 491
-354.46777 -1650.64075 105.48360 491
-366.04971 -1652.52393 21.12700 435
-363.59387 -1643.27429 49.66407 488
-365.14957 -1649.34607 77.28903 486
-365.13776 -1650.47583 105.12963 485
-376.90619 -1653.28528 20.58184 435
-374.71344 -1644.20947 49.19091 480
-376.24066 -1650.81531 76.83872 474
-376.70483 -1652.27917 105.22334 477
-388.39050 -1655.07288 20.54574 429
-385.82159 -1645.88892 48.83694 479
-388.09610 -1652.77710 76.97158 474
-388.32825 -1654.21228 104.90574 477
-400.01782 -1657.04333 19.94900 423
-397.59412 -1647.72058 48.92826 474
-399.32217 -1654.86206 76.48185 473
-400.71518 -1658.30957 104.68333 358
-411.97797 -1659.95337 19.73916 423
-409.17908 -1650.14978 48.28738 471
-411.09915 -1656.82703 76.70412 474
-416.54861 -1675.37695 104.58733 371
-424.20230 -1663.04773 18.97016 415
-420.65021 -1652.56201 48.28089 465
-426.86325 -1671.11072 76.10472 369
-436.45850 -1666.38611 18.69626 411
-432.61096 -1655.36169 47.86026 459
-495.42688 -1854.68066 69.62195 499
-448.96625 -1670.43872 18.12419 407
-445.10965 -1658.64209 47.65364 455
-507.14380 -1851.39221 69.75137 499
-461.26163 -1674.38501 17.87700 407
-457.46960 -1661.98938 47.26276 455
-518.30396 -1847.17053 69.83640 498
-474.21567 -1678.88940 17.27301 402
-469.80035 -1665.66895 46.87245 448
-528.96100 -1842.36792 69.54210 498
-487.43887 -1684.02380 16.36923 401
-482.86789 -1669.74341 46.39396 447
-539.59821 -1836.38416 69.47095 495
-501.05273 -1688.85962 15.66008 396
-495.58090 -1673.89026 46.09170 439
-550.44806 -1830.61279 69.70525 495
-514.53619 -1695.01172 15.06050 388
-508.80328 -1678.64612 45.49858 439
-560.72620 -1824.65271 69.67136 496
-528.51685 -1701.72705 14.58076 381
-522.44843 -1683.90393 45.16891 426
-571.08344 -1818.95544 70.12292 496
-543.46271 -1708.77405 13.54093 383
-536.22772 -1689.82446 44.86824 425
-581.46423 -1812.54504 69.71526 494
-558.51685 -1717.38501 12.87649 376
-550.65936 -1696.33582 44.32750 413
-591.78406 -1805.75232 69.89536 494
-573.59320 -1726.08130 11.97355 375
-564.50531 -1702.76379 43.65409 264
-601.35095 -1798.40247 70.22672 489
-588.97644 -1733.47961 10.97983 387
-578.19934 -1706.21716 43.39042 418
-611.25433 -1790.94446 70.29321 489
-604.40173 -1741.77917 10.52284 387
-592.74316 -1712.96155 42.51870 375
-620.83850 -1783.46533 70.18781 487
-608.00726 -1720.27039 41.97622 411
-622.86676 -1757.20679 71.21510 300
-623.55627 -1728.40808 41.26160 410
-639.92041 -1767.61243 70.68169 294
-640.33405 -1737.82947 40.55002 399
-654.31134 -1772.57056 70.11916 406
-656.91504 -1748.71973 39.84762 336
-674.72186 -1760.18738 38.64009 391
-636.39667 -1061.49963 -145.06026 1000
-36995.76172 -54305.29297 -4158.30273 1000
-2288.79028 -2733.90894 14.24631 494
-2289.04834 -2734.66895 73.27506 498
-2289.93799 -2735.34717 132.58925 478
-2291.59814 -2737.34473 192.12317 436
-2760.80322 -2178.33179 14.82604 451
-2760.29639 -2177.82520 74.42011 451
-2760.73730 -2178.17432 132.38776 451
-2760.68604 -2177.97290 191.25563 396
-2761.21826 -2177.64819 250.06641 363
-16667.48242 -8871.11230 -487.53589 1000
-5802.88525 -3028.09790 23.33510 493
-5265.83398 -2547.00952 35.32063 465
-4754.78662 -2053.62500 46.64289 437
-258.38348 -72.12040 36.50097 321
-256.32425 -69.43984 37.12195 322
-276.50064 -73.59040 38.19040 318
-256.61926 -67.34332 37.20201 352
-274.39642 -70.77737 38.86842 321
-258.55600 -65.44528 36.71718 351
-273.00711 -68.23023 39.28450 345
-274.83502 -66.25285 38.91366 345
-292.26627 -69.35339 41.23045 318
-276.80652 -64.25428 38.52293 347
-292.78006 -67.01923 41.24959 341
-279.28958 -62.29977 37.97651 324
-295.36804 -65.05641 40.67038 315
-19128.45508 -750.42651 448.18961 452
-19207.40820 -634.30414 131.05981 452
-19068.91211 -628.31647 443.74380 457
-19164.40234 -515.35779 132.23518 447
-19010.85352 -512.17651 442.72415 463
-19111.68945 -394.69992 132.14941 443
-18961.57422 -392.55307 442.88107 464
-18916.75391 -273.26636 444.23975 464
-18868.16211 -158.32735 444.83463 465
-18815.30469 -39.40941 441.89740 465
