# .PCD v.7 - Point Cloud Data file format
VERSION .7
FIELDS x y z rgb
SIZE 4 4 4 4
TYPE F F F U
COUNT 1 1 1 1
WIDTH 937
HEIGHT 1
VIEWPOINT 6993.753906 -2184.474121 137.714737 -0.635268 -0.117741 -0.090891 0.757833
POINTS 937
DATA ascii
-35153.79297 1408.25427 8356.47461 1000
-17187.69141 1435.73218 984.78229 457
-17254.24805 1547.93115 702.97784 452
-17119.48242 1534.64087 980.35492 458
-17184.85742 1648.58032 701.05115 462
-17059.66797 1636.02942 980.91168 463
-17126.64062 1749.28394 699.41211 463
-17001.17773 1739.17676 977.76807 464
-17066.16797 1853.17871 696.16034 463
-16942.28125 1837.32458 975.80981 465
-17012.56641 1950.46985 697.27423 464
-16886.36133 1936.49854 973.62720 465
-16954.37109 2049.46729 695.74884 464
-16827.41992 2037.04346 967.84399 473
-16895.86914 2148.21558 691.15088 465
-16775.50391 2135.49487 966.32281 474
-16838.55469 2246.70508 693.68671 465
-16720.41016 2232.06177 965.72314 474
-16784.64648 2345.76733 688.23767 466
-16663.00586 2329.71069 961.36987 475
-16725.27148 2445.63770 691.17285 466
-16606.91797 2425.47070 959.67535 475
-16668.21484 2540.40527 686.67969 467
-16551.86914 2522.19580 960.13763 476
-16612.10547 2637.84668 686.62109 468
-16495.40039 2620.54639 958.45386 476
-16556.85938 2734.13354 685.32593 468
-16442.47461 2716.20581 954.78400 480
-295.13773 66.08609 41.15947 341
-16501.15234 2830.00122 684.54846 469
-16389.84961 2812.19312 954.02563 481
-277.02591 65.27954 38.87988 347
-293.20169 68.14217 41.58260 340
-16450.62891 2923.91553 680.58173 469
-16337.44727 2904.93408 952.77386 481
-275.17038 67.32591 39.31577 345
-294.59982 70.85632 41.05541 318
-16393.98633 3021.33887 678.85028 470
-16283.89648 2998.13892 949.78979 482
-274.86066 69.52132 39.18078 321
-16338.48926 3113.83545 680.06042 470
-16228.97949 3094.00415 950.90900 482
-276.68561 72.21093 38.63304 318
-16284.46680 3209.56201 678.22803 470
-16176.31641 3186.20288 948.95239 483
-16228.03320 3302.24780 677.95117 471
-16124.25586 3280.15576 943.29340 483
-16176.82715 3395.72363 678.49280 471
-16068.18262 3372.29810 944.98267 483
-16122.18555 3487.13574 675.97980 472
-16015.60352 3463.79736 942.39294 484
-16066.68750 3580.86279 672.92773 472
-15966.43848 3555.92285 941.23865 484
-16014.46875 3670.76978 672.14783 473
-15914.29492 3647.60303 940.39227 485
-15961.29785 3761.85669 673.61609 473
-15860.18359 3741.28931 938.08704 485
-15908.88965 3852.40869 670.90118 474
-15806.91699 3830.92139 935.85132 486
-15858.33984 3945.12915 669.95831 474
-15754.34863 3922.13013 932.67920 486
-15806.24219 4038.58447 668.38116 474
-15702.80859 4010.73169 934.40228 486
-15752.18848 4126.62891 667.38715 475
-15651.67676 4100.27686 934.05133 487
-15699.39062 4215.18457 669.06982 475
-15602.56250 4189.25391 930.78979 487
-15649.60449 4307.60742 665.55603 475
-15551.22949 4280.68994 930.83362 488
-15595.51855 4394.11865 664.01434 476
-15501.04199 4370.07031 929.10742 488
-15542.99609 4487.01172 667.27930 476
-15452.43848 4457.85889 926.55731 488
-16179.36719 4665.04004 1240.61035 478
-15494.18652 4575.75000 662.73364 477
-15397.12207 4547.65674 926.45111 489
-16102.61328 4753.26123 1239.29333 479
-15439.50195 4664.89160 664.98889 477
-15347.05273 4636.33984 924.07495 489
-16030.33789 4842.49072 1237.15942 480
-15391.15234 4752.09619 664.86084 477
-15299.53516 4725.77881 924.86884 489
-15959.39844 4927.84961 1235.28748 480
-15340.65527 4837.58447 660.73596 478
-15249.18750 4810.28760 920.88092 490
-15891.70898 5015.16064 1229.79126 481
-15288.67188 4929.84570 662.60699 478
-15198.87988 4896.83154 923.42725 490
-15822.92188 5097.18896 1228.34497 481
-15237.70996 5014.14062 660.63965 478
-15151.01953 4984.76953 918.67633 490
-15750.29590 5182.22510 1226.96802 482
-15184.34375 5103.67529 661.41461 478
-15097.43945 5074.91260 917.69983 491
-15678.09082 5269.09131 1224.42468 483
-15136.37598 5189.85596 660.27515 479
-15049.88770 5161.02002 917.88660 491
-15609.89551 5352.94482 1218.31921 483
-15083.42773 5275.66602 657.94000 479
-15001.24707 5247.55127 918.08051 491
-15551.87891 5437.21631 1216.55078 495
-15032.04199 5364.31836 658.69598 479
-14948.67188 5331.64941 916.00787 492
-15499.97461 5529.61621 1216.89758 495
-14983.46191 5450.29102 658.74933 480
-14901.67871 5420.61377 916.94543 492
-15446.94824 5615.39600 1216.69897 495
-14933.88379 5534.72314 656.07770 480
-14850.22266 5506.33838 914.52417 492
-15397.23730 5707.74414 1213.63696 495
-14880.93652 5620.51904 658.30829 480
-14801.27539 5592.57129 916.30402 492
-15346.26855 5795.94922 1212.17468 496
-14834.00781 5710.48730 657.79028 480
-14751.70312 5677.46973 915.16534 493
-15293.99805 5884.09424 1214.64502 496
-14784.85254 5792.74512 653.54510 481
-14702.60742 5761.05371 911.83600 493
-15240.27246 5974.65869 1210.43323 496
-14731.41895 5879.19971 654.92444 481
-14657.31641 5848.41553 914.44745 493
-15109.03320 6028.24365 1204.55090 446
-14681.25684 5966.40234 656.70935 481
-14604.66309 5934.23340 913.12842 493
-15038.49023 6107.38770 1204.47583 495
-15170.51758 6160.42627 1480.65466 497
-14634.68848 6049.91504 653.64996 481
-14556.45215 6017.74365 909.17206 493
-14987.26660 6194.06543 1200.63098 495
-15119.02441 6251.11523 1480.24292 497
-14584.02930 6135.46777 651.94373 481
-14510.24121 6103.13721 911.35107 494
-14939.69141 6282.90674 1198.64136 490
-15070.46191 6336.80469 1480.34363 497
-15241.59180 6408.97461 1771.95312 441
-14534.23047 6219.30713 653.56543 482
-14460.45117 6190.10889 911.91498 494
-14889.18457 6373.13818 1199.65027 490
-15016.30078 6423.86035 1477.32788 497
-15128.31738 6472.27930 1763.69556 462
-14484.25781 6305.28369 650.96948 482
-14412.93164 6273.51172 907.16321 494
-14902.21973 6486.46143 1201.96899 297
-14965.44824 6513.34424 1478.71985 440
-15148.50586 6593.48486 1767.99109 343
-58837.28516 25923.34570 -12670.45117 1000
-14435.12109 6389.75879 652.34930 482
-14363.06641 6359.65283 907.78082 497
-14847.78125 6571.94141 1202.03784 441
-14848.51172 6573.98389 1471.77930 440
-14842.46387 6571.77539 1739.08276 440
-14384.95898 6475.36182 650.14069 482
-14315.43457 6442.30225 909.36084 497
-14732.91406 6628.36084 1198.02222 442
-14728.76660 6630.19629 1464.60693 441
-14726.11523 6626.12207 1731.95544 441
-14335.17578 6557.88916 653.48474 482
-14267.34570 6527.99609 910.04523 497
-14619.33789 6685.64795 1194.19360 443
-14612.60547 6685.15576 1457.19946 442
-14612.44238 6683.03906 1721.66382 442
-14290.12695 6642.72510 650.10614 482
-14219.77344 6614.34326 909.42316 497
-14536.49121 6758.70459 1190.07385 498
-14527.35449 6756.16357 1454.17175 498
-14519.79785 6750.84473 1718.50159 498
-14237.61621 6730.50586 649.77594 482
-14170.43652 6699.00928 908.38275 497
-14483.31836 6844.59668 1190.42297 498
-14479.15527 6843.20654 1454.64502 498
-14470.12305 6839.62012 1715.74463 498
-14754.79004 6971.20703 2021.04724 479
-2511.27930 1241.94800 85.58019 461
-2522.86353 1247.31323 132.22951 335
-14189.51172 6811.71436 652.97491 483
-14124.92090 6782.37354 905.92035 497
-14409.71582 6915.27783 1185.16101 498
-14402.20508 6912.70068 1449.52087 498
-14422.05176 6923.27246 1715.21362 498
-14596.01758 7006.72314 2003.25330 491
-14587.31543 7002.74609 2276.38989 491
-14579.46289 6996.84619 2543.82178 483
-14585.64355 7002.79102 2817.82788 471
-2504.89868 1258.51782 84.98887 439
-2509.02539 1260.79272 132.70943 429
-14138.45898 6896.49512 648.93762 483
-14073.43066 6863.47559 907.10889 497
-14358.05566 7000.48291 1183.66357 499
-14349.15430 6999.30176 1450.50830 498
-14370.56250 7009.09717 1716.97839 498
-14654.07812 7144.26953 2018.20605 479
-14090.30469 6981.26416 650.21423 483
-14028.16016 6947.99219 905.59332 497
-14308.40430 7086.62012 1182.94910 499
-14299.34863 7081.78418 1446.54553 499
-14323.94043 7096.20703 1715.19922 498
-14549.84863 7205.59375 2010.34668 479
-14043.39453 7063.27148 651.81732 483
-13977.12598 7035.30273 906.86926 498
-14260.02148 7172.96631 1183.45801 499
-14252.90625 7167.64600 1447.23669 499
-14271.95410 7180.69727 1712.67163 498
-14548.33691 7320.90967 2018.04321 480
-13991.51953 7150.42725 652.27191 483
-13932.49805 7119.69189 903.90216 498
-14207.09473 7259.81787 1186.37244 499
-14203.81152 7254.08594 1448.57861 499
-14220.85059 7263.40381 1712.93518 498
-14501.13867 7405.66650 2015.20447 471
-13944.75391 7230.86133 651.17902 483
-13884.32617 7200.57471 907.04944 498
-14160.01660 7343.42725 1186.21338 499
-14150.94434 7340.20312 1447.00647 499
-14173.25977 7352.67773 1714.94092 499
-14448.47461 7494.78027 2013.53918 471
-13892.91895 7316.75244 649.76727 483
-13834.97559 7287.24365 904.84509 498
-14110.47070 7429.62549 1182.09302 499
-14103.61719 7423.39111 1447.01270 499
-14121.65234 7437.66943 1712.80139 499
-14401.05078 7580.32080 2014.93042 471
-13848.05469 7401.52002 650.28021 491
-13790.01172 7369.34326 906.29395 498
-14083.93848 7526.75146 1186.43359 499
-14079.29883 7523.37744 1448.79565 499
-13785.28809 7367.17432 1682.21924 343
-14349.71973 7665.39697 2013.02917 471
-13796.71387 7484.69336 651.80646 491
-13741.13281 7451.47607 904.73010 498
-14035.14160 7611.81250 1183.13000 499
-14027.44531 7608.27686 1448.87170 499
-13727.17090 7445.60352 1680.43127 499
-14297.93945 7756.46338 2011.92126 472
-13750.05859 7568.62256 647.82355 491
-13691.32129 7536.52100 906.14294 498
-13869.66992 7632.75000 1174.16101 426
-13773.89453 7583.44678 1427.15369 489
-13679.68262 7528.75439 1677.09790 499
-14248.47656 7842.27100 2013.45728 472
-13702.60742 7653.82324 647.55164 491
-13646.67969 7619.66162 904.42456 498
-13934.00488 7783.08887 1183.78162 499
-13930.49707 7779.12646 1448.56580 499
-13633.66211 7612.68457 1678.19019 499
-14199.69043 7929.73828 2011.48755 472
-13650.66699 7736.65381 650.31262 491
-13596.12207 7703.06885 903.65277 498
-13886.91309 7867.77881 1183.75281 499
-13882.53418 7865.07910 1446.98267 499
-13585.30371 7697.22852 1677.77588 499
-14150.97461 8016.77783 2014.88940 475
-13605.04102 7818.37061 649.21033 491
-13549.12207 7786.52979 902.62085 498
-13837.27246 7951.40771 1184.81738 499
-13830.28125 7947.24805 1450.04236 499
-13636.20215 7837.02100 1691.95239 347
-14102.73438 8104.47363 2011.62280 475
-13557.69141 7903.29346 651.74469 491
-13503.23535 7872.27051 906.47314 498
-13815.75781 8054.45508 1185.39709 462
-13806.15918 8050.56787 1449.38110 462
-13803.81055 8047.68262 1714.87024 358
-14062.85156 8197.56250 2015.22388 459
-13508.48145 7988.05371 650.23553 491
-13453.90820 7954.03467 903.57727 498
-13813.26465 8169.10547 1188.42407 479
-13807.90723 8166.33154 1453.74341 461
-13797.77148 8160.18066 1718.61438 365
-14041.30371 8301.86035 2019.64490 464
-13461.10547 8071.29346 649.05280 491
-13405.27051 8039.26025 907.20764 498
-13791.33789 8267.66211 1190.98608 479
-13813.84863 8281.61914 1459.76770 460
-13816.65137 8285.31055 1725.58557 365
-13500.22754 8211.47070 391.57693 480
-13411.90723 8154.50879 648.89801 491
-13360.07031 8124.63379 906.01440 498
-13774.19434 8372.84961 1195.51038 478
-13814.44043 8398.70996 1466.75867 477
-13839.88867 8414.01367 1737.89551 364
-13448.07617 8293.24707 394.94965 480
-13362.22363 8237.89160 649.74109 491
-13309.44727 8209.00195 904.30341 498
-13753.19824 8477.57617 1196.04028 478
-13795.00098 8502.54980 1470.56677 477
-13402.26953 8375.95410 390.87143 480
-13312.92383 8322.55371 648.66803 491
-13263.45703 8293.38477 905.22601 498
-13733.07227 8582.94629 1200.08350 477
-13349.12695 8462.47070 391.45642 480
-13267.38867 8408.47559 647.96649 491
-13213.72266 8376.84668 904.19891 377
-13300.33691 8545.96973 392.75772 480
-13218.65234 8491.15625 652.22485 491
-13171.37500 8462.60059 904.04376 377
-13254.10156 8632.70410 393.91220 480
-13166.86035 8576.97852 649.37238 491
-13128.14648 8552.05957 906.52234 377
-13203.92676 8713.60352 391.40097 480
-13117.74902 8660.97363 650.30609 491
-13079.99316 8635.98145 908.92401 446
-13151.53027 8798.60547 393.90247 480
-13072.77441 8742.99219 650.32788 491
-13029.97852 8718.13379 905.13245 446
-13102.46680 8882.12500 391.20206 480
-13023.59277 8829.19141 650.68866 491
-12984.30469 8802.19238 905.87543 446
-13054.05664 8967.39258 395.78165 480
-12973.12207 8911.85742 648.82086 491
-12934.22656 8885.25391 906.55267 446
-13004.63574 9052.82129 392.48654 480
-12926.02539 8996.49219 652.00195 491
-12884.17578 8969.22656 906.91345 446
-12954.52148 9138.55859 392.69092 480
-12876.96777 9081.59961 651.96893 490
-12833.91016 9052.09473 906.48297 446
-12908.07812 9222.36523 392.44620 480
-12824.99902 9167.37695 650.94006 490
-12785.46387 9136.50391 908.29510 424
-12858.49609 9304.64160 394.55051 479
-12778.87500 9251.76172 654.06287 490
-12741.06445 9222.12109 910.18304 423
-12807.21777 9389.23633 392.51205 479
-12731.39160 9334.55957 650.83337 490
-12703.82910 9315.29688 908.92877 296
-12758.74609 9475.85938 395.63892 479
-12681.75488 9419.28027 650.67511 490
-12669.36816 9411.98340 910.54572 296
-12707.84570 9561.60840 394.40237 479
-12629.44629 9503.84863 652.80499 490
-12630.53027 9506.97461 912.01166 296
-12658.54590 9648.74805 394.96103 479
-12582.82324 9589.68652 654.93085 489
-13821.19043 10529.07324 992.07953 424
-12605.73633 9729.57910 396.94513 479
-12531.46289 9673.23535 653.11859 489
-13763.00293 10617.95801 990.76086 423
-12557.98828 9817.81543 396.89001 478
-12483.29492 9758.74707 655.33453 489
-13707.83691 10708.29492 993.53638 423
-12505.20312 9904.30762 396.64929 478
-12432.72168 9844.12012 653.15161 489
-13651.55859 10800.65625 993.26764 419
-12457.13477 9988.81152 394.66449 478
-12385.66699 9932.52441 656.04633 489
-13599.81934 10896.27930 993.69910 419
-12403.59961 10074.31152 394.04276 478
-12333.14160 10018.25879 654.13623 488
-13547.35645 10992.73145 993.92273 419
-12354.64453 10159.87598 395.48502 478
-12286.47754 10105.21484 656.95325 488
-12304.01855 10245.86230 394.77170 477
-12233.41602 10187.59082 655.45496 488
-12255.29199 10335.16016 395.98615 477
-12186.60352 10274.23438 657.73669 488
-12201.96191 10419.31641 396.28159 477
-12136.25293 10362.34277 657.40405 487
-12153.81152 10505.99902 397.89297 477
-12086.80176 10446.94531 659.93469 487
-12100.64844 10591.55371 399.56653 476
-12036.92676 10534.48242 658.45648 487
-12049.70605 10678.58398 398.32281 476
-11983.28809 10620.98730 659.63336 487
-11997.27246 10631.22070 923.81744 423
-11997.09766 10767.60059 397.48871 476
-11933.94727 10709.98828 662.05859 486
-11941.43359 10719.75195 927.14130 438
-11948.01270 10854.07031 400.29373 476
-11882.52832 10799.35547 662.00946 486
-11890.17773 10803.50586 925.78534 437
-11897.57422 10944.85059 399.34668 475
-11833.35938 10886.98145 660.52441 486
-11846.55664 11032.04492 400.53207 464
-11779.82422 10973.81055 664.11414 485
-11801.85156 11129.73535 398.82028 466
-11730.66699 11059.57910 663.59998 485
-23335.18164 22187.66211 -3577.86108 1000
-11760.75488 11229.00293 402.78787 466
-11679.56055 11150.53223 664.83301 485
-11721.52637 11329.33203 400.67798 465
-11632.27051 11243.84570 666.47516 466
-11681.03320 11430.51953 400.70255 465
-11591.10156 11341.43555 667.66217 465
-11640.99805 11529.00098 403.37192 464
-11553.64062 11443.00977 665.73334 471
-11598.17188 11628.18359 405.17145 464
-11510.14844 11544.64062 666.93939 470
-11556.42090 11731.04590 402.30801 463
-11468.78711 11647.02051 671.81549 470
-11528.12305 11845.09668 405.35471 422
-11427.11621 11746.72363 669.79913 469
-11502.01562 11967.38086 408.06912 422
-11384.88086 11848.43359 673.92389 468
-11482.85840 12100.37109 405.22089 399
-11345.98438 11949.13965 676.30151 468
-11471.83398 12235.49609 407.92017 399
-11309.84277 12061.55273 676.50708 412
-11453.28027 12370.26172 410.04874 398
-11287.64355 12188.30273 679.83862 422
-11451.05566 12517.11719 412.13629 372
-11264.09668 12310.52539 679.88483 421
-11478.85742 12702.48145 415.91040 303
-11240.08789 12439.88672 684.27130 420
-11214.68262 12564.60156 686.93463 419
-11200.35352 12705.58203 687.57697 372
-11200.34473 12864.58301 694.47516 371
-11199.69434 13028.16895 698.94592 371
-11217.81836 13208.43945 704.60840 322
-3336.68408 6991.77588 -377.75290 1000
-980.78815 2196.34766 52.18761 288
-990.46558 2215.49829 92.32437 335
-946.82587 2160.37695 54.12871 363
-968.11786 2203.67480 92.22906 335
-968.63470 2240.55615 10.70385 301
-922.07367 2142.08374 54.56839 375
-951.17828 2204.51636 92.51680 278
-923.86346 2180.37231 13.86937 357
-898.95947 2127.64307 55.58612 399
-962.38092 2262.47876 91.81378 433
-897.51056 2158.78979 15.38816 355
-877.88696 2116.58057 56.44896 401
-950.96161 2274.50073 91.27775 365
-875.06110 2144.74780 16.70237 391
-858.48657 2107.65405 56.61802 391
-938.88269 2285.48926 91.67522 369
-846.20813 2115.51978 18.40919 280
-839.04327 2099.54785 57.52108 392
-930.03992 2303.96606 91.03471 434
-819.86719 2091.79761 20.57075 363
-820.21790 2092.31030 58.00298 403
-799.41479 2079.07397 21.26220 364
-802.24280 2086.28467 57.83788 360
-778.85864 2066.41479 22.05170 364
-785.42194 2082.30371 58.52690 360
-759.64563 2057.35132 22.73943 429
-768.64301 2078.63647 59.04302 360
-742.11218 2050.57227 23.56825 430
-752.43274 2075.12329 59.36589 363
-725.01855 2043.64893 24.37284 431
-738.37952 2077.52075 59.26658 295
-707.86707 2038.16785 24.94484 441
-746.56006 2136.39917 56.94955 451
-747.27942 2137.11987 94.68301 451
-691.22870 2032.68005 25.41069 442
-729.69696 2131.89697 57.75484 452
-730.35052 2132.53735 95.29313 452
-675.02008 2027.58057 26.04905 446
-713.08960 2127.62476 57.66151 452
-719.92334 2145.68872 94.89603 366
-659.30457 2022.91113 26.59090 452
-698.37811 2128.68091 58.38680 394
-714.12042 2169.30469 94.71885 365
-643.60114 2019.39917 26.94306 453
-692.31567 2151.82275 57.56058 393
-707.88934 2193.53174 94.07281 364
-628.15930 2015.20984 27.12134 454
-686.15472 2176.00684 56.56582 391
-701.43060 2218.31348 93.58635 363
-612.94318 2011.44666 27.43918 455
-648.88068 2114.81641 58.86536 456
-694.98242 2243.36328 93.42896 362
-597.30859 2007.56396 28.22129 456
-633.00989 2110.25977 59.33198 457
-582.41742 2004.11072 28.54749 456
-615.05469 2099.63354 59.74461 458
-615.07220 2101.02466 95.97180 458
-567.27930 2000.29529 28.79902 457
-600.02637 2098.97339 60.01440 386
-599.24976 2096.51245 96.47282 459
-552.20740 1996.43713 29.53209 458
-593.97583 2123.16650 59.15960 385
-592.42694 2119.43164 96.24039 385
-537.72620 1992.80542 29.55081 435
-589.65924 2155.12378 58.13281 469
-588.88861 2153.49829 95.68172 460
-589.12189 2153.07910 169.24524 380
-528.10095 2005.31812 -5.47011 315
-523.11163 1989.67590 30.20917 436
-580.66779 2173.10254 58.12041 461
-568.96448 2136.32422 169.27470 381
-6210.94434 20173.65234 2916.28540 1000
-512.06061 1998.05603 -4.32597 315
-508.91327 1986.53625 30.25912 436
-525.63196 2041.66162 62.62110 462
-549.48230 2119.06787 168.43617 382
-496.46832 1990.61719 -3.49089 316
-494.49161 1982.88354 30.58118 437
-510.84930 2037.47266 62.84308 463
-481.44653 1983.71484 -2.98083 406
-479.94855 1979.85144 31.01301 438
-496.93878 2036.62573 62.83885 372
-497.26978 2039.09766 97.62981 291
-533.97412 2163.04126 169.65633 497
-535.03662 2167.10547 206.57260 463
-535.14050 2167.62646 243.32860 463
-466.52002 1978.66809 -2.43467 407
-466.21500 1976.67065 31.61440 438
-486.48639 2048.86450 62.48451 449
-490.34497 2062.07495 97.43276 291
-452.51218 1973.86719 -1.57409 407
-452.10516 1973.27087 31.63113 439
-484.26001 2088.58643 61.26497 376
-483.74744 2087.03345 97.03662 376
-438.12964 1969.20935 -1.56351 408
-437.94562 1970.08862 32.41003 439
-477.59360 2114.35718 60.86269 375
-423.72168 1964.72571 -0.94829 409
-424.32730 1967.22363 32.49527 440
-470.32812 2140.58813 60.15077 373
-409.47211 1960.06226 -0.09646 409
-410.55289 1963.95190 32.64857 441
-463.26935 2167.97900 59.41186 372
-395.28745 1955.26111 0.44581 410
-396.93005 1961.25867 33.02346 441
-455.47070 2193.98975 58.32669 377
-381.30090 1951.06079 0.88654 410
-382.95148 1958.04541 33.15535 442
-367.47998 1946.68835 1.46056 411
-369.58267 1955.28003 33.86694 378
-394.67081 2060.33545 271.15186 463
-354.01260 1942.09839 1.60708 468
-356.59479 1952.78467 34.01554 378
-340.68436 1938.66431 2.07511 469
-342.98618 1950.77673 34.02715 379
-384.89487 2134.92139 168.55511 483
-327.06195 1934.96948 2.83625 469
-330.13632 1948.25940 34.19305 379
-378.49936 2168.23047 96.09911 448
-378.38751 2168.41553 132.78062 472
-371.91959 2138.35596 168.50284 364
-375.30344 2153.88281 204.86191 471
-313.80768 1931.16516 3.02279 470
-317.16052 1946.17810 34.71094 379
-300.83899 1928.12207 3.32035 471
-304.02716 1943.59265 35.11775 380
-287.73151 1924.05713 4.00359 471
-291.07846 1941.66028 35.44938 380
-274.80472 1920.55762 4.37872 472
-278.24304 1939.43335 35.17858 380
-261.90033 1917.52551 4.66462 473
-265.54852 1937.31836 35.36459 380
-248.87137 1914.06104 4.89023 473
-253.02708 1934.76575 35.99075 381
-236.16171 1910.33496 5.53437 474
-240.65405 1934.75281 35.87241 296
-223.45831 1906.96301 5.82120 475
-228.17673 1935.42041 36.04749 296
-210.78145 1904.95801 5.82294 495
-254.51550 2169.58472 24.66954 451
-198.85350 1905.74634 5.82746 495
-215.94565 2015.09399 32.27473 478
-187.28395 1906.05762 6.13078 496
-209.57899 2053.65039 30.67448 450
-209.00052 2052.71948 64.65359 450
-174.88933 1906.17212 6.26193 496
-211.80461 2160.31372 25.53728 373
-163.07236 1906.68750 6.38852 496
-195.74986 2142.55347 26.49621 480
-151.09604 1907.42065 6.40586 496
-184.28296 2155.54590 25.80210 373
-139.17389 1908.08472 6.52095 497
-170.40753 2153.07568 25.84550 374
-127.23824 1908.36035 6.62696 464
-156.41206 2150.72290 26.05175 374
-3478.41382 29936.24609 6130.80713 1000
-141.67529 2140.24780 -8.88299 476
-143.30865 2152.03271 26.37231 394
-128.80760 2140.58130 -8.85494 476
-115.37724 2140.74463 -8.55183 476
-102.01403 2141.07690 -8.54953 476
-89.13338 2144.99976 -8.69922 347
-4213.92627 52400.47266 -4176.62012 1000
3532.66992 28348.31641 -334.09613 1000
259.84647 853.12128 -10.74110 374
261.07324 858.52521 2.95134 302
264.11560 846.27942 -9.69750 435
264.59494 849.19507 4.16052 435
265.28394 852.25421 18.10364 435
266.19141 856.45563 32.09995 374
268.93033 842.84882 -9.46249 478
269.44647 845.17877 4.61442 478
269.77032 847.42517 18.75512 478
270.19785 849.56750 32.72220 478
270.90497 852.55347 46.94876 478
271.40955 855.33752 60.84028 366
273.97128 841.09540 -9.37424 498
274.37140 843.02795 4.74565 498
274.77725 844.96881 18.95312 498
275.15698 847.00873 33.04445 498
275.53152 849.19525 47.18575 481
276.02930 850.89996 61.28438 497
276.48392 852.94788 75.29709 492
279.36905 840.89752 -9.50997 494
279.76538 842.75916 4.69860 494
280.17722 844.60779 18.75876 494
280.65198 846.44794 32.90916 494
281.05804 848.78864 46.91671 497
281.41144 850.23267 61.18711 493
281.84021 852.09509 75.48310 465
285.09644 842.03516 -9.70100 465
285.57529 844.08453 4.36072 466
285.94748 846.12439 18.56317 416
286.51544 848.58197 32.64898 416
287.17633 851.77985 46.50895 359
47.35088 219.47626 -18.40548 350
291.35886 845.93628 -10.57119 415
292.13062 849.60553 3.44314 350
293.85257 856.52014 16.98464 275
13845.66406 24029.47070 1038.64014 1000
29705.75977 42312.65625 -6656.39648 1000
45190.73047 44805.98438 2223.11475 1000
3182.58301 1245.02673 -85.63097 452
3197.88037 1229.52307 -86.53809 455
3213.70996 1213.03552 -86.73280 453
3229.89966 1197.92834 -87.16284 452
3449.98169 1281.84631 -44.24590 441
3247.34424 1182.34497 -88.06904 455
3444.23926 1256.23230 -43.71583 442
3265.65991 1166.89539 -89.15098 452
3438.32959 1230.90613 -42.85465 446
3284.43628 1151.65674 -90.14948 458
3434.23730 1205.00073 -41.91824 443
3303.49463 1135.69727 -90.86294 452
3428.49634 1180.93298 -41.30882 444
3323.05225 1121.35364 -91.43887 442
3423.88745 1155.44775 -40.37627 445
3346.01660 1106.70105 -92.90130 437
3418.56909 1130.82422 -39.80868 446
3370.22241 1092.09399 -93.75328 429
3413.73999 1107.08582 -39.68902 446
3395.86597 1078.55969 -95.10021 425
3420.09082 1085.89978 -39.23244 486
3424.10083 1064.94128 -96.86095 413
3437.06177 1069.32812 -39.93147 414
3452.16553 1051.12158 -98.25973 360
3471.83911 1057.11584 -41.35007 376
3491.89502 1041.23499 -100.61613 372
3534.94287 1031.43567 -102.90756 371
3583.09985 1021.98584 -105.33998 329
3632.09473 1013.04584 -108.54109 358
3680.29077 1003.85004 -111.54655 356
3730.22925 993.32208 -114.15805 355
3781.44873 982.89819 -117.48412 355
3835.64966 973.00085 -120.74749 356
2113.63916 317.98251 -69.02167 331
2102.85132 303.57947 -67.87624 488
2108.81421 304.60364 -34.65205 488
2115.36621 306.02011 -1.79273 442
2105.52100 291.74191 -67.89058 485
2112.73901 292.51050 -35.00708 447
2122.36011 294.04608 -2.20268 320
3122.76489 -252.47758 -66.62332 497
3130.70410 -253.13049 -17.34056 496
4117.74756 -535.46875 -67.15968 361
4073.31885 -555.25311 -65.14767 474
4058.96558 -577.83466 -64.53561 468
4135.89062 -614.76495 -136.17062 371
4046.73413 -600.84283 -64.49850 483
4109.82617 -635.56683 -134.65903 409
4034.05542 -623.39069 -64.38707 483
4091.00586 -658.24945 -133.65234 417
4023.93188 -646.75256 -63.44113 484
4075.51807 -680.68933 -132.91722 426
4008.04028 -669.38208 -63.28344 488
4061.32666 -703.10516 -131.63078 427
3997.52393 -692.20984 -62.34818 489
66437.00781 -12178.35645 -12142.55273 1000
4046.59448 -725.82318 -131.81554 420
3987.01050 -714.69348 -62.71927 491
4033.71143 -748.45654 -131.03069 425
3976.52124 -737.91821 -62.01441 491
4022.55664 -771.44568 -130.84367 434
3967.40601 -760.28998 -61.47131 472
4011.11743 -793.48602 -130.43361 438
3959.15796 -783.46271 -62.15331 473
4059.26660 -803.81909 66.43555 326
4000.72729 -816.56427 -130.06334 441
3950.78345 -806.75427 -61.43687 474
4099.21191 -837.66119 -2.24872 322
3992.25854 -815.38379 67.19859 325
3991.59717 -840.48358 -129.47139 441
3942.94043 -829.94006 -61.06368 474
4021.91479 -847.11096 1.05403 319
3978.44165 -837.42255 67.36507 499
3971.37646 -860.24884 -127.81091 498
3936.42163 -853.27966 -60.97741 442
3971.91650 -861.24811 2.17787 499
3974.09668 -861.36212 67.16486 499
3973.38525 -885.92224 -129.17207 257
3929.60840 -876.35730 -60.83843 442
3966.87061 -885.13690 2.13192 499
3969.11719 -885.21844 67.01518 499
3968.11621 -909.70526 -129.19092 465
3923.00146 -899.34790 -60.62804 443
3962.57471 -908.44275 2.52173 499
3964.28760 -909.37189 66.88905 499
3937.84106 -927.73608 -126.91518 308
3916.10669 -922.70142 -61.28850 443
3957.22217 -932.77606 2.08538 499
3959.68311 -932.98517 67.13620 499
4206.58594 -993.26160 270.46555 483
3931.29590 -951.33783 -127.39541 308
3910.90356 -946.11938 -61.61842 443
3948.07935 -955.03259 1.79417 499
3949.45410 -955.37238 66.63123 499
3925.72534 -974.82538 -127.23781 308
3905.20093 -969.26471 -61.30219 443
3942.62329 -979.16919 2.46970 499
3943.96313 -979.63367 66.65916 499
3938.96729 -1003.22021 -128.30769 257
3899.90820 -993.15509 -61.20185 443
3938.03540 -1002.77057 1.90344 499
3939.64746 -1003.42230 67.46389 498
3924.93164 -1025.43787 -127.38394 499
3894.02881 -1016.85645 -61.27655 443
3937.53760 -1028.02759 1.64678 499
3940.37720 -1029.56799 66.70622 499
3919.09106 -1048.96899 -127.75409 499
3889.11670 -1040.80713 -60.79716 443
3932.93140 -1052.67236 2.01047 499
3934.22656 -1052.52881 67.08120 498
4065.19336 -1088.25793 132.30888 342
3897.93311 -1067.73291 -126.92378 372
3884.41382 -1064.51355 -61.50463 443
3928.40527 -1076.88489 2.10017 499
3929.08228 -1076.30054 66.90240 498
4071.34009 -1116.79541 131.98566 494
3891.51294 -1091.49060 -126.63571 372
3878.69263 -1087.59314 -61.41419 475
3923.73730 -1100.71423 2.17628 499
3924.76929 -1100.74060 66.56792 254
4005.74683 -1124.40918 132.01888 499
3886.55493 -1114.70850 -126.79252 372
3874.19922 -1111.39502 -61.61728 475
3917.93457 -1124.42627 1.31467 499
3920.56885 -1125.52917 66.96900 499
3979.70557 -1142.31580 131.68643 498
3879.80786 -1138.14734 -127.53900 372
3868.22534 -1134.71106 -61.17640 475
3921.38721 -1151.63391 66.45805 487
4078.01514 -1197.58350 132.60620 262
3874.89795 -1162.23438 -127.67257 372
3863.28906 -1158.38538 -61.35431 475
3990.31860 -1197.76111 131.75099 499
3868.48853 -1185.45789 -127.65974 372
3858.85376 -1183.22754 -62.30829 473
3987.56641 -1222.80127 132.34915 489
4036.15356 -1238.15857 200.13086 473
3862.67090 -1209.17700 -127.07051 372
3852.72729 -1206.86353 -62.43703 473
4012.39258 -1257.61865 132.05794 315
3857.24194 -1233.28503 -127.69793 372
3848.04736 -1230.08533 -61.97948 472
4123.77441 -1347.95117 -76.93108 498
4119.11523 -1374.22852 -76.29184 497
4113.36426 -1399.40686 -77.53313 497
3827.04590 -1326.07910 -62.36424 476
3991.30811 -1384.55933 -2.79692 436
3822.37402 -1349.95288 -62.20416 476
3817.46680 -1374.48877 -62.41684 475
3811.61182 -1398.40649 -63.20983 495
3807.62646 -1422.63147 -62.94064 495
3802.11450 -1447.21851 -63.91523 494
3842.30664 -1462.27576 0.32661 394
3797.65723 -1471.09790 -63.39762 494
3898.59204 -1510.97925 -1.68448 496
3894.32642 -1537.01221 -68.81348 347
3885.99756 -1533.95654 -2.37946 496
3873.19800 -1555.07336 -69.07169 462
3873.42578 -1555.03735 -1.29971 497
3873.68604 -1582.20300 -69.27315 418
3870.10645 -1581.47327 -1.87900 481
40756.37891 -19419.40039 3825.93848 1000
23337.64258 -13095.67773 -6552.06494 1000
58017.35938 -36989.96875 6899.43018 1000
2527.51221 -1730.39441 -63.78412 485
2534.20728 -1734.44849 -15.02395 440
2520.23999 -1747.34741 -64.11919 400
55967.32422 -40712.87109 -1001.11237 1000
1692.14307 -1738.24402 -22.64448 400
1666.43835 -1731.28455 -21.28362 377
1661.40601 -1726.20093 17.78428 391
1647.25842 -1731.73230 -20.13889 401
1639.26099 -1723.32764 18.23310 412
1625.15735 -1728.46118 -19.34982 400
1617.88989 -1720.72253 18.89143 413
1604.09241 -1725.85486 -18.34599 403
1596.87354 -1717.59436 20.06094 414
1582.86658 -1723.30566 -16.89377 401
1575.45459 -1714.78699 20.53627 415
1561.61047 -1720.11292 -16.45733 402
1554.65417 -1711.96741 21.59608 416
1540.88843 -1716.88501 -15.32691 404
1534.31458 -1709.12976 22.28995 418
1520.24744 -1714.22839 -14.07130 405
1514.61816 -1706.81506 22.86081 419
1500.07373 -1711.27319 -12.91736 406
1494.17578 -1704.44019 23.78414 420
1480.76697 -1708.62378 -12.31139 399
1475.05957 -1701.41028 24.47310 421
1461.56970 -1706.29456 -11.26876 399
1455.27600 -1699.04089 25.00075 422
1442.57129 -1704.38123 -10.53708 400
1436.74255 -1696.48071 25.68195 423
1598.24060 -1900.05261 52.95028 305
1424.14404 -1702.70825 -9.74473 401
1417.26379 -1694.34070 26.38514 424
1591.12793 -1916.18494 52.53410 322
1405.58484 -1700.71375 -8.97656 402
1398.76355 -1691.54297 27.19583 425
1587.73145 -1935.45837 52.39874 386
1388.04724 -1698.61609 -7.99792 403
1380.47498 -1689.00024 27.47872 426
1583.88184 -1955.60474 51.62029 346
1369.37476 -1695.93872 -7.29193 397
1362.38208 -1686.86108 28.22721 428
1350.80933 -1693.58533 -6.18267 398
1344.15283 -1684.42297 28.89537 429
1347.84924 -1689.41919 63.15840 434
1332.82422 -1690.94617 -5.32849 396
1326.76965 -1682.05530 29.42351 430
1331.42761 -1689.10693 63.61971 432
1315.85205 -1689.06360 -4.36201 397
1309.33777 -1679.84338 30.36932 431
1313.99438 -1687.00024 63.76759 433
1298.68518 -1687.12976 -3.60800 397
1291.61877 -1677.94568 30.73339 440
1297.22754 -1685.06384 64.65389 434
1281.99109 -1685.93103 -3.33540 400
1275.49695 -1676.65381 31.10395 455
1279.43286 -1682.34802 64.75775 446
1265.92175 -1684.80359 -2.39989 410
1260.35925 -1676.62817 31.85215 458
1264.54102 -1682.87427 65.26609 459
1250.20508 -1684.75806 -1.99586 419
1245.73047 -1677.48181 32.07833 465
1249.99231 -1683.71387 65.12411 464
1235.78491 -1685.24304 -1.44366 422
1230.84119 -1678.95105 32.54838 470
1236.57458 -1686.70203 65.48915 489
1221.55042 -1686.75037 -1.19972 424
1217.43359 -1680.57190 32.86838 474
1226.79175 -1694.49939 65.58212 489
1207.38049 -1688.50220 -0.24154 427
1203.46313 -1682.18982 33.03570 475
1216.15625 -1701.36938 65.64925 487
1194.26990 -1690.53992 -0.28822 427
1190.41101 -1685.01965 33.50410 479
1212.93799 -1719.36121 64.97823 400
1180.85828 -1693.06628 0.04968 428
1177.01978 -1687.37378 33.67607 483
1209.94897 -1737.96924 64.44209 399
1167.92358 -1695.45410 0.67778 432
1164.11389 -1689.89062 33.83036 482
1206.96179 -1757.12598 64.13371 398
1154.83838 -1698.32373 0.87565 432
1151.45959 -1692.42249 34.17414 485
1204.37231 -1776.53882 63.54144 397
1141.99072 -1700.84363 1.33774 436
1138.71423 -1695.52881 34.11867 486
1201.39307 -1795.99756 63.38421 396
1130.02161 -1704.12891 1.38085 436
1126.34412 -1698.44495 34.29946 483
1198.27490 -1815.92285 62.39111 394
1117.24451 -1707.84363 1.76317 443
1114.46863 -1702.52173 34.74980 484
1194.82605 -1835.67236 62.28191 390
1105.31470 -1711.75330 1.56136 443
1102.53943 -1706.37769 34.76912 486
1192.02246 -1856.72339 61.73891 393
1093.94409 -1715.60925 1.79250 443
1090.48230 -1710.65039 35.09091 486
1188.31750 -1877.36682 60.92081 391
1081.94373 -1720.01562 2.12975 446
1078.83118 -1714.84766 34.96016 486
1062.86316 -1722.66211 1.16287 441
1060.22351 -1717.33728 33.64962 486
1051.53564 -1727.42017 1.24286 441
1048.60608 -1721.42871 34.13780 481
1040.17065 -1731.32690 1.53479 441
1036.82971 -1725.61511 33.90984 480
1028.91040 -1736.20959 1.54737 450
1025.37561 -1730.13965 34.06492 480
1017.25793 -1739.78833 1.45231 450
1014.20172 -1734.25061 34.58976 478
1005.89093 -1744.10901 1.43288 453
1002.61359 -1738.72876 34.38653 476
994.44550 -1748.35510 1.60999 458
991.83307 -1743.49304 34.34372 474
983.18927 -1753.31299 1.83923 274
980.48364 -1748.57141 34.25668 473
988.28430 -1790.27649 -0.29622 269
969.92310 -1753.65808 34.29908 469
958.82623 -1758.22717 34.65588 469
948.65454 -1764.47681 34.70176 353
15267.59668 -48466.64062 -4059.49805 1000
3864.90698 -13839.11816 -2729.57837 1000
13490.46875 -64364.25781 7660.86426 1000
-5956.02441 -47659.05078 -5416.50195 1000
-351.33435 -3136.69360 79.00555 413
-351.57004 -3134.95166 130.67633 463
-351.29028 -3133.82715 182.52003 493
-350.71246 -3133.06323 234.43690 499
-351.01175 -3132.29346 285.82385 431
-2576.73560 -16840.28516 -1836.85815 1000
-140.90691 -1052.88855 -46.11036 1000
-19056.04492 -66683.09375 3512.54907 1000
-18823.61133 -65874.96875 11419.25293 1000
-764.20074 -2546.63306 87.59319 492
-764.65332 -2546.82568 131.53093 461
-765.13660 -2547.83765 174.87334 461
-765.41614 -2548.41455 219.55923 409
-765.89423 -2550.49121 263.06155 342
-2537.37817 -4730.68945 753.04492 1000
-1769.87671 -3207.34912 435.12589 1000
-1152.28613 -1944.24512 131.77164 372
-1151.19739 -1941.90503 169.40047 372
-1149.87244 -1940.35303 206.76892 433
-1148.77734 -1938.86548 244.78615 433
-1147.92859 -1937.57117 282.34204 477
-26798.42969 -34636.28125 8842.86621 1000
-13413.53516 -14430.41602 -1167.25537 1000
-4281.94336 -2421.70264 213.13246 495
-3697.32471 -2007.21716 202.03868 455
-3125.25854 -1604.96167 190.94679 495
-53587.65234 -24739.95898 7909.58301 1000
-29604.82031 -8291.62695 6264.83984 1000
-290.77411 -70.18061 40.79849 318
-290.14774 -67.67380 41.10030 341
-292.04852 -65.53552 40.73722 341
-197.99805 -11.36290 53.40228 324
-197.98691 -9.58676 53.41388 324
-198.00760 -7.73512 53.39057 324
-197.99393 -5.90674 53.38968 324
-197.93433 -4.14804 53.43060 324
-197.98184 -2.32911 53.37177 324
-197.90704 -0.54466 53.39005 324
