# .PCD v.7 - Point Cloud Data file format
VERSION .7
FIELDS x y z rgb
SIZE 4 4 4 4
TYPE F F F U
COUNT 1 1 1 1
WIDTH 1179
HEIGHT 1
VIEWPOINT 7193.568359 -714.778748 137.675476 -0.671345 -0.104704 -0.099559 0.726925
POINTS 1179
DATA ascii
-18594.95312 65.02545 750.11700 463
-18540.55469 180.32246 747.98145 464
-18494.95312 292.19202 745.28320 465
-18440.30469 403.81586 744.52490 465
-18392.83594 518.75629 739.90430 466
-20242.32617 568.88843 1138.05774 443
-18341.73438 632.08667 739.76904 466
-18296.86914 630.62903 1037.37805 259
-18296.48633 742.62958 737.47546 467
-18210.78125 738.28198 1034.12769 299
-18244.17578 853.19196 734.45917 467
-18161.04688 848.19806 1031.92432 413
-18198.25586 964.01215 733.72705 468
-18109.67969 960.03204 1031.78638 413
-18147.48633 1071.13171 734.88690 468
-18058.53320 1069.46326 1030.49268 414
-18101.88281 1180.64417 730.39520 469
-18010.42773 1177.19666 1026.00378 414
-18053.32812 1293.56042 731.09595 469
-17962.23047 1286.15515 1023.87567 414
-18006.12891 1397.94202 727.45160 470
-17910.81250 1390.89062 1019.57129 415
-17959.45508 1505.17297 726.95959 470
-17858.67773 1499.73535 1020.56189 415
-17908.68164 1612.77722 728.97412 471
-17810.83789 1603.95630 1020.22882 486
-17862.88086 1721.56470 722.80267 471
-17764.24219 1710.01453 1016.85565 486
-17813.64844 1827.78894 721.35461 472
-17720.90039 1816.03418 1015.18921 487
-17771.15039 1936.47766 721.54266 472
-17670.82812 1922.98389 1009.81873 487
-17721.85156 2041.09875 721.03638 472
-17626.00781 2030.75366 1011.46393 487
-17673.69531 2145.88965 722.68121 473
-17580.98047 2133.89746 1009.97839 488
-17632.01758 2250.26245 716.60736 473
-17533.47461 2236.78662 1005.51208 488
-17581.64453 2356.07764 717.61462 474
-17486.89648 2340.14917 1007.31415 489
-17536.74414 2459.09668 715.81384 474
-17444.17188 2444.71851 1004.13739 489
-17494.00781 2564.07422 715.35419 474
-17397.23047 2548.94775 1001.77240 490
-17447.53516 2663.30884 716.55444 475
-17353.95117 2650.19824 999.31885 490
-17398.75000 2770.29028 711.00385 475
-17310.08984 2754.94653 997.03546 490
-268.53003 59.55320 34.89424 326
-282.96799 61.92095 37.57022 323
-299.59076 64.61274 40.19054 314
-17353.17969 2872.29907 713.59448 476
-17263.15234 2855.68433 997.78845 491
-18016.09570 2979.89502 1336.63428 477
-264.32114 61.04987 35.97052 350
-278.81927 63.53988 38.52834 347
-294.90024 66.34097 41.17983 341
-17311.89453 2973.85327 709.27197 476
-17218.30664 2958.94458 996.53870 491
-17946.44141 3085.00415 1335.09387 477
-262.35062 62.93841 36.38546 351
-276.76987 65.52428 38.97245 345
-292.89423 68.39101 41.57695 340
-17265.19727 3077.19971 711.28516 476
-17174.47852 3059.02539 992.55096 491
-17880.74023 3186.74951 1330.55652 478
-260.34454 64.80178 36.73277 351
-274.88062 67.55894 39.34444 345
-294.63901 71.15488 40.97420 318
-17221.89453 3174.71655 708.89386 477
-17128.41016 3161.28467 992.05231 491
-17812.03125 3285.30737 1324.26917 479
-258.43607 66.67889 37.13385 351
-274.94620 69.89532 39.10000 321
-17175.21484 3277.79785 709.40875 477
-17085.46875 3259.09790 991.00293 491
-17742.96289 3387.33594 1325.09827 479
-256.94257 68.63070 37.43932 325
-276.86292 72.54183 38.58757 318
-17129.01953 3380.30054 706.50562 477
-17042.99609 3361.20239 988.99982 492
-17676.11719 3486.06592 1321.07495 480
-258.73062 71.25697 36.88162 322
-17086.17969 3478.83081 706.09198 478
-16999.05859 3464.19873 992.26624 492
-17611.89453 3588.28174 1318.77393 480
-260.70923 73.85226 36.20034 321
-17041.27344 3579.26587 706.62146 478
-16954.53516 3562.21680 990.28467 492
-17545.18555 3684.33887 1311.69116 481
-262.66898 76.51332 35.51555 321
-4109.94482 905.11566 132.89120 499
-4114.56152 906.06696 202.74202 499
-16995.25391 3681.44971 706.56354 478
-16907.57031 3662.06299 987.25018 493
-17490.43359 3785.76440 1309.75183 493
-16949.75977 3778.70264 703.08661 478
-16864.52148 3761.06421 986.75604 493
-17444.04688 3891.13477 1308.71936 494
-16906.96289 3881.65137 703.61578 479
-16822.91406 3863.16284 985.78320 493
-17400.50586 3994.09497 1307.00415 494
-16864.58984 3980.34937 701.82056 479
-16776.91211 3959.20288 985.58179 494
-17351.58203 4097.08154 1308.19714 494
-16820.56055 4082.31982 703.10791 479
-16732.45312 4059.68750 985.05621 494
-17307.13477 4196.10791 1304.23962 495
-16773.63672 4179.82861 699.88379 480
-16690.12891 4158.64648 983.21661 494
-17259.48047 4298.41699 1303.50781 495
-16733.14844 4278.05908 702.17035 480
-16646.03516 4254.77686 981.38544 494
-17214.33398 4402.40625 1302.18005 495
-16686.44141 4378.71631 702.19080 480
-16603.22852 4354.84277 980.07660 495
-17074.37695 4478.25049 1293.29565 415
-16643.44531 4474.59131 697.48712 480
-16564.14844 4453.62451 977.69592 495
-17035.93555 4580.04639 1295.98169 415
-17152.11914 4612.27783 1595.65161 496
-16599.60938 4574.11328 698.81799 480
-16517.60938 4550.96094 976.42950 495
-16991.88477 4681.51514 1294.14734 402
-17109.57422 4713.30811 1592.91138 496
-17276.77734 4760.14307 1908.33044 457
-16557.87500 4670.03516 698.11780 481
-16477.93164 4651.35156 976.98901 495
-16945.55273 4778.57227 1294.11719 402
-17062.69727 4813.25439 1594.25635 496
-17176.00000 4847.09570 1897.18298 458
-16512.10742 4770.52393 695.64636 481
-16433.04492 4746.14307 975.42328 496
-16981.49414 4902.73340 1297.33447 497
-16991.13086 4909.02148 1589.58997 435
-16472.31055 4865.31055 699.00067 481
-16390.25977 4843.43115 973.87115 496
-16880.01172 4989.72021 1292.67371 436
-16870.30273 4986.43994 1582.77197 436
-16964.27539 5012.52441 1881.46619 353
-16428.16211 4962.58398 698.00208 481
-16348.63672 4939.40234 973.17999 496
-16756.73633 5066.43848 1286.61279 437
-16746.28516 5058.94434 1571.82922 437
-16826.69336 5084.62988 1872.61255 354
-16382.20410 5062.93848 693.74005 481
-16303.67480 5039.27539 972.21967 496
-16637.76953 5138.99902 1278.56885 497
-16632.50391 5137.07910 1564.89575 497
-16694.87500 5159.17236 1863.65759 354
-16341.17676 5160.65723 693.51031 482
-16261.85254 5132.74268 973.49896 496
-16593.96875 5239.84863 1280.09485 497
-16586.72656 5236.86572 1565.36450 497
-16635.29492 5250.22949 1858.78027 391
-16294.85156 5258.71777 696.27753 482
-16218.54199 5232.83594 974.06122 497
-16521.49023 5329.95117 1277.78235 498
-16511.55664 5325.02588 1561.59363 497
-16584.02148 5347.91895 1858.73328 391
-16712.60352 5392.08740 2161.08789 493
-16704.75195 5389.61035 2454.94214 493
-16697.94531 5388.11914 2745.02734 481
-16254.18457 5353.27441 694.76935 482
-16174.38477 5329.81543 972.17786 497
-16473.22266 5425.60010 1272.21338 498
-16464.22266 5424.27734 1558.38843 498
-16540.06836 5448.22754 1853.10120 392
-16811.68750 5535.44580 2177.12671 485
-16208.23926 5448.92969 695.68085 482
-16132.28223 5422.86230 969.94324 497
-16432.57227 5523.31201 1273.45544 498
-16424.60156 5520.36279 1557.32129 498
-16493.10938 5543.92236 1853.73181 392
-16725.25586 5624.65479 2173.59814 453
-16165.22559 5548.32324 692.38794 482
-16090.35938 5522.23682 972.68121 497
-16384.94922 5623.23047 1271.30286 498
-16377.15332 5617.81738 1559.12817 498
-16448.25586 5644.09375 1852.03369 392
-16721.81836 5738.40283 2174.44702 485
-16123.06641 5645.47266 694.38690 482
-16047.77051 5616.11572 972.74731 497
-16339.93262 5717.62402 1274.13977 498
-16332.33887 5715.14551 1559.86450 498
-16401.61523 5742.07568 1851.62781 392
-16677.66211 5839.61279 2175.72681 485
-16083.37207 5739.70410 692.92505 482
-16004.95020 5714.15430 969.84283 497
-16298.09863 5816.16309 1270.52869 498
-16286.50586 5816.13281 1557.66174 498
-16352.13379 5839.26562 1848.08289 392
-16631.31055 5934.26270 2171.34302 485
-16036.50098 5838.13623 691.63580 483
-15963.33789 5812.39014 970.87335 497
-16253.19238 5913.41260 1271.48328 499
-16242.48340 5913.20312 1554.47864 498
-16307.03809 5935.83447 1850.25964 392
-15995.04492 5933.82275 694.10352 483
-15921.74512 5904.86621 968.84094 497
-16237.67480 6022.22705 1270.00610 499
-16227.10938 6018.86816 1557.50159 498
-16260.02734 6034.52490 1850.39148 392
-15953.57715 6028.58838 690.80573 483
-15880.78223 6003.50537 967.67926 497
-16190.81055 6120.56689 1272.22681 499
-16163.00391 6110.23047 1555.18713 480
-16214.30469 6131.49756 1849.18091 383
-15908.53027 6127.16895 691.02905 483
-15836.53223 6099.20752 968.26648 498
-16032.10059 6173.65479 1263.01135 298
-15929.45996 6132.50537 1536.21936 468
-16169.18848 6225.13281 1845.66687 383
-15864.57910 6221.60449 693.19507 483
-15793.59473 6196.23047 968.21014 498
-16103.14746 6313.23779 1270.05188 499
-16092.38867 6311.57666 1554.17651 499
-16119.14258 6322.85645 1846.56738 384
-15824.23926 6320.38281 689.68744 483
-15754.07227 6292.21289 967.70703 498
-16056.94434 6410.17285 1268.91492 499
-16049.82031 6409.26904 1554.66565 499
-16070.70215 6416.29541 1845.82263 384
-15779.74316 6414.55908 691.18921 483
-15711.43945 6384.44336 969.23206 498
-16031.22754 6516.82422 1271.96899 467
-16021.33398 6512.13574 1555.79895 467
-16060.54004 6528.81934 1844.61829 368
-15735.70898 6512.25195 692.18164 483
-15671.11621 6481.77246 969.44165 498
-16041.36816 6636.10059 1272.51245 482
-16038.81641 6632.53760 1560.78345 466
-16084.67871 6652.95312 1851.73743 369
-15695.77637 6606.27441 689.04218 483
-15626.63672 6575.42236 965.78424 498
-16031.79492 6747.89697 1276.53577 482
-16055.76074 6758.92236 1565.81970 465
-16116.38867 6782.55127 1858.84399 369
-15651.31445 6700.25098 693.24188 483
-15583.29883 6675.66260 969.29474 498
-16022.04199 6861.01807 1279.18396 481
-16067.37500 6882.13525 1570.09961 480
-15609.44043 6798.34375 688.61438 483
-15543.53613 6767.64209 967.10376 498
-16012.79688 6974.02881 1279.85583 481
-16056.28809 6995.06250 1572.49963 480
-15568.21875 6896.45605 691.23035 483
-15499.90820 6865.58252 965.55347 498
-15998.90625 7085.87061 1285.33276 480
-15524.63965 6989.13867 692.57501 483
-15459.79297 6959.51855 965.98944 498
-16061.14844 7231.69141 1291.04822 444
-15481.22852 7087.75049 688.84271 491
-15413.49707 7058.18994 965.85724 498
-15440.29199 7179.65039 692.16071 491
-15371.27930 7151.98682 966.06976 498
-15396.79004 7275.77783 689.14594 491
-15329.89746 7249.56250 967.64386 498
-15353.79492 7372.67822 689.79163 491
-15288.98047 7341.21582 968.69568 498
-15312.55176 7472.27783 690.98065 491
-15247.08691 7437.89209 967.88153 498
-15268.09766 7568.62061 691.60736 491
-15206.29102 7533.06348 967.74280 498
-15227.12402 7664.20020 689.25171 491
-15163.92188 7629.79004 967.43658 498
-15181.60352 7759.46191 691.74036 491
-15118.33398 7728.07666 969.65265 497
-15140.97070 7856.17432 693.20013 491
-15075.73828 7821.68604 968.36536 497
-15095.97754 7951.13721 692.50946 491
-15036.35254 7919.44727 966.89142 497
-15055.07129 8046.40625 692.06592 491
-14992.93555 8012.54395 971.18585 497
-15010.74512 8143.97266 693.94373 490
-14949.69434 8111.97021 968.34436 497
-14971.42480 8239.27539 690.25763 490
-14909.98340 8205.20508 971.31824 497
-14925.24414 8337.65723 693.18274 490
-14865.80664 8301.83887 968.71509 497
-1307.55408 788.69159 53.06977 315
-14882.45605 8435.91699 692.64160 490
-14820.81836 8400.30078 968.79089 497
-1291.09570 791.04907 53.48117 483
-1294.82520 792.96936 79.35244 442
-1302.56653 797.55280 105.68999 306
-14841.39160 8530.06152 690.85773 490
-14779.18457 8498.74414 969.65582 497
-1285.04895 798.82452 53.76254 490
-1287.38940 800.12292 79.65364 499
-1289.66589 801.48889 105.79427 498
-1292.06360 802.80219 131.60980 498
-14795.74512 8628.71289 691.72314 490
-14737.07031 8594.43945 971.09576 496
-1284.34155 809.76746 53.11974 405
-1287.17773 811.38623 79.30237 405
-1291.09045 813.78003 105.32683 337
-14754.80664 8727.36328 692.96222 490
-14693.71094 8691.35352 971.13837 496
-14709.75684 8822.53809 694.53131 489
-14650.13867 8786.07617 971.72089 496
-14669.56738 8922.60938 695.87811 489
-14605.78320 8885.25098 974.98248 496
-14622.26465 9019.64160 692.19952 489
-14564.51367 8981.46777 973.44714 496
-14578.88184 9117.38965 694.90808 489
-14522.05664 9077.55176 973.58478 495
-14538.39551 9211.35547 693.07404 489
-14479.97559 9175.34961 974.53485 495
-14493.22656 9309.08887 693.99524 488
-14435.58398 9273.04492 974.34119 495
-14448.63477 9411.37695 698.67078 488
-14391.76367 9371.30078 974.52594 495
-14407.93945 9506.17578 698.29596 488
-14347.76953 9470.19434 977.34497 495
-14364.12500 9604.96973 696.82257 488
-14306.51758 9571.68945 980.60925 494
-14320.20703 9704.02832 695.63965 487
-14262.92188 9666.96094 981.48364 494
-14280.05176 9805.37695 698.12823 470
-14220.06055 9768.87793 979.39374 492
-14249.37109 9917.85742 701.81378 470
-14178.28613 9869.53418 978.98138 492
-14216.96094 10023.40234 702.80084 469
-14141.09570 9971.42090 981.12463 492
-14182.45410 10131.86035 701.50134 470
-14098.97461 10075.25781 981.68304 491
-2562.99316 1910.45850 131.70329 318
-14150.76660 10242.59961 701.35046 470
-14059.18359 10177.55762 986.95422 491
-2504.97095 1892.29431 131.02849 333
-14119.84668 10353.38672 703.77289 469
-14025.13086 10284.12793 986.37256 475
-2456.11230 1881.06799 131.30766 335
-14089.05273 10465.46289 705.64020 469
-13997.84473 10395.01660 989.71655 477
-2413.82544 1873.90430 131.25209 320
-14058.96484 10573.40918 706.50562 468
-13973.29004 10513.49121 989.30750 477
-2410.23340 1895.62634 80.42477 349
-2378.06934 1870.79895 131.12062 327
-14046.99902 10703.30273 707.74854 429
-13945.30469 10627.73340 995.45984 476
-2347.03784 1871.26599 81.19903 275
-2343.68555 1868.47253 131.63815 324
-2449.60303 1949.88928 183.98184 377
-14036.79590 10831.28125 708.96753 428
-13920.07422 10741.95801 995.00287 475
-2304.26196 1861.45789 81.28508 288
-2308.94482 1865.77405 131.58954 325
-2422.66040 1953.80652 183.89151 418
-14029.65137 10965.41211 711.80731 407
-13890.27148 10858.63379 996.88110 475
-2262.72217 1853.12964 82.19318 289
-2273.60522 1861.73645 130.98599 362
-2405.06201 1965.11621 183.55452 405
-14030.92969 11105.09863 718.27936 406
-13865.01074 10976.62793 1001.16626 474
-2224.73145 1846.19421 82.81159 345
-2244.69336 1862.70862 131.53384 277
-2417.02271 1999.39001 183.48759 416
-14033.29102 11248.63477 718.40393 380
-13838.50684 11093.24902 1005.47272 474
-2189.04419 1840.87903 83.04496 346
-2215.51416 1862.71362 131.65184 277
-2300.77686 1931.26807 181.34184 382
-14052.41309 11409.22070 721.95502 379
-13814.99512 11215.43359 1007.17645 418
-2153.91528 1835.73389 83.83705 347
-2177.61108 1854.41919 130.98424 310
-2288.64038 1945.60522 181.74538 460
-14088.19629 11581.07617 728.07031 311
-13819.67871 11364.55859 1012.42780 421
-2119.42041 1830.56458 84.65427 348
-2334.41699 2007.45911 131.57253 385
-2183.27173 1882.88513 179.47316 385
-2284.61890 1966.67639 283.14267 302
-2086.24463 1825.61719 84.46337 349
-2289.89014 1995.78394 131.53885 361
-2174.64575 1898.88635 179.91142 481
-2279.02905 1987.16199 232.74463 498
-2261.84399 1972.69592 281.89203 428
-2053.15942 1820.23999 85.08698 350
-2088.58325 1850.32092 131.10121 437
-2172.27490 1920.69519 179.68390 429
-2254.39380 1991.23596 282.45547 369
-2021.09863 1816.02087 86.07455 351
-2302.27271 2056.87231 131.47520 389
-2169.77246 1943.01147 179.68593 429
-2241.05811 2004.78882 282.34613 389
-2239.34302 2002.96997 332.63089 389
-1989.94922 1810.99805 85.77580 352
-2319.77295 2098.06665 130.87317 338
-2098.18945 1904.89795 178.85806 428
-2095.82544 1902.80591 226.48642 497
-2093.71436 1901.50439 273.50128 495
-1959.80310 1807.51941 86.29537 389
-2099.80566 1930.20361 131.10089 371
-2096.09009 1927.11987 178.77644 427
-2084.31006 1916.31421 273.89471 395
-1930.31409 1803.65540 86.84504 391
-2096.52002 1951.23633 131.06833 371
-2092.97974 1948.98633 179.46686 426
-1901.54724 1799.68054 87.71207 392
-2092.57007 1972.70862 131.55927 370
-2091.20215 1971.04993 179.44882 426
-28525.47266 26128.38867 -3693.38867 1000
-1876.05090 1799.19946 87.67108 446
-2089.79858 1994.83252 131.18501 452
-2088.50073 1993.16357 179.56396 425
-1855.55493 1802.63330 87.63320 447
-2087.10742 2016.76636 131.16064 451
-2085.63721 2015.43250 180.00607 424
-2078.12671 2008.05823 276.18170 255
-1836.43933 1807.16589 87.89054 412
-2085.04419 2038.98328 131.07642 450
-2082.97290 2037.90051 179.95943 440
-1817.36707 1811.85034 88.13806 350
-2099.73804 2079.07349 131.50581 330
-1901.64111 1914.57593 85.77944 446
-2071.07031 2076.77954 131.59464 330
-1899.82104 1935.79309 85.61174 445
-1905.84045 1941.96606 131.17242 401
-1897.06189 1957.90308 85.45535 442
-2014.97302 2073.20728 130.91954 297
-1894.36194 1979.41150 85.04513 442
-1987.95447 2071.91040 131.17050 298
-1892.14258 2001.51782 85.22284 441
-1960.82739 2070.53857 131.06055 298
-1876.42822 1985.51306 176.77194 339
-1889.44250 2024.02820 84.97062 440
-1934.34985 2069.48120 131.59291 298
-1885.41418 2044.79517 84.62589 390
-1908.56958 2068.29590 131.00328 299
-1858.34119 2041.13049 84.60551 392
-1836.46216 2043.27979 85.10362 440
-1819.30518 2050.48071 84.93220 352
-19887.94531 36629.97656 -4679.77148 1000
-248.42569 632.15527 178.69397 1000
-3440.59082 6984.62988 -1561.25488 1000
-15003.12793 59692.38672 -4932.30176 1000
5446.66748 41999.09375 2205.09155 1000
12799.25684 60646.28125 8281.16406 1000
11559.14160 44992.73047 -1393.34595 1000
7891.62842 29093.21484 -7941.79443 1000
26041.59570 43550.30469 907.33276 1000
38907.15234 49367.95703 -5075.16748 1000
1556.84509 1470.13696 -5.92800 465
1566.49524 1461.97046 -5.83531 485
1579.28491 1474.26831 27.46558 348
1576.25183 1453.40417 -5.50327 464
1586.37793 1463.72156 27.40857 396
1586.44165 1445.50415 -5.96401 455
1596.02258 1455.30591 27.81611 396
1595.89636 1437.25903 -5.81109 449
1605.85547 1446.43738 27.22890 425
1606.17957 1429.32654 -6.16738 447
1615.48230 1438.41199 27.24079 443
1616.85608 1421.57495 -6.24454 444
1625.53357 1429.63684 27.10759 443
1627.27515 1414.29749 -6.28726 444
1635.65283 1421.58496 27.44003 465
1637.92188 1406.74048 -6.42810 443
1645.95215 1413.44165 27.06536 465
573.33557 431.15134 -7.72191 381
577.56104 435.02655 2.13042 311
1648.69641 1399.11267 -6.63337 443
1655.94995 1405.53906 27.27129 427
570.26691 423.28189 -16.90663 440
571.92200 424.71768 -6.47377 440
573.43054 426.08646 3.95077 382
575.74054 428.00461 14.22387 382
578.19318 430.29285 24.66867 311
1659.54663 1391.43835 -6.60121 443
1667.07532 1398.19507 26.87590 426
1819.85669 1534.16675 54.71474 401
571.00043 418.70840 -16.33458 481
572.25342 419.71628 -5.75942 481
573.60870 420.98007 4.64750 441
575.10931 422.29837 15.03816 441
576.58459 423.59912 25.60767 441
578.17426 424.97406 35.93931 441
580.97418 427.63608 46.09116 390
583.48047 429.74643 56.56130 311
1670.20044 1383.47388 -6.90364 443
1677.75183 1390.16101 26.95824 426
1817.43188 1513.12659 55.00466 402
572.27759 414.80704 -16.03131 481
573.52869 415.81967 -5.45781 481
574.79352 416.96164 4.99578 481
576.09613 418.01169 15.46642 482
577.32837 419.20770 25.84179 482
578.60748 420.30396 36.42360 482
580.01294 421.42542 46.84229 443
581.40112 422.61575 57.21449 439
582.89618 423.95386 67.81936 439
584.78339 425.66251 78.25352 397
1681.21692 1376.09192 -7.05844 439
1688.24316 1382.59167 26.98156 426
1815.73120 1492.82336 55.49860 403
574.45367 411.58847 -15.85820 498
575.78851 412.52664 -5.34473 498
576.85150 413.55362 5.18160 499
578.07312 414.60223 15.64548 499
579.29791 415.48325 26.09731 499
580.34485 416.64075 36.60910 499
581.60480 417.56882 46.98261 498
582.77277 418.74609 57.41358 498
583.99615 419.55789 67.94175 498
585.02380 420.71912 78.53209 498
1692.14441 1368.62891 -7.44304 439
1699.38904 1375.17834 26.80715 442
1813.60986 1472.27161 56.08870 404
577.11469 408.64893 -15.90872 491
578.39722 409.74524 -5.39338 491
579.46906 410.74286 5.08043 491
580.68964 411.67880 15.51527 491
581.89630 412.65692 26.04711 491
583.16534 413.69351 36.51057 491
584.34772 414.82452 47.04153 487
585.51727 415.73071 57.41908 491
586.69781 416.74966 67.90583 491
587.78381 417.70258 78.36313 491
1703.82458 1361.89368 -7.90993 432
1710.26367 1367.39893 26.44150 435
1811.17908 1452.36462 56.40801 405
580.31067 406.26526 -16.21350 490
581.47418 407.27933 -5.63734 491
582.77051 408.35352 4.98496 460
584.09851 409.55566 15.39490 460
585.42883 410.57419 25.74940 460
586.78833 411.89636 36.32878 460
588.22681 412.93573 46.77155 403
589.75726 414.24243 57.23102 415
591.43402 415.60410 67.67395 407
1716.02429 1354.92212 -7.92895 431
1722.80750 1360.32312 26.18488 447
1808.90149 1432.82642 57.20968 406
584.35120 404.71335 -16.66145 459
585.71588 405.86188 -6.10258 459
587.20624 407.02875 4.48736 459
588.77234 408.20190 14.83734 408
590.48920 409.67715 25.24860 407
592.34039 411.14136 35.71456 407
1728.42517 1348.39343 -8.48148 427
1734.89990 1353.97168 26.20865 443
1807.29736 1413.10461 57.81470 407
589.47797 403.70776 -17.48247 406
591.23071 405.21176 -6.95143 406
593.10297 406.66837 3.55479 339
596.14801 409.34644 13.70186 340
1741.24805 1342.36108 -8.96092 427
1747.22998 1347.23059 25.76924 443
1804.93237 1394.17932 58.33188 408
1754.22021 1335.62109 -9.44610 420
1760.46777 1340.49243 25.62911 447
1803.22168 1375.39722 58.45604 409
1767.56189 1330.30481 -9.41020 420
1773.18958 1334.25244 24.81694 447
1800.72559 1356.67920 59.32685 410
1781.45398 1324.28601 -10.34629 417
1786.31726 1328.28064 25.08947 469
1803.23755 1341.21216 59.16107 489
1795.99683 1319.12903 -10.39643 415
1800.71277 1322.43079 24.48408 465
1810.84460 1330.63025 59.48720 491
1811.51746 1313.66492 -11.06500 413
1815.18799 1316.41150 24.32026 458
1819.18347 1320.19128 59.64468 456
1827.19580 1309.54126 -11.94047 402
1830.13110 1311.38586 23.45539 449
1835.72375 1315.36987 58.84799 451
1844.77966 1305.24866 -12.61295 401
1846.30579 1307.22180 23.43226 431
1852.32080 1311.42566 58.77694 431
1863.11279 1302.22241 -13.37624 391
1864.50085 1303.66150 22.71862 421
7413.08691 5317.01855 -1982.96558 1000
1882.36243 1299.75208 -14.43139 391
1883.69531 1300.94104 21.81738 421
1902.76538 1297.61304 -15.53720 390
1903.55481 1298.49695 21.41744 419
3548.32983 2478.47241 198.89658 1000
1922.84497 1295.57837 -16.13225 389
1923.30579 1295.92444 20.40199 418
1944.21033 1293.28638 -17.21610 388
1943.42639 1292.93958 19.46531 417
1964.29272 1290.45032 -18.17536 394
1965.24597 1291.33508 19.03144 363
5366.62256 3588.69214 -1358.87231 1000
1984.82056 1287.68628 -19.01278 401
1987.85278 1290.04346 18.06688 342
2006.49353 1284.90417 -20.57628 400
2008.56885 1287.00684 16.96700 392
2027.76746 1282.52563 -21.64289 399
2029.69458 1284.09106 16.30426 391
2050.29126 1280.22473 -22.73507 398
2051.51196 1280.63342 15.92847 390
2072.65283 1277.71960 -23.83040 397
2073.28833 1278.14880 14.72696 389
2095.31714 1274.84448 -24.83834 396
2095.33813 1274.57349 13.84679 388
2118.82764 1272.20056 -25.89559 394
2117.82788 1271.77454 12.89190 387
2142.35498 1269.78699 -27.20942 393
2139.83984 1268.31409 12.36894 389
2165.53711 1266.55627 -28.33194 395
2163.16748 1265.25659 11.29947 388
2189.73657 1263.63831 -29.99187 392
2186.38525 1262.21191 10.79401 403
2210.22412 1258.46143 -30.57660 384
2210.31421 1258.52698 10.03413 402
2240.60059 1259.04321 -32.72279 393
2269.14453 1257.47522 -34.34310 311
26435.26758 6670.89258 4157.23730 1000
30174.95508 4158.62842 -2862.26733 1000
18170.96680 266.25635 723.57574 1000
1640.81580 -5.20158 -46.15122 451
1645.64673 -5.46720 -20.78505 451
1650.32617 -5.35817 4.29948 457
1655.35156 -5.39696 29.60628 331
1638.36987 -14.71396 -45.96297 499
1642.59814 -14.80839 -20.49735 499
1647.18201 -14.79496 4.32170 499
1651.05469 -15.01266 30.01680 487
1641.20837 -24.41378 -46.05845 451
1646.53967 -24.24359 -21.08172 451
1654.56714 -24.50190 3.91226 381
2688.94434 -216.75705 4.09159 324
2675.74316 -231.45389 -38.08889 325
2658.95532 -230.08469 5.66058 376
2643.27466 -244.92563 -36.16028 351
2633.45044 -243.71194 6.95068 429
2632.10718 -259.17984 -35.05738 405
2624.43433 -258.43082 7.16392 481
2621.62158 -274.13062 -34.35079 412
2616.95068 -273.39835 7.64661 487
2613.38770 -289.04507 -33.99689 415
2611.69873 -288.51904 7.36863 466
2605.72559 -303.40918 -33.64991 462
2606.07324 -303.85333 7.80914 467
2708.67847 -315.61414 46.20697 385
2671.83691 -327.28641 -81.38005 411
2598.37451 -318.02347 -33.15445 462
2600.99756 -318.34155 7.89065 467
2662.07617 -342.43204 -80.36390 418
2590.56079 -333.06345 -32.90121 486
2595.86865 -333.57675 7.75709 430
2652.02856 -356.72150 -79.90298 426
2584.30127 -347.36942 -32.87186 491
2591.68188 -348.76831 7.96454 435
2644.63452 -372.23557 -79.31283 426
2578.54541 -362.48669 -32.30444 491
2587.59082 -363.41678 8.00320 440
2636.96045 -386.57300 -79.09283 426
2572.60913 -377.19623 -32.25127 492
2583.37427 -378.64746 8.45933 406
2628.59009 -401.33920 -78.58188 419
2566.64380 -391.81790 -32.26624 492
2579.66626 -394.03131 8.57812 413
2621.33105 -416.58710 -77.90428 420
2561.51001 -406.32269 -31.96742 492
2575.62793 -408.69949 8.23981 413
2614.15308 -430.86047 -77.94724 433
2555.79028 -421.05429 -31.64949 494
2572.84351 -424.04178 8.87787 417
2607.84009 -445.70432 -77.50858 433
2550.99121 -435.98785 -31.68201 494
2569.80078 -438.84152 8.62865 361
2601.81592 -460.91199 -77.18076 433
2547.34033 -450.39694 -31.26757 497
2567.73340 -454.68753 8.38420 361
2674.57275 -473.68124 132.35258 300
2595.28345 -475.50064 -76.97083 435
2542.27686 -465.22983 -31.56779 497
2565.10327 -469.74750 8.81641 361
2653.22949 -486.67157 46.77925 359
2632.16772 -482.33746 132.63579 301
2589.88940 -490.31226 -76.56258 436
2540.56079 -480.66904 -31.18869 498
2563.48120 -484.89578 8.83284 361
2672.30713 -506.78848 89.50825 340
2591.68286 -490.38947 131.96957 302
2574.01685 -502.74835 -75.67668 498
2536.11523 -495.12582 -30.91399 498
2573.36182 -503.08710 7.72837 259
2634.84790 -515.48761 90.19635 341
2559.58057 -500.05496 132.40675 424
2574.44653 -519.12408 -75.89024 263
2531.57227 -510.10187 -30.88885 499
2573.46826 -518.62463 7.80870 496
2652.39648 -535.05786 46.57341 340
2583.06323 -521.06378 90.57539 329
2557.68042 -515.39594 132.16495 424
2675.39136 -539.76385 175.32826 498
2550.18701 -530.06659 -73.72934 303
2525.38501 -524.10864 -30.72503 499
2567.86987 -533.12378 7.98897 496
2615.14673 -543.69525 47.82446 341
2562.15381 -532.55420 91.14978 344
2556.06030 -530.57904 132.13802 424
2673.46240 -556.45648 175.47916 498
2542.20215 -543.88818 -73.24679 303
2522.15063 -539.25751 -31.17365 499
2561.84399 -547.83167 8.09314 497
2578.74121 -551.69501 49.21838 342
2559.60522 -547.42999 91.08936 498
2554.26855 -546.40930 132.12585 424
2535.78467 -558.03162 -73.04015 302
2521.39307 -554.52185 -31.38015 499
2556.44116 -562.60327 7.86866 498
2557.01245 -563.31836 49.32070 498
2558.53906 -563.22913 91.23155 498
2553.00659 -561.60864 132.36656 423
2530.33521 -572.36469 -73.41764 375
2517.69312 -569.53430 -31.34043 499
2555.05127 -578.32300 8.23863 497
2555.97656 -578.72223 49.58771 497
2556.68677 -578.50977 90.67691 497
2550.97095 -577.76398 132.52956 423
2526.06299 -587.24121 -72.84219 375
2514.98706 -584.96783 -30.85623 499
2553.62451 -593.83392 7.90168 497
2554.42456 -594.57587 49.05628 497
2555.45703 -594.18530 91.05139 497
2549.02832 -592.80768 132.38519 423
2522.85352 -602.15039 -72.79472 374
2509.39331 -599.20184 -30.89511 499
2551.86987 -609.42749 8.14276 497
2552.43433 -610.05414 49.00352 497
2553.69751 -610.09558 90.82805 497
2547.93726 -608.85626 132.62138 423
2519.67725 -617.53894 -73.10332 375
2506.58398 -614.18640 -30.99536 499
2550.04175 -625.40112 7.64601 497
2550.92700 -625.33472 49.09766 497
2551.73193 -625.76196 91.16405 497
2545.61597 -623.80408 132.34860 423
2516.90259 -632.80597 -73.34045 375
2506.78101 -630.33795 -31.51345 498
2542.41211 -639.33801 7.66817 496
2543.23096 -639.63464 49.17746 497
2543.96680 -639.75928 91.03239 497
2544.12842 -640.13721 132.39267 423
2513.99756 -647.92468 -73.53377 374
2504.34106 -645.24988 -31.26629 497
2540.62134 -654.72675 8.16337 496
2542.94409 -655.24408 49.57110 496
2543.50659 -655.88861 90.55859 496
2542.31982 -655.17932 132.03308 423
2512.42505 -663.24573 -73.71539 375
2502.39307 -660.37317 -31.67030 497
2538.73730 -670.39343 7.89772 496
2540.82812 -670.93140 49.53604 496
2541.83545 -671.13184 90.67000 496
2541.22437 -670.99316 132.26971 422
2509.83496 -678.41705 -73.56245 375
2498.18286 -675.18158 -31.43682 497
2537.74268 -686.31036 7.82601 496
2539.09424 -687.07898 49.13556 496
2540.48535 -686.88348 90.56905 496
2539.30566 -687.21667 132.18677 422
2508.15381 -693.98181 -74.12474 374
2495.68945 -690.36096 -31.47117 497
2535.78223 -702.54791 7.22288 495
2538.08667 -702.87000 48.68346 496
2538.31348 -702.81616 90.69115 496
2537.16821 -702.33386 132.10271 422
2507.60205 -710.28882 -73.88062 374
2496.53467 -706.65546 -31.80897 495
2534.20679 -717.65723 6.98066 495
2535.31885 -718.72363 49.31764 495
2536.24902 -718.76263 90.81143 495
2536.02441 -718.66479 132.16037 422
2506.45630 -725.98163 -74.33076 374
2494.58325 -722.64209 -32.34758 495
2532.66504 -733.48425 7.48933 495
2538.37964 -735.99951 49.00548 497
2539.34058 -736.16498 90.23851 497
2534.22388 -733.98749 132.30374 422
2699.80396 -783.90454 176.81335 415
2504.98462 -742.12958 -74.99093 373
2493.09424 -737.90045 -31.97841 494
2530.52344 -749.94672 6.96174 495
2538.09033 -752.18085 48.37235 495
2538.71191 -751.88379 90.86739 495
2532.37207 -750.07227 132.31921 421
2678.52612 -794.83942 176.80635 486
2504.34766 -757.46558 -74.90764 298
2488.76514 -752.60999 -32.62626 494
2534.88574 -767.02350 6.94132 494
2536.70703 -767.77301 48.61526 494
2537.47900 -768.31500 90.51108 494
2530.59814 -766.00146 132.67276 421
2681.58276 -813.57416 176.88338 278
2504.02539 -773.83954 -75.30329 298
2487.47021 -768.98560 -32.64018 494
2533.06177 -783.31708 6.50678 494
2533.59497 -783.36230 48.44234 494
2535.71436 -783.82245 90.06706 494
2528.92236 -782.16754 132.42163 421
2614.90332 -809.63409 176.01782 494
2649.85107 -820.56976 220.05437 376
2504.02197 -790.07281 -75.55819 298
2488.08496 -784.94122 -32.83738 494
2531.25293 -799.54803 6.61714 494
2532.10938 -799.80969 48.05842 493
2534.17627 -800.12946 90.42093 494
2527.06885 -797.94489 132.40826 421
2592.63672 -818.91211 175.49748 494
2633.38843 -832.74170 220.18297 470
2504.31299 -806.78857 -76.20586 298
2486.55762 -800.91760 -33.14005 493
2530.63696 -815.97333 5.83137 493
2530.04639 -815.36584 47.95457 492
2532.61572 -816.07568 90.43993 493
2525.86108 -814.12451 132.69258 421
2591.06323 -835.75555 175.33246 493
2628.61914 -848.72681 220.18724 467
2504.16577 -823.37695 -76.42283 298
2484.84717 -816.73792 -33.37279 493
2528.54565 -832.10864 6.01587 493
2529.90674 -832.08997 47.73856 493
2530.70166 -832.39954 90.11380 493
2523.43237 -830.22614 132.77736 420
2610.03491 -859.33813 175.68687 493
2633.60547 -867.46124 220.36050 391
2503.96216 -840.14661 -77.39432 298
2481.62231 -832.11334 -33.22101 486
2526.81226 -848.14990 5.50755 493
2527.72485 -848.44885 48.24644 493
2528.84985 -848.80182 90.38010 493
2522.08862 -845.79944 132.24788 420
2621.57935 -881.00793 176.12953 312
2503.73291 -856.30518 -77.36940 303
2479.35815 -847.87579 -33.75150 492
2766.37231 -949.49091 -7.24343 492
2520.50806 -862.53992 132.66858 420
2606.87354 -892.79840 176.21434 498
2654.56421 -909.63043 221.84795 468
2503.71729 -873.59778 -78.01150 303
2479.89551 -864.74408 -34.16243 423
2605.49438 -910.12439 176.09354 484
2661.38379 -929.73218 222.15303 477
2651.06689 -926.39728 266.07083 490
2516.38232 -894.87811 -79.50459 265
2478.60986 -880.75983 -34.00791 491
2661.14111 -948.15576 177.45186 447
2655.06494 -945.70764 221.88443 453
2508.65894 -908.86102 -79.57729 265
2476.94727 -896.88605 -34.74372 491
2632.98462 -955.09601 176.63951 412
2630.58374 -954.63391 221.16731 372
2501.03857 -922.55817 -79.11215 265
2475.26343 -912.82123 -34.93548 491
2492.86206 -936.30408 -78.81391 265
2471.19897 -928.24408 -35.22284 490
2487.25757 -951.53284 -78.92544 375
2469.53296 -944.06036 -35.33345 490
2484.87622 -967.34442 -79.25848 375
2470.51270 -961.90991 -35.60368 489
2781.00342 -1086.88367 -10.00406 303
2482.22803 -983.32880 -79.73426 375
2468.20874 -978.08160 -35.82261 489
2751.86060 -1094.58069 -8.69466 489
2466.48755 -994.38367 -36.52810 490
2702.94946 -1093.23975 -6.21603 322
2760.58984 -1117.08582 37.61716 438
2462.44922 -1009.75836 -36.60014 488
2615.70776 -1075.02429 -2.25069 285
2627.57910 -1079.53357 42.28384 407
2461.52954 -1026.83569 -36.54102 410
2587.52759 -1081.22681 -0.88018 347
2755.91309 -1153.58203 37.42136 477
2461.66431 -1043.62976 -37.56274 487
2534.55737 -1075.98584 1.69734 326
2753.19312 -1172.54993 37.02751 477
2459.81055 -1060.89685 -37.78602 487
2487.13818 -1072.57385 3.70168 313
2751.44531 -1191.10181 37.04024 476
2456.06274 -1075.93323 -37.57668 486
2483.89307 -1089.01672 3.57185 313
2749.83228 -1209.92407 36.98359 472
2453.81152 -1093.03796 -38.19917 486
2480.91235 -1105.81238 3.14170 313
2454.59814 -1111.29199 -38.56199 485
2478.16748 -1121.82642 2.79236 313
2659.86011 -1207.39465 39.61335 349
2453.19995 -1128.10107 -39.44738 485
2475.30542 -1138.74866 2.85376 309
2645.16162 -1219.41235 39.96895 499
2451.18408 -1144.96899 -39.41148 484
2472.04858 -1155.01624 2.80799 309
2561.86597 -1198.57214 42.55869 385
2446.11523 -1160.34167 -39.85233 481
2468.64648 -1171.85632 2.03889 309
2550.77783 -1212.13464 42.57490 499
2443.87671 -1177.58569 -39.83577 480
2465.50146 -1188.01001 1.87160 308
2543.23218 -1227.08154 42.82624 499
2443.81152 -1195.08533 -40.75914 412
2533.50879 -1240.78198 -2.11717 499
2536.24731 -1242.31287 43.06877 499
2721.95264 -1336.79236 84.13428 485
2545.72607 -1265.78259 -48.13768 443
2526.32373 -1256.27820 -2.28997 499
2529.25830 -1257.49646 42.90437 499
2548.11816 -1286.38367 -49.23177 338
2521.60938 -1272.96045 -2.41749 455
2525.00391 -1274.53857 42.25721 462
2523.89404 -1292.82849 -2.90926 454
2526.86084 -1294.54846 42.50630 459
21440.80078 -11348.76465 927.39264 1000
2486.97461 -1311.80261 88.02731 475
13288.56250 -8203.53418 -2431.12549 1000
36916.10938 -35776.93750 -11833.26270 1000
13964.12500 -17699.52344 -1710.25415 1000
13943.65820 -17673.04297 2345.62231 1000
31420.32812 -40477.36719 -7457.07910 1000
1220.94421 -1558.73071 -25.89290 362
1206.04871 -1558.05811 -24.61106 495
1209.20264 -1562.29492 6.11666 495
1212.92468 -1567.44324 37.47358 473
1197.27246 -1566.44653 -25.06285 471
1200.80371 -1571.45630 6.32318 424
1205.97144 -1578.47864 37.50580 298
29554.96289 -60941.92188 -8674.07227 1000
394.95306 -1648.67786 -2.54944 481
384.22418 -1647.81250 -2.23926 483
373.39600 -1643.98633 -1.96756 431
373.82800 -1645.25513 25.43330 348
363.02902 -1644.78406 -1.78104 314
362.64529 -1641.26392 25.65056 484
353.01083 -1645.78589 -2.09772 480
351.99133 -1640.75195 25.99383 486
342.59885 -1645.65613 -1.72034 481
341.61618 -1639.92566 25.80153 486
341.93765 -1642.09814 53.32996 436
332.28656 -1645.35620 -1.84559 481
331.26230 -1639.47949 26.00896 486
331.51605 -1639.88245 53.32365 494
322.17041 -1644.97656 -1.37317 481
321.27899 -1639.31470 26.45659 487
321.21902 -1639.13379 53.67208 494
311.76053 -1644.50598 -1.30717 482
310.17072 -1635.01404 26.66677 488
310.88223 -1638.83105 53.35435 494
301.27365 -1643.93982 -1.18711 482
300.53732 -1636.30200 26.48010 353
300.72205 -1638.43042 53.66660 495
291.13428 -1643.45117 -0.93459 483
290.28033 -1636.44812 26.66976 484
290.39911 -1637.92554 53.67031 495
280.58798 -1643.11230 -0.85340 483
280.01050 -1635.90588 26.98163 483
280.18747 -1637.65137 53.55379 495
270.77615 -1642.67920 -1.01362 483
269.52698 -1635.34070 26.70804 483
270.00928 -1636.98730 53.64910 495
260.48196 -1642.34045 -0.55011 482
259.44101 -1634.80359 27.18168 484
259.98450 -1636.70129 53.69237 496
250.25459 -1641.83679 -0.71124 483
249.57794 -1634.45410 26.86482 484
249.83769 -1636.20300 54.00138 496
239.92635 -1641.06934 -0.46725 483
239.13084 -1633.86243 27.19439 484
239.30898 -1635.79932 54.07076 496
229.81090 -1640.79041 -0.19028 483
229.08730 -1633.41016 27.09080 484
229.29015 -1635.18896 53.94476 496
219.62926 -1640.63757 -0.30709 466
218.99442 -1632.68787 27.48364 484
219.30969 -1634.99719 54.07604 497
209.49899 -1640.31860 -0.28793 466
208.76967 -1632.42883 27.22017 485
208.94353 -1634.19373 54.14864 497
199.40927 -1640.41260 -0.17877 466
198.78510 -1632.11145 27.38263 485
199.23164 -1634.14490 54.23587 497
189.49982 -1640.18506 -0.19632 466
188.91301 -1631.58545 27.33504 485
189.12390 -1633.29553 54.13463 497
179.47867 -1640.10791 -0.22172 466
178.94281 -1630.88892 27.65603 485
178.98215 -1633.16699 54.42673 497
169.16837 -1640.16187 -0.19665 466
168.81593 -1630.43323 27.50638 485
168.94559 -1632.60632 54.23361 497
159.10625 -1640.08301 -0.24967 466
158.60234 -1630.16614 27.44621 485
158.94659 -1631.95581 54.17817 497
149.35152 -1640.22473 0.00967 466
148.94814 -1629.58203 27.67158 486
148.75693 -1631.91382 54.53614 497
139.38322 -1639.91736 0.21073 466
138.95584 -1628.82715 27.70493 486
139.09006 -1631.05737 54.35098 497
128.93933 -1640.01343 0.21447 466
128.56779 -1628.75537 27.83745 486
128.94806 -1630.83521 54.22893 498
119.30729 -1640.08020 0.05732 466
118.65713 -1627.90613 27.81051 486
119.00614 -1630.45850 54.38555 498
109.25564 -1639.90808 0.08924 466
109.04305 -1627.79211 27.70844 486
108.70259 -1630.13049 54.66216 498
99.16306 -1639.62207 -0.03657 466
99.00613 -1627.03259 28.03614 486
99.08168 -1629.43762 54.64236 498
89.05736 -1639.46375 0.02548 466
89.11133 -1626.57751 27.78761 486
88.92553 -1629.18933 54.38819 498
79.09554 -1639.82715 0.02859 466
79.03082 -1626.44141 27.90046 468
78.79893 -1628.75024 54.39709 498
69.09390 -1639.58521 -0.05769 466
68.92966 -1626.56860 27.80146 468
68.89055 -1628.16333 54.66819 498
58.76437 -1639.48657 0.02478 466
59.04681 -1626.26501 27.98580 467
59.11066 -1627.40369 54.51122 499
49.12576 -1639.52979 -0.09749 454
49.05633 -1625.38745 28.02645 467
49.17271 -1627.02344 54.33009 499
39.01176 -1639.09827 -0.13654 454
39.12590 -1625.20312 27.73000 467
39.40007 -1626.42859 54.35524 499
28.82466 -1639.41504 -0.15082 454
29.41448 -1624.59082 27.84293 467
29.34329 -1625.96094 54.56411 499
29.03063 -1633.10706 80.96857 499
18.99922 -1639.35986 0.07672 454
19.35049 -1624.42896 27.73656 467
19.34284 -1625.64600 54.32749 499
19.07461 -1633.31519 80.94421 499
8.54049 -1639.45056 -0.10826 454
9.67812 -1624.03992 27.97600 467
9.57521 -1625.45068 54.46557 499
9.07880 -1633.12219 80.98255 499
-1.21370 -1639.24219 -0.01762 460
-0.56466 -1623.36853 27.89384 467
-0.44625 -1624.86328 54.53455 499
-0.97303 -1632.63232 80.93629 499
-11.28884 -1639.33960 -0.32310 460
-10.62078 -1623.13623 27.60275 467
-10.26782 -1624.16223 54.57098 499
-11.03951 -1632.58667 80.82747 499
-21.38369 -1639.24658 -0.40294 459
-20.28688 -1622.75195 27.55774 456
-20.16770 -1623.89575 54.38943 499
-20.71078 -1632.00732 80.61523 499
-31.34998 -1639.66687 -0.17990 444
-30.15481 -1623.03625 27.78871 456
-30.15318 -1623.78345 54.24015 498
-30.99094 -1631.79419 80.78024 499
-41.44518 -1639.70947 -0.60047 444
-40.38424 -1622.79468 27.50523 456
-40.23014 -1623.67725 54.55976 498
-40.83387 -1631.66235 80.94857 498
-51.76410 -1640.25232 -0.61012 439
-50.33354 -1623.72217 27.72553 456
-50.32986 -1624.35352 54.31257 495
-51.06158 -1632.39136 80.55059 494
-61.83936 -1640.74951 -0.72252 439
-60.53647 -1624.35681 27.33704 456
-60.34314 -1625.45032 54.03358 494
-61.35429 -1633.49768 80.45338 492
-71.90217 -1642.14392 -1.14310 434
-70.44696 -1625.56189 27.20744 453
-70.65662 -1626.70068 54.17230 490
-71.34630 -1635.26001 80.76425 492
-82.67473 -1644.17102 -1.18989 433
-80.57229 -1626.91394 26.98088 453
-80.81451 -1628.48694 53.71012 488
-81.45218 -1636.42578 80.45110 492
-92.69676 -1646.38843 -1.70085 431
-90.98003 -1628.27307 26.75140 449
-91.30826 -1630.07471 53.98225 486
-92.84471 -1645.76685 80.34521 408
-103.35442 -1649.15710 -1.61733 431
-101.23026 -1630.27502 26.57639 444
-101.61430 -1632.41382 53.47293 483
-103.84065 -1654.87012 79.90083 448
-113.82251 -1651.52991 -1.95505 432
-111.37704 -1632.51721 26.45624 443
-111.70551 -1634.86414 53.42260 480
-124.57371 -1654.68140 -2.24780 432
-122.18307 -1635.24670 26.30337 440
-122.23921 -1637.60034 52.95884 480
-135.19901 -1657.65137 -2.88638 423
-132.47209 -1638.06030 25.99915 440
-133.01740 -1640.05762 52.95621 479
-146.14839 -1660.87756 -3.48450 423
-143.03384 -1640.72900 25.71664 437
-143.45848 -1643.11523 52.65525 475
-156.89857 -1664.76135 -3.76124 422
-153.75941 -1643.92773 25.53374 434
-154.37671 -1646.41162 52.62843 475
-168.06451 -1668.35022 -4.19545 423
-164.67067 -1647.25574 24.84609 433
-165.09784 -1649.38232 52.39376 474
-178.68817 -1671.93323 -4.80561 420
-175.65468 -1651.14294 24.85600 430
-175.91537 -1653.12866 51.92007 468
-186.69289 -1654.95117 24.41535 429
-187.04385 -1656.59692 51.76577 467
-197.88603 -1659.03638 23.94185 429
-198.00345 -1661.46692 51.60984 454
-209.17232 -1663.66077 23.49643 422
-209.29860 -1666.25977 50.92812 453
-220.15851 -1668.72046 23.07814 422
-220.92239 -1671.43286 50.82632 443
-231.99916 -1674.03760 22.49815 418
-232.45969 -1677.12500 50.20716 440
-243.86514 -1679.93970 22.13604 417
-244.22159 -1682.49609 49.77534 439
-255.50385 -1685.22375 21.43922 416
-255.78726 -1687.78076 49.44078 438
-267.36359 -1691.33435 20.73565 415
-267.80182 -1693.49841 48.96397 427
-279.58484 -1696.85339 20.24741 415
-280.06760 -1699.23682 48.80580 426
-291.69083 -1702.90125 19.73941 414
-292.40744 -1705.32275 48.22556 426
-304.21967 -1708.80151 19.05827 415
-304.74365 -1712.15588 47.71539 413
-316.51047 -1715.24329 18.83421 424
-317.46115 -1719.28149 47.31116 413
-328.94821 -1721.50671 17.87633 417
-330.29028 -1726.83899 47.05062 404
-342.12585 -1728.14124 17.57665 414
-343.68811 -1734.45325 46.23005 403
-1534.13599 -3240.38062 75.40932 475
-1533.71777 -3239.59717 134.76434 497
-1533.61670 -3238.91089 194.03023 497
-1533.07336 -3239.47949 253.52782 495
-31916.42969 -60209.26562 11439.91504 1000
-1994.13501 -2682.19556 78.76292 484
-1993.16760 -2681.48486 134.40205 484
-1992.81201 -2680.07617 189.33612 484
-1991.52417 -2678.59863 245.42924 484
-38795.48828 -33286.34766 -4048.78540 1000
-2457.44653 -2126.79761 78.83956 338
-4964.34375 -2443.20532 132.28674 496
-4431.72607 -1983.93237 131.93361 488
-257.65945 -74.70187 35.51909 321
-255.65550 -72.06866 36.20188 321
-253.63097 -69.41339 36.88069 322
-273.76941 -73.46611 37.91480 318
-2019.09705 -424.53363 597.51758 1000
-253.94049 -67.29056 36.79360 352
-271.65491 -70.76215 38.47597 321
-255.80467 -65.43031 36.41371 351
-270.30246 -68.11789 38.93213 345
-291.38220 -72.09915 40.37066 318
-257.68680 -63.55785 35.98797 351
-272.10126 -66.20690 38.58332 345
-289.50418 -69.34264 40.94600 318
-259.60577 -61.68300 35.58003 350
-273.98993 -64.23380 38.20249 347
-290.07870 -67.06947 40.87853 341
-261.79059 -59.86089 35.08431 326
-276.11081 -62.28734 37.75747 346
-291.97583 -64.93187 40.52022 341
-281.59961 -60.76330 36.49578 323
-65465.37500 -8637.44629 12164.08887 1000
-197.30113 -10.88214 53.34031 324
-197.24229 -9.04155 53.33106 324
-197.24721 -7.23669 53.34663 324
-197.24803 -5.51690 53.35054 324
-197.21407 -3.68807 53.40463 324
-18752.90039 -272.27444 747.88647 457
-18702.87891 -272.14392 1056.72791 453
-197.23367 -1.85727 53.35331 324
-18696.10938 -155.02429 745.65717 462
-18651.08398 -156.94810 1054.63025 434
-197.16066 -0.04943 53.38126 324
-18646.91797 -37.95701 743.84277 463
