# .PCD v.7 - Point Cloud Data file format
VERSION .7
FIELDS x y z rgb
SIZE 4 4 4 4
TYPE F F F U
COUNT 1 1 1 1
WIDTH 1154
HEIGHT 1
VIEWPOINT 7195.823730 -673.291748 136.076523 -0.672817 -0.105866 -0.096163 0.725853
POINTS 1154
DATA ascii
-18605.41797 69.96213 734.64087 464
-18553.88477 181.34804 734.43427 464
-18505.83398 294.42661 730.58807 465
-18452.69336 410.68527 728.83624 465
-20337.93359 447.30698 1128.37109 459
-18407.08008 520.90649 729.16235 466
-20266.44141 573.56049 1122.41309 334
-18355.32422 632.46979 729.07379 466
-18308.53516 744.05884 726.07990 467
-18255.44531 854.87726 724.07269 467
-18208.05469 965.03772 722.32983 468
-18161.52734 1077.30212 722.26562 468
-20005.82031 1182.09595 1109.27295 296
-18110.13281 1184.47632 720.57660 469
-19938.88281 1301.83850 1107.95654 404
-18063.32617 1292.03577 716.01477 469
-19884.01172 1424.59766 1105.52783 405
-18018.93555 1399.18945 716.61316 470
-19828.35938 1544.68005 1103.97644 434
-17968.71484 1510.66052 714.91028 470
-19775.64648 1659.78577 1099.16602 434
-17920.10352 1617.37720 715.86450 471
-19722.06641 1780.67017 1098.15930 435
-17873.87305 1721.96436 711.56458 471
-19669.45703 1898.74023 1099.23401 435
-17829.24219 1832.75342 711.59265 472
-19617.97266 2013.73157 1094.22449 435
-17781.75000 1935.64905 712.10382 472
-19566.01562 2132.18018 1094.42493 416
-17731.11914 2042.04431 707.03088 473
-17709.40430 2037.54980 1000.44452 295
-17688.64844 2145.06201 709.48334 473
-17661.34180 2145.40796 998.85278 300
-17638.42773 2252.27954 707.53644 474
-17607.63477 2247.89355 996.85626 300
-17596.03125 2354.37744 705.85571 474
-17561.23438 2351.81055 995.43768 300
-17549.37695 2463.20093 706.04730 474
-17512.40625 2456.60425 992.85071 301
-17503.87500 2566.06738 703.75189 475
-17462.91016 2560.30908 993.55945 301
-17456.27930 2669.89185 702.70721 475
-17414.25000 2661.57202 992.62054 301
-17413.53516 2771.96777 699.54675 475
-17366.00586 2762.52808 990.64429 301
-268.31976 59.55130 34.84353 326
-282.69083 61.91964 37.58308 323
-299.14981 64.59975 40.16674 314
-17366.75586 2875.13623 699.97552 476
-17317.41211 2867.78101 990.76758 301
-18033.84961 2983.44312 1322.92810 477
-264.11533 61.09361 35.94180 350
-278.59927 63.55061 38.47392 347
-294.56726 66.29095 41.17125 341
-17321.90430 2974.07715 701.78046 476
-17270.40820 2967.40747 988.51807 301
-17969.00781 3086.30273 1319.91760 478
-262.12863 62.96389 36.29969 351
-276.48199 65.46863 38.86764 345
-292.65860 68.37292 41.49810 340
-17277.10547 3077.21924 697.96387 477
-17221.67969 3069.50903 986.72784 301
-17898.34375 3190.00439 1321.13782 478
-260.18298 64.80302 36.77636 351
-274.70810 67.53941 39.23450 345
-294.41367 71.16214 40.94368 318
-17232.03711 3179.53076 699.07971 477
-17173.19336 3172.43433 982.30194 301
-17829.32031 3291.66382 1315.01782 479
-258.23990 66.69310 37.13043 352
-274.78357 69.87917 39.08440 322
-17183.66602 3280.73657 695.73761 477
-17127.10156 3272.83472 982.47186 301
-17766.35938 3392.42749 1312.85144 480
-256.73306 68.68063 37.44147 325
-276.55832 72.53524 38.56822 319
-17141.21484 3381.72412 698.32599 478
-17082.98828 3369.18799 982.99493 301
-17698.23242 3491.83423 1310.74854 480
-258.57718 71.21317 36.77248 322
-17096.15820 3481.14771 693.52209 478
-17035.95312 3471.70142 977.51746 301
-17630.97266 3592.87964 1308.11450 481
-260.49362 73.86974 36.13511 321
-4159.94922 889.65515 129.25435 458
-17052.72266 3585.68140 692.31897 478
-16990.91992 3574.17236 976.17377 421
-17570.23633 3691.93848 1302.65039 493
-262.42337 76.53910 35.43341 321
-17008.74805 3685.56689 691.80273 478
-16949.19531 3670.49927 977.03162 421
-17523.00391 3794.53638 1299.90271 494
-16961.40625 3784.64478 692.83752 479
-16905.98047 3771.13770 975.54401 422
-17477.16602 3900.11792 1298.44312 494
-16919.70703 3882.62061 691.15088 479
-16860.62891 3870.40771 975.93231 422
-17427.20508 4001.76855 1298.95972 494
-16875.33203 3984.93018 692.10974 479
-16815.37695 3968.57153 972.58655 422
-17382.30273 4101.63818 1295.00806 495
-16828.31055 4084.52954 688.75476 480
-16770.88477 4070.58472 974.00580 422
-17333.99805 4204.69873 1295.97913 495
-16783.15625 4181.45850 690.01642 480
-16728.27344 4169.31982 974.23639 422
-17290.95312 4305.84863 1294.42773 495
-16741.62891 4281.30811 690.58118 480
-16684.58984 4268.76904 969.28107 423
-17142.37500 4384.47754 1286.41968 496
-16698.87891 4380.46777 690.28290 480
-16643.36523 4367.16602 969.71332 423
-17098.46289 4483.43896 1286.16125 494
-16654.49414 4479.80322 689.95026 480
-16597.07031 4466.13818 970.74426 423
-17048.85938 4583.24951 1284.03540 494
-17188.24609 4624.28809 1589.12927 496
-16607.98047 4579.26514 688.94666 481
-16555.99609 4563.65918 967.82379 423
-17005.52148 4684.45557 1282.22229 490
-17138.33984 4720.45801 1585.54871 496
-17293.11328 4764.63525 1895.55408 457
-16568.63867 4673.61475 685.26685 481
-16512.84570 4657.99414 965.76044 423
-16972.73047 4788.94531 1281.79993 403
-17096.01172 4824.05371 1583.29285 496
-17252.35938 4869.86572 1894.10266 399
-16524.95508 4771.70898 686.22266 481
-16469.12500 4757.16504 965.69379 423
-16993.78125 4909.70410 1286.18787 435
-16989.03320 4908.96924 1579.73230 435
-16479.88867 4869.86279 685.28314 489
-16426.41211 4855.21631 967.32489 424
-16870.51562 4984.71436 1278.36694 436
-16863.43164 4986.19189 1568.00244 436
-16436.21875 4969.83936 684.77448 490
-16384.83789 4951.55908 964.16492 424
-16748.23047 5064.66992 1274.23340 437
-16744.35547 5062.41992 1562.91553 437
-16394.04492 5064.05322 685.94000 490
-16342.68945 5050.57129 965.13129 424
-16670.51172 5150.69580 1269.03076 497
-16664.75781 5152.22363 1560.15747 497
-16911.55859 5228.54150 1873.17761 453
-16349.46680 5164.60107 685.99261 490
-16297.48145 5149.77490 966.66931 424
-16598.64844 5239.98486 1267.53821 498
-16591.22266 5238.25244 1551.62903 497
-16864.66406 5327.33057 1868.11536 453
-17371.46484 5487.77930 2226.21240 481
-17365.30664 5483.60596 2528.27002 480
-17358.79883 5481.38916 2834.95166 480
-17352.63281 5482.95947 3137.62476 479
-16305.36719 5260.73926 684.32471 490
-16254.37891 5245.22314 961.89331 424
-16552.48047 5340.97070 1264.35962 498
-16544.73828 5336.71094 1554.44727 498
-16817.46094 5425.74756 1870.48328 453
-16912.49219 5455.60303 2172.40674 485
-16262.26855 5358.26074 682.09039 490
-16215.81836 5340.83496 963.23376 424
-16510.11719 5438.59717 1266.77124 498
-16502.38672 5437.03223 1552.81482 498
-16659.70508 5486.77441 1856.61414 391
-16866.70898 5554.71143 2172.70117 485
-16222.08496 5453.81689 685.27240 490
-16170.49805 5440.62744 964.10541 424
-16465.37500 5538.56885 1262.69934 498
-16458.63867 5536.04736 1550.36609 498
-16611.20312 5587.35400 1856.55200 391
-16818.95703 5658.70703 2171.44092 485
-16176.66504 5551.99365 683.36798 490
-16127.79297 5535.51758 963.56250 424
-16417.68750 5636.48877 1262.06909 498
-16414.41211 5632.98828 1547.92603 498
-16565.74414 5684.55615 1855.62964 391
-16776.06445 5757.34326 2168.66211 485
-16137.77734 5647.41846 685.25531 491
-16086.49023 5631.53174 959.88641 424
-16377.63184 5735.22803 1260.81262 498
-16367.75293 5731.91943 1549.15942 498
-16523.29883 5784.23584 1854.87439 391
-16091.73926 5743.84912 683.84332 491
-16042.20605 5729.53223 962.03741 424
-16328.56445 5830.83887 1260.23108 498
-16325.52051 5827.87256 1548.01746 498
-16476.21484 5882.59131 1853.09070 392
-16049.17871 5842.08594 682.29742 491
-16001.12598 5825.56592 962.21082 302
-16314.75293 5940.67383 1261.79553 499
-16309.14648 5937.36084 1547.85413 498
-16434.23828 5982.37939 1848.41968 392
-16010.46094 5940.85303 683.30884 491
-15965.20703 5922.71436 961.97174 303
-16272.26953 6033.87061 1261.71167 499
-16261.02246 6032.23486 1546.96082 498
-16389.46875 6081.56201 1848.19128 392
-15965.00781 6036.15088 682.06757 491
-15920.97070 6017.76562 961.20618 303
-16068.41797 6073.37695 1253.70239 481
-16034.36035 6061.60010 1532.33374 393
-16342.29590 6180.08545 1848.44043 392
-15924.69336 6132.40430 682.94244 491
-15883.47461 6118.24658 960.77539 303
-16180.65527 6232.32520 1264.28125 499
-16172.30078 6227.49170 1545.67798 499
-16297.43066 6275.49414 1848.72375 392
-15878.27930 6229.02832 679.22339 491
-15841.86719 6213.40234 962.06116 303
-16137.34473 6329.96729 1260.79456 499
-16131.88086 6324.77002 1547.85828 499
-16251.33789 6376.78760 1846.88562 392
-15837.50684 6325.04248 683.12354 491
-15802.63379 6312.65625 960.88727 303
-16092.82031 6428.06152 1260.33728 499
-16087.76367 6424.00439 1546.02600 499
-16321.45898 6516.80029 1859.89917 469
-15793.80664 6418.53662 680.10962 491
-15764.59277 6407.17969 961.93567 303
-16096.74023 6541.45166 1263.34680 467
-16092.33496 6539.62451 1551.79407 466
-16296.10742 6622.58496 1858.29126 454
-15751.51367 6516.20264 680.19684 491
-15725.39746 6504.21436 958.86322 297
-16110.95996 6664.45752 1269.63623 482
-16106.55371 6661.42725 1554.05310 466
-16286.33008 6734.94971 1865.76501 454
-15708.55273 6614.74951 681.58936 491
-15682.37598 6603.37842 958.67975 297
-16098.93262 6776.35791 1272.66357 482
-16120.84570 6787.03174 1562.82825 465
-15668.93066 6709.09961 678.75153 491
-15646.30957 6700.69287 962.67188 297
-16089.35742 6887.20850 1271.64490 481
-16136.97852 6911.83545 1566.86890 480
-15626.07812 6804.33838 680.20044 491
-15603.79688 6795.15430 961.90717 297
-16077.90820 7001.64648 1277.00928 481
-15585.09473 6901.43311 680.41248 491
-15568.18457 6895.22705 958.29077 297
-15539.08398 6997.55762 679.61145 491
-15529.29004 6995.30615 959.39771 297
-15498.59180 7095.27637 679.74304 491
-15491.69824 7090.12646 961.76465 297
-15551.28418 7235.99121 401.78189 480
-15457.60059 7190.98682 680.13660 491
-15453.20996 7189.80322 963.54333 297
-15511.52832 7333.76318 400.20920 480
-15413.29199 7284.81689 680.26416 491
-15850.44043 7490.60303 984.76050 406
-15467.70410 7430.70801 401.06885 480
-15368.65527 7383.43457 679.96796 491
-15832.41895 7606.86768 985.24133 406
-15425.55469 7527.75537 399.73511 480
-15326.44727 7476.79199 679.34845 491
-15381.45410 7620.09863 402.60205 480
-15284.64258 7574.00342 679.90216 491
-15337.44727 7720.36279 402.14902 480
-15242.21484 7673.26855 680.48633 491
-16638.47266 8367.01172 1035.41785 423
-15295.14062 7815.12061 401.73608 480
-15199.71191 7767.59229 679.57416 491
-16587.56836 8475.40039 1037.41467 423
-15251.41406 7910.52148 400.48135 480
-15159.13184 7863.88037 680.74622 491
-16538.90625 8575.57715 1038.04553 424
-15204.77441 8010.40234 403.71860 480
-15114.34082 7959.25488 680.58331 491
-16484.47656 8676.87793 1040.13965 424
-15163.16309 8106.86328 400.87036 480
-15073.92188 8056.19336 681.82153 491
-16434.99414 8780.93457 1040.73035 424
-15121.59180 8203.04199 404.42477 480
-15028.35645 8152.18652 681.69006 491
-16386.93164 8885.31445 1038.64905 424
-1340.26428 784.17279 50.64248 442
-15078.18457 8300.46191 404.91104 480
-14988.12012 8252.94629 680.37085 491
-16338.77539 8991.67480 1039.94556 424
-1331.48718 790.95654 50.95026 499
-1333.72546 792.28815 77.75217 482
-1337.83533 794.61908 104.00678 456
-15032.44043 8397.31055 404.28149 480
-14942.00781 8347.32227 680.91492 490
-16285.98047 9091.27051 1039.23657 424
-1328.04578 800.55847 51.04567 460
-1330.08337 801.53558 77.60930 460
-1333.59778 803.48889 104.15819 424
-14987.91699 8496.37305 404.19687 479
-14900.00098 8442.23438 684.52985 490
-16233.74707 9195.32520 1040.22473 424
-14944.27637 8592.22070 403.66406 479
-14856.30566 8542.01562 682.83362 490
-16185.66113 9303.37695 1041.06531 421
-14900.76367 8690.57617 404.12115 479
-14812.67383 8638.02734 684.95636 490
-16139.37402 9409.36523 1039.02917 420
-14858.39844 8789.33887 405.81323 479
-14768.67285 8735.41016 686.21747 490
-16093.79785 9510.87305 1042.40771 420
-14815.73242 8883.51367 402.07925 479
-14727.54590 8834.74902 685.06750 490
-16046.21680 9615.84375 1041.00757 420
-14770.10352 8985.64648 402.98303 479
-14682.03223 8930.92773 684.05847 489
-15995.65723 9723.33887 1040.68970 420
-14726.73828 9083.54297 404.04544 479
-14641.13965 9027.99121 687.30621 489
-15946.83008 9829.07812 1044.23022 420
-14684.56250 9179.05078 405.94751 478
-14596.73047 9128.03027 688.13544 489
-14638.68555 9279.95215 403.01910 478
-14555.07129 9222.97754 684.29822 489
-14592.51367 9374.42969 404.39069 478
-14508.77734 9322.80078 687.99457 489
-14551.33301 9475.54883 406.38382 478
-14467.56641 9422.78516 687.93219 488
-14505.23145 9574.74707 405.86090 478
-14423.25586 9519.14160 688.96912 488
-14462.12598 9673.26465 405.27014 468
-14381.08496 9620.36914 687.01910 488
-14429.45020 9781.28223 407.31046 467
-14333.59961 9720.10938 688.41272 488
-14399.18262 9889.33203 408.41656 467
-14289.60059 9819.51270 688.63507 470
-14364.69531 9996.89355 406.05591 470
-14258.31738 9925.95801 691.33459 470
-2662.34473 1930.76880 129.29187 296
-14334.02832 10107.71582 405.91394 469
-14227.42773 10035.43945 690.79614 469
-2594.69507 1908.27551 129.37390 304
-14300.38477 10216.64746 410.52499 469
-14196.74512 10146.37695 691.76965 469
-2582.91846 1924.21912 76.17302 308
-2549.64648 1900.67249 129.89806 312
-14266.81934 10327.93750 408.81348 468
-14168.79199 10254.09180 695.85272 468
-14125.49805 10225.74316 981.05231 488
-2473.58887 1870.42590 77.99013 317
-2516.64941 1901.76990 129.52647 284
-14248.76465 10451.24512 412.05173 429
-14133.52441 10366.22656 694.74255 468
-14090.00195 10330.17871 982.00494 489
-2423.28931 1856.77332 78.90030 327
-2687.97949 2052.43823 130.06676 460
-14249.05176 10579.07324 413.39017 407
-14105.09277 10473.90527 699.47040 469
-14092.77441 10467.58105 986.09509 447
-2379.10278 1848.01428 79.17455 343
-2667.06006 2063.55713 130.07846 461
-14247.50098 10719.66016 411.62573 407
-14069.23145 10585.88477 700.49408 468
-14058.86719 10577.14160 989.55798 447
-2339.83911 1842.75061 79.83047 375
-2475.60376 1945.28479 129.75810 376
-14245.66406 10858.24219 411.33231 406
-14049.55176 10706.08301 697.85339 429
-14023.03418 10684.64551 991.60193 447
-2303.79785 1838.25366 80.80100 376
-2440.96021 1943.72778 129.94385 418
-14251.59277 10997.66992 416.60989 405
-14040.26758 10835.13086 702.79199 429
-13992.69629 10798.34180 989.27850 446
-2268.02075 1834.11230 81.13179 378
-2438.55713 1966.55457 130.17395 417
-14279.63672 11163.30664 417.97403 311
-14030.57422 10969.33105 705.02191 428
-13965.78223 10918.44824 994.47321 358
-2232.65332 1829.70667 81.21195 379
-2360.71191 1930.43750 129.62718 380
-14023.41992 11098.91602 706.70868 427
-13948.88379 11040.78906 994.37024 357
-2198.09033 1825.43420 82.44193 380
-2338.02612 1936.87732 129.57645 462
-14018.64062 11238.12988 709.65363 405
-2165.07104 1821.63171 82.57769 382
-2240.75537 1882.38098 129.91014 383
-14026.26367 11386.05371 713.97516 380
-2131.61426 1817.65820 83.06036 383
-2223.82983 1892.76379 129.58636 499
-14049.96582 11548.05176 716.61163 379
-2099.55371 1813.40601 83.55827 384
-2224.50122 1917.42090 130.13400 455
-2291.53687 1972.99402 230.96645 486
-2067.30884 1809.53687 83.71497 386
-2222.34204 1939.88416 129.91931 459
-2036.64062 1805.83325 84.68236 387
-2220.09277 1961.43921 129.67429 458
-2271.59839 2005.54199 333.32678 387
-2006.26990 1803.03735 84.63513 388
-2217.50732 1984.16211 129.49315 457
-1976.59009 1799.61658 85.45624 389
-2215.09717 2006.26807 130.29156 456
-1946.98181 1796.38074 85.95160 391
-2212.43652 2029.50659 129.49872 459
-1921.70605 1795.86365 85.72508 444
-2206.19824 2048.65894 129.98228 393
-1901.63147 1799.66943 86.11588 445
-1881.67932 1803.93994 86.74480 429
-2129.51050 2031.07117 179.22844 495
-2129.65674 2030.69495 228.11919 395
-1862.48560 1808.34094 86.51830 429
-1946.43433 1909.97607 84.69419 448
-1939.82434 1903.94592 130.44968 347
-1943.83594 1931.03174 83.94629 447
-1953.31506 1939.99255 130.48315 399
-1941.82788 1953.18665 84.02798 445
-1938.76624 1974.27002 83.77831 444
-1936.95007 1996.93872 83.68778 443
-602.36218 685.00311 308.95428 1000
-1934.43335 2018.60364 83.53806 442
-1924.85242 2034.39355 83.38311 402
-1898.35608 2032.50415 83.78889 452
-1877.91553 2036.29114 83.36908 453
-1857.73010 2040.09973 84.10411 454
-1838.10205 2044.63611 84.16640 438
-2864.24121 65450.50781 12032.37695 1000
428.49054 32821.45312 -5296.33789 1000
20469.23047 36133.55469 8381.62988 1000
1509.48706 1476.16797 -2.36646 470
1519.13281 1468.04883 -2.14236 475
1528.94299 1459.83813 -2.49528 475
1593.12354 1506.66296 -42.30751 265
1538.64099 1452.24329 -2.66719 475
528.10498 430.83011 -10.37290 371
530.18207 432.99512 -0.51970 371
534.49805 437.33435 8.59598 299
1571.55701 1466.93457 -38.76583 266
1548.84863 1444.42090 -2.67471 475
527.60632 425.18527 -9.44447 432
529.05164 426.55548 0.56292 432
530.60773 428.13351 10.45466 432
532.61389 430.11835 20.28546 372
534.72662 432.22437 30.22817 371
1568.64624 1446.00305 -37.69526 445
1558.38245 1436.62622 -2.52611 477
528.36285 420.86011 -8.76661 476
529.51074 421.94653 1.21898 476
530.76575 423.03076 11.21371 476
532.15228 424.38483 21.05522 433
533.58453 425.79340 31.06371 433
535.31744 427.54440 41.00266 342
536.69586 428.80264 50.93398 433
539.97260 431.98218 60.72434 299
1579.52844 1439.05420 -37.85813 445
1569.12805 1429.05542 -2.56623 478
1693.26941 1549.30103 22.52273 264
529.76910 417.01596 -8.44530 497
530.96161 418.11981 1.62350 477
532.16937 419.22156 11.53021 477
533.35596 420.34601 21.55915 477
534.54889 421.53632 31.45202 477
535.94617 423.05450 41.28067 474
536.72906 423.86743 51.42804 436
537.99884 425.07486 61.38190 431
539.43988 426.35590 71.40386 431
541.26947 428.15900 81.24213 387
1579.50305 1421.24231 -2.97334 480
1706.08643 1542.41748 22.39042 264
532.02161 414.13461 -8.29043 497
533.07019 415.17004 1.67190 497
534.12866 416.16577 11.68168 498
535.18744 417.22849 21.56781 498
536.39630 418.18915 31.69572 498
537.74261 419.45987 41.45499 499
538.54749 420.30695 51.46389 497
539.61420 421.28540 61.48138 497
540.63379 422.24466 71.55884 497
541.64337 423.30176 81.50711 496
1590.27136 1414.39880 -3.03442 481
1723.48022 1540.42419 21.59215 414
534.64868 411.44885 -8.34023 493
535.71216 412.52829 1.55775 494
536.83447 413.53769 11.72190 494
537.94958 414.53790 21.70735 494
539.03723 415.56549 31.68144 494
540.08624 416.67151 41.49044 499
541.12268 417.70819 51.58077 491
542.97510 419.42459 61.44951 476
148.22043 138.36755 -19.98655 494
544.22107 420.58194 81.50315 494
1600.73425 1406.77576 -3.49902 480
1739.01343 1535.97644 21.56846 469
537.74200 409.27838 -8.47576 493
538.71350 410.21851 1.49048 493
539.97137 411.41995 11.39569 466
541.10565 412.56787 21.51702 466
542.38214 413.59906 31.41047 466
543.97546 415.14575 41.34900 465
544.71167 415.86066 51.39930 424
546.11932 417.06305 61.38748 424
547.71991 418.59912 71.23660 416
549.60254 420.24625 81.20078 352
1611.48132 1399.80872 -3.49443 480
1743.16833 1520.83984 21.96124 470
541.45868 407.68942 -9.00489 465
542.71509 408.86414 1.12593 465
544.04376 410.12991 11.07614 465
545.35968 411.35950 21.01258 417
547.00629 412.72202 30.87280 417
548.72198 414.34341 40.83710 346
550.93665 416.39459 50.64284 338
1633.60754 1402.32202 -38.55661 431
1622.22961 1392.71375 -3.46637 480
1746.98145 1505.69312 21.95644 470
1776.51489 1532.79773 57.40319 400
546.20117 406.96295 -9.72218 416
547.78009 408.38959 0.25864 416
549.36603 409.79092 10.22829 416
551.72784 412.04538 20.05254 351
556.61316 416.37381 29.29402 279
1644.91711 1395.22546 -39.21569 431
1633.32324 1385.07568 -3.52625 485
1750.46338 1490.69055 22.14640 471
1774.19031 1511.78589 57.75058 401
552.68402 407.81616 -10.95836 350
555.88116 410.62585 -1.26316 276
1656.44067 1388.27319 -39.49961 423
1643.96423 1377.66064 -4.18660 483
1764.77454 1485.10339 21.98714 427
1771.97290 1491.60657 58.17416 402
1668.26270 1382.21289 -39.90299 422
1655.23962 1371.03992 -4.40995 483
1865.31128 1555.14441 16.34955 433
1770.04138 1471.56592 58.89375 403
1680.46484 1375.53845 -40.39729 417
1667.60022 1364.25415 -4.79887 477
1884.63489 1553.19739 15.24465 432
1767.48853 1451.25745 59.56497 404
1692.77429 1369.64429 -40.61088 417
1679.72095 1357.73364 -4.73138 478
1745.99438 1414.65454 24.81958 405
1764.69922 1430.98169 59.94274 405
1705.69202 1363.12048 -41.20544 417
1692.18213 1351.96057 -5.19771 475
1743.65149 1395.63892 25.83914 406
1762.78149 1411.84912 60.67150 405
1718.61951 1357.39844 -41.50430 417
1704.41345 1345.84167 -5.58674 469
1741.61572 1376.79407 26.39661 407
1760.87842 1392.40369 61.14802 406
1731.90125 1351.45154 -42.12161 416
1717.92957 1339.81140 -6.02522 468
1740.38806 1358.31604 27.26230 410
1745.93884 1345.77209 -42.87157 417
1731.10449 1333.99756 -6.66302 467
1746.24036 1346.30371 27.53188 490
1760.45728 1340.68628 -43.12373 414
1744.93225 1328.36157 -6.97670 465
1754.48999 1336.34888 27.18147 490
1775.14050 1335.73230 -44.23510 413
1759.16394 1323.18237 -7.29927 458
1766.07251 1328.58838 26.98329 459
1791.62170 1332.25159 -44.98318 399
1774.02246 1318.72205 -7.69068 457
1781.20483 1323.96057 26.68116 458
1809.59863 1328.94141 -45.66734 391
1789.86414 1313.90051 -8.47622 448
1795.74231 1318.62830 26.18966 446
1827.75171 1326.45471 -46.64054 389
1807.00696 1310.56702 -9.25374 433
1813.96497 1315.96924 25.85905 428
1846.59998 1323.79333 -48.22294 393
1822.48938 1305.39026 -9.85074 424
1832.24048 1312.84753 24.81837 426
1865.74744 1321.62854 -48.95282 392
1840.71777 1302.73279 -10.85205 380
1850.78687 1310.66187 24.35651 425
1885.47314 1319.06348 -50.44194 391
1859.33923 1299.68103 -11.37153 421
1869.70239 1307.41602 23.65597 424
1904.73462 1316.12720 -51.52433 398
1878.74683 1297.63757 -12.23493 420
1889.54712 1305.07471 23.22031 423
1923.86060 1312.77722 -52.53085 411
1898.80762 1294.95020 -13.31865 419
1908.06750 1301.66248 22.30038 422
1943.56873 1309.64966 -53.92580 409
1918.33838 1292.09253 -14.24571 418
2101.80200 1421.91760 11.36794 324
1963.62903 1307.00977 -54.75770 408
1939.58252 1290.72754 -15.20533 351
2103.21704 1404.56165 11.72113 284
1983.85059 1304.07068 -55.84746 407
1961.24902 1288.12354 -16.77007 360
2107.25659 1389.38379 11.75915 276
1982.96326 1286.76001 -17.91581 359
2115.57031 1376.81921 11.77375 276
2004.82385 1284.53796 -18.39993 399
2132.31738 1369.82800 11.90838 311
2026.87476 1282.29749 -19.73044 398
2135.09424 1353.88721 12.15328 493
2049.27368 1279.78650 -21.10181 397
2139.36841 1338.68909 11.92129 438
2071.86450 1277.45740 -22.20900 396
2089.17847 1288.16064 15.37424 263
2095.04443 1274.89197 -23.30121 395
2105.40552 1281.45667 15.03587 285
2118.45874 1272.09192 -24.17905 394
2124.66992 1275.99207 14.69150 339
2141.59180 1269.41248 -25.67604 396
2146.59644 1272.45776 13.50781 339
2167.30029 1268.03564 -27.30628 396
2168.40942 1268.80493 12.47345 338
2191.58813 1264.90894 -28.00696 395
4272.87988 552.95691 1044.13757 1000
44597.69531 648.10272 -10231.24316 1000
1602.25403 4.17186 -41.06365 392
1607.64856 4.01014 -16.86978 392
1596.51318 -5.11159 -40.58643 486
1600.41113 -5.05751 -16.00236 485
1603.99744 -5.24352 8.76012 455
1607.92383 -4.94343 33.07669 485
1596.26379 -14.27746 -40.39752 488
1600.56580 -14.53657 -15.82546 488
1604.69507 -14.45375 8.58765 366
1609.64221 -14.41544 33.26350 405
1601.31482 -23.52735 -40.89401 400
1608.40601 -23.68286 -16.92878 331
51974.77344 -1785.64868 5262.14746 1000
2638.58911 -212.62700 7.73726 374
2610.33887 -226.26395 9.01980 375
2626.43433 -242.79576 -33.67780 273
2588.81519 -239.45215 9.64663 485
2675.64746 -248.06377 47.75701 270
2601.93774 -256.36697 -32.54991 323
2581.84351 -254.25243 10.10731 482
2633.44141 -259.49731 49.33289 426
2588.87671 -270.14438 -31.50148 368
2573.67017 -268.96738 10.43800 476
2719.58325 -284.99875 46.36961 313
2580.84180 -285.21390 -31.24996 358
2568.44189 -283.89743 10.52819 488
2569.97168 -299.14023 -30.71629 418
2562.11450 -298.59729 11.04523 488
2605.40796 -303.20938 50.21766 489
2561.54102 -313.71362 -30.22916 419
2556.23682 -313.24402 11.07336 488
2552.84497 -328.00391 -29.81444 419
2549.83936 -327.46506 11.07533 489
2545.73730 -342.35254 -29.46674 467
2544.20386 -341.73993 11.06420 472
2539.09399 -356.66373 -29.47807 468
2539.61646 -356.61835 11.11205 472
2533.47925 -370.87344 -28.98875 469
2534.65283 -371.66052 11.87223 473
2526.83081 -385.84412 -28.58281 469
2530.23267 -385.78323 11.66903 473
2521.05054 -400.24170 -28.75917 492
2526.16553 -400.90222 11.99434 440
2516.26270 -414.38986 -27.99399 494
2522.25488 -415.32208 12.07361 440
2511.75708 -428.54971 -28.05207 494
2518.33057 -430.02100 12.11067 443
2506.13330 -443.61816 -28.28096 495
2515.05640 -444.59418 12.04723 443
2695.66064 -477.76364 46.49770 270
2501.53613 -457.97501 -28.03304 496
2511.03223 -459.33447 11.81829 444
2580.41284 -472.52670 50.34629 344
2625.46973 -481.17889 132.64630 346
32821.60156 -6221.54736 2874.74438 1000
2497.38892 -472.49454 -27.81955 496
2508.05591 -474.13733 11.65895 417
2544.94043 -481.75171 50.93385 496
2647.04785 -501.69241 90.17751 340
2589.53906 -490.53455 132.92851 347
2492.86621 -486.32236 -27.60723 496
2504.59863 -489.37878 12.03092 419
2540.02026 -496.39847 51.28175 496
2610.11719 -510.53711 91.02773 342
2545.36182 -497.07819 132.71701 486
2488.57349 -501.39676 -27.52414 497
2501.54028 -503.59821 11.76374 418
2534.25977 -510.39954 51.13173 496
2574.52759 -519.19397 91.18754 343
2524.10864 -508.22534 132.77957 498
2649.76465 -534.96069 175.81168 324
2484.68018 -515.62592 -27.21273 497
2499.45752 -518.97760 11.98044 418
2528.65601 -524.88177 51.37399 497
2535.72119 -526.90924 92.15088 370
2522.33887 -524.02551 132.61346 498
2481.46143 -530.08203 -27.22732 497
2496.69141 -533.74646 12.03176 418
2522.95215 -539.45233 51.30419 497
2520.28857 -539.00977 92.56023 498
2520.72949 -538.93646 132.99550 498
2477.97827 -545.26007 -27.67402 497
2493.89502 -548.55524 11.63974 418
2517.96680 -554.02704 51.77941 497
2518.67090 -554.53638 92.49224 498
2519.07886 -554.60895 133.12767 497
2474.83862 -559.68243 -27.59963 497
2491.34766 -563.24585 11.48620 418
2515.99243 -569.18286 51.11030 497
2516.80005 -569.54950 92.05156 497
2517.50659 -569.80542 132.69574 497
2471.31445 -574.58240 -27.57228 497
2488.34692 -578.65625 11.91437 418
2514.46875 -584.44720 51.09747 497
2515.42358 -585.01691 92.12526 497
2516.34009 -585.09387 132.86588 497
2469.74438 -589.42767 -27.61097 499
2486.26196 -593.47784 11.43123 364
2512.86548 -600.12628 51.25591 497
2514.24316 -600.13702 92.30133 497
2514.35815 -600.78247 132.61334 497
2762.55347 -661.64795 359.09985 377
2467.33643 -604.29633 -27.93604 499
2483.67310 -608.23944 11.31023 364
2511.42993 -615.50769 51.25135 497
2511.86084 -615.45441 91.75612 494
2513.52881 -615.99042 132.96568 497
2467.15063 -619.96619 -27.91663 498
2481.13647 -623.28119 11.61774 364
2503.85767 -629.39484 51.39865 496
2504.30688 -629.46967 91.99834 496
2505.86499 -629.62061 133.22813 496
2465.06494 -634.60565 -28.21816 497
2479.40112 -638.76001 11.79090 365
2502.89746 -645.01416 51.04711 496
2504.50928 -645.18671 92.33604 496
2504.59863 -645.22278 132.61920 496
2462.81763 -649.71161 -28.27331 497
2476.53394 -653.85107 11.21901 364
2501.85254 -660.81732 50.91307 496
2502.96948 -661.09674 91.78098 496
2502.67310 -661.12317 133.03706 495
2458.33813 -664.21039 -28.57584 497
2474.82397 -668.98706 11.59511 364
2499.95020 -675.95636 51.35960 496
2500.87451 -676.45312 92.32404 496
2501.25342 -676.63977 133.20926 495
2454.99512 -678.87439 -28.52328 493
2472.17920 -684.34015 10.92203 356
2498.58032 -691.72913 51.08760 495
2499.33643 -691.84595 91.77145 495
2499.78931 -691.91827 132.94170 495
2453.68994 -694.27875 -28.41078 492
2470.24731 -699.20111 11.33240 418
2496.69092 -707.18945 50.88179 495
2497.75928 -707.08752 91.69918 495
2498.67725 -707.91180 132.80289 495
2452.13281 -709.45312 -29.01737 492
2468.70703 -714.78339 11.09231 418
2500.52100 -724.02698 50.58011 495
2501.66821 -724.62177 91.97089 495
2501.97827 -725.10913 132.61958 495
2450.30151 -725.44116 -28.74144 491
2466.17261 -729.92273 10.51309 418
2498.82715 -739.85608 50.68616 495
2499.73877 -740.09674 91.97518 495
2500.04688 -740.42084 132.89046 494
2449.10156 -740.57690 -29.07134 491
2464.32935 -745.60150 11.02870 418
2497.45776 -755.60364 50.45147 494
2498.60400 -756.07129 91.87524 494
2498.62500 -755.84656 132.95036 494
2519.53149 -762.94763 174.53152 418
2447.59619 -756.27411 -29.24630 491
2462.39355 -760.89252 10.21970 418
2496.00903 -771.26880 49.97463 494
2496.38770 -771.76599 91.88599 494
2497.08984 -772.14496 132.72208 493
2517.87402 -778.72430 174.93965 418
2445.88403 -771.75879 -29.69252 491
2460.66895 -776.44592 10.44829 417
2494.31567 -787.46313 50.34886 494
2495.41333 -787.90210 91.49078 494
2495.45190 -787.51202 132.99840 493
2516.20459 -794.78058 174.46062 418
2620.14307 -828.45398 219.97186 303
2671.49731 -845.19128 266.78790 496
51576.20703 -16873.92383 12782.49707 1000
2444.23486 -786.95801 -29.47980 490
2458.85034 -791.67993 10.18661 417
2492.81006 -803.02509 50.05510 493
2494.04858 -803.47833 91.57645 493
2493.70898 -803.59094 132.59486 493
2514.77222 -810.57050 175.01105 417
2600.05054 -839.41437 219.33728 489
2442.87988 -802.89258 -30.14169 490
2457.18921 -807.27454 9.98754 417
2490.78369 -818.71106 49.57914 493
2491.78833 -819.56757 91.62948 493
2492.51758 -819.64661 133.29875 493
2513.32739 -826.17426 175.00914 417
2575.47119 -847.85114 218.99149 474
2441.77222 -818.30298 -30.29881 489
2454.78076 -822.61884 9.77452 417
2489.68286 -834.92133 49.92315 493
2490.26050 -835.34277 91.68907 493
2491.21021 -835.21478 132.94641 493
2511.16821 -842.39685 174.66280 417
2439.77051 -834.14282 -30.25282 489
2452.64087 -838.64154 9.50671 416
2495.26904 -853.64642 90.83727 450
2571.73413 -880.68512 175.77147 446
2438.33179 -849.96576 -30.59297 489
2450.83936 -854.42993 9.74438 416
2568.54126 -896.68909 176.39781 485
2570.60791 -897.23383 219.67833 449
2615.38525 -913.37891 265.08249 464
2436.94409 -865.68170 -30.74449 488
2449.02051 -869.77197 9.62268 416
2624.07837 -934.35284 221.23701 484
2612.29126 -929.90314 264.65225 493
2435.67163 -880.93091 -31.09310 488
2446.81104 -885.55878 9.01381 416
2603.98340 -945.03418 221.02626 378
2433.78638 -897.11157 -31.45191 488
2445.03198 -901.05902 8.89791 416
2432.50049 -912.81311 -32.06910 487
2443.22778 -917.13824 9.04936 415
2431.14478 -929.32166 -31.96144 487
2441.30688 -932.87982 8.78539 415
2429.58423 -944.99011 -32.23368 486
2719.23096 -1062.51208 -6.21448 297
2427.54370 -960.93799 -32.95480 486
2714.12549 -1079.29541 -6.28300 489
2426.10815 -977.10767 -33.09961 485
2692.14746 -1088.56921 -5.51704 322
2424.57349 -993.77264 -33.54853 485
2591.67676 -1064.87427 -0.23022 444
2591.44995 -1064.55957 44.26543 444
2591.36401 -1064.41370 88.19875 444
2422.84595 -1010.08258 -33.61200 485
2579.23804 -1077.38171 -0.34667 325
2421.26270 -1026.14270 -33.71395 484
2461.10498 -1043.84900 5.51190 303
2419.81323 -1042.39685 -34.11913 484
2426.83813 -1045.46729 7.30059 433
2418.12402 -1059.00598 -35.05036 483
2424.25122 -1061.80664 6.92756 433
2416.61377 -1076.12866 -34.93413 483
2422.58008 -1078.17615 6.61434 432
2415.31470 -1092.19006 -35.14670 482
2420.12671 -1094.91113 6.58391 432
2413.48901 -1109.01416 -35.96119 482
2418.27344 -1111.15002 6.41018 431
2472.31104 -1136.85608 46.53988 293
2412.14307 -1125.65405 -35.87324 482
2416.16162 -1128.32666 6.13123 431
2466.56152 -1152.54993 46.31967 484
43818.45312 -21553.16797 -11221.34473 1000
2409.91919 -1142.86462 -36.78312 481
2414.18994 -1144.38965 5.62992 431
2449.96460 -1162.22351 46.79883 446
2408.56274 -1159.75671 -36.74440 481
2412.26099 -1161.63000 5.60194 430
2509.67480 -1210.31116 44.34405 499
2406.72241 -1176.41699 -37.40820 460
2410.25537 -1178.03870 4.82389 464
2445.47070 -1196.00500 46.03619 446
2688.81274 -1319.52576 85.40635 483
2414.20996 -1198.62329 -38.85293 335
2421.73096 -1202.19958 4.26124 324
2495.20972 -1240.56079 44.56762 499
2513.49805 -1268.62585 -46.09281 438
2451.72266 -1236.10327 2.28127 481
2488.12354 -1255.51233 44.38060 499
2487.51025 -1273.84888 -0.82010 412
2487.32959 -1273.28552 44.12341 459
2489.15381 -1293.38538 43.82513 453
2449.77979 -1291.04724 89.03149 412
37137.91797 -29889.06055 9609.85645 1000
30545.62305 -37412.25000 -6214.80713 1000
1171.92883 -1550.69006 -22.76678 473
1175.57385 -1555.65112 7.95127 472
1180.20447 -1562.33667 38.68301 431
1161.62488 -1556.03052 -22.75910 494
1164.93665 -1560.67822 8.10905 494
1168.35583 -1565.89233 39.04865 491
1171.60889 -1570.61560 69.80265 469
1155.80457 -1567.91882 -23.37588 421
1162.56165 -1577.78552 7.25124 283
6881.45459 -11436.12402 -2287.89429 1000
11712.97461 -45958.14062 12037.75684 1000
353.54929 -1647.38098 -3.35747 477
343.24664 -1647.29077 -3.27211 477
341.89792 -1639.99963 24.79579 483
332.77905 -1646.75623 -2.90860 477
331.51813 -1639.12927 24.88194 482
8847.58496 -60557.08984 -7891.22656 1000
322.24881 -1646.46008 -2.85874 478
321.26804 -1638.64917 25.00858 483
312.15039 -1646.13843 -2.70636 479
310.84726 -1638.57629 24.82165 483
310.24451 -1633.60303 52.54158 488
301.90485 -1645.94116 -2.90769 479
300.28568 -1635.77698 25.14061 263
300.24197 -1633.17603 52.54771 496
291.72678 -1645.37231 -2.69678 479
289.87753 -1633.87122 25.24668 403
289.87643 -1632.56531 52.69810 496
296.23846 -1682.78491 77.78450 255
281.45602 -1645.07214 -2.55150 479
279.95743 -1636.23962 25.39059 479
279.86893 -1632.30396 52.47589 496
281.72839 -1650.67310 78.74265 474
270.97226 -1644.72681 -2.44849 480
269.98047 -1635.67456 25.41248 479
269.70328 -1631.81165 52.62763 497
271.50806 -1650.40637 79.00576 475
260.54031 -1644.41467 -2.45701 480
259.58316 -1635.42029 25.55356 480
259.19647 -1631.53235 52.55425 497
261.16211 -1650.17371 79.24129 497
250.50970 -1643.99939 -1.97762 480
249.75774 -1634.95789 25.50211 480
249.06696 -1630.83044 52.66400 497
251.97484 -1659.76831 78.69157 285
240.45279 -1643.66077 -2.29897 480
239.36604 -1634.70044 25.84124 479
239.12537 -1630.63062 52.78331 497
247.90970 -1722.42236 76.82150 274
230.05154 -1643.44873 -2.11729 481
229.36005 -1634.16736 25.61932 479
228.87283 -1630.19556 53.12915 497
244.39867 -1803.38049 73.89764 474
219.90967 -1642.84106 -1.82422 481
219.09816 -1633.86389 25.76760 480
219.11436 -1629.91150 53.05349 498
238.70052 -1868.81714 72.06528 393
210.01762 -1642.81519 -2.04982 481
209.27155 -1633.52808 25.83685 480
209.00960 -1629.28003 52.87157 498
209.84962 -1639.48572 79.68700 457
199.94524 -1643.08142 -1.64662 481
199.26503 -1633.17578 26.08460 480
198.76299 -1628.99963 53.16366 498
216.54286 -1878.92590 71.95570 497
189.71902 -1643.05920 -1.85506 481
189.25136 -1632.66187 25.98222 480
188.84116 -1628.44617 53.15017 498
204.60266 -1878.02026 71.49332 497
179.63913 -1642.70984 -1.52042 481
178.86551 -1632.30444 26.13734 480
179.02075 -1628.43665 52.95486 498
193.34554 -1877.88269 71.76579 498
168.89751 -1632.00598 26.19038 480
168.59740 -1627.83997 53.01204 498
181.77557 -1877.47375 71.67284 498
158.80579 -1631.60571 26.00933 481
158.65971 -1627.56177 52.99626 499
169.94400 -1877.12952 71.80283 498
148.97186 -1630.99072 26.09484 481
148.81863 -1626.86841 53.43550 499
158.46704 -1876.56970 72.02450 498
139.18973 -1630.68640 26.05499 481
139.07820 -1626.54932 53.45014 499
147.05130 -1876.08459 71.59766 499
129.21382 -1630.26099 26.08210 481
129.05876 -1626.27734 53.10494 499
135.80284 -1875.91528 71.88654 499
118.93061 -1629.92224 26.18836 481
118.94867 -1626.01270 53.49949 499
124.31246 -1875.36072 72.11250 499
109.07356 -1629.51221 26.54417 481
109.11879 -1625.45959 53.41255 499
109.19931 -1635.16382 79.52637 449
98.95599 -1629.32727 26.21483 461
98.82524 -1625.18787 53.41312 499
101.08797 -1872.36157 72.17166 260
89.11552 -1629.17981 26.40769 461
89.09666 -1624.73499 53.22265 499
89.93229 -1870.97913 72.10508 294
79.11028 -1629.31494 26.37518 461
79.22446 -1624.28540 53.20223 499
78.14344 -1870.16577 71.89692 386
69.06516 -1629.43750 26.20476 461
69.22108 -1624.26953 53.55849 499
66.71719 -1873.47473 71.99538 499
59.00022 -1629.63708 26.22863 461
59.24253 -1623.69409 53.29428 499
55.08191 -1872.77393 71.63274 499
49.45900 -1629.64807 26.34050 461
49.18760 -1623.10449 53.27395 499
44.06057 -1872.41370 72.01649 499
39.09483 -1629.60852 26.11568 461
39.45310 -1622.93921 53.36314 499
39.33036 -1626.86450 79.92564 474
29.52770 -1629.56360 26.33401 461
29.74404 -1622.43799 53.38062 499
29.56586 -1625.55798 80.03164 491
19.18894 -1629.37708 26.30918 459
19.54512 -1622.34375 53.53744 499
19.43348 -1625.29236 79.71157 491
9.61001 -1629.02209 26.31200 459
9.87422 -1621.75024 53.24640 499
9.48575 -1624.74829 79.95854 491
-0.63920 -1628.78149 26.25114 459
-0.01497 -1621.30188 53.27881 499
-0.61776 -1624.55261 79.64155 491
-10.73878 -1628.09033 26.05993 459
-10.30511 -1620.75806 53.37730 499
-10.44319 -1624.16455 79.71959 491
-20.35585 -1627.81030 25.97447 459
-20.01553 -1620.41809 53.10651 499
-20.39330 -1623.46680 79.70396 491
-36.94097 -1881.16577 102.47744 268
-30.68447 -1627.82764 26.00544 447
-29.90058 -1620.01697 53.05946 499
-30.43638 -1623.29871 79.71544 491
-48.68084 -1879.80750 102.07016 499
-40.69917 -1627.84290 26.07728 447
-40.08268 -1619.65686 53.05175 499
-40.33751 -1622.94067 79.55889 491
-59.88292 -1879.00830 102.00672 499
-50.43906 -1628.14502 25.82487 447
-49.62657 -1619.24792 53.28448 499
-50.21048 -1622.31787 79.79012 491
-50.65327 -1626.82751 106.45592 499
-60.53897 -1628.06750 25.68355 447
-59.89873 -1618.90649 53.21662 499
-60.27673 -1621.79114 79.80730 491
-60.40292 -1627.01990 106.04335 499
-70.84642 -1628.58777 25.95286 446
-69.87386 -1619.18469 52.85751 498
-69.95689 -1622.06311 79.85045 489
-70.44460 -1626.60181 106.02770 499
-80.88367 -1628.71265 25.45491 446
-79.55065 -1618.91309 53.19866 498
-79.94336 -1622.19714 79.36386 489
-80.56199 -1626.36707 106.45707 495
-90.69450 -1629.20044 25.62656 445
-89.81424 -1619.95410 53.12024 494
-90.21924 -1623.26404 79.34282 485
-90.70876 -1628.11169 106.29751 493
-101.11697 -1630.27612 25.54514 446
-100.06131 -1620.67822 52.90152 493
-100.57128 -1624.16455 79.21017 485
-100.93641 -1629.18628 105.99220 490
-111.57756 -1631.87769 25.24526 443
-110.43281 -1622.01978 52.51313 491
-110.86690 -1626.03809 79.49903 480
-111.10069 -1630.27649 106.20267 490
-121.64613 -1633.86707 24.84853 438
-120.58888 -1623.82312 52.37036 488
-121.26872 -1627.81531 79.23653 480
-122.51142 -1640.26599 106.11774 395
-132.29710 -1635.96350 24.86444 433
-130.66597 -1625.69995 52.16601 487
-131.37923 -1630.75378 79.22684 461
-134.15211 -1650.54480 105.90417 401
-142.79419 -1638.57068 24.37612 433
-141.20447 -1627.76270 52.27666 483
-142.15854 -1633.30127 78.96246 454
-153.32376 -1641.46069 24.29461 429
-151.86618 -1629.75684 52.00050 477
-152.73628 -1636.77380 78.55958 412
-164.11235 -1644.27515 23.82182 426
-162.25868 -1632.56653 51.84368 477
-163.33226 -1639.66467 78.65238 411
-175.11101 -1647.84033 23.62565 426
-172.97148 -1634.90784 51.54264 476
-203.21541 -1825.56848 72.57257 497
-185.61958 -1650.89697 23.28854 423
-183.45772 -1637.95215 51.09230 471
-214.14204 -1822.29785 72.68452 497
-5420.27002 -33434.91797 141.30544 1000
-196.88811 -1655.03870 22.78999 422
-194.31377 -1641.10449 50.90201 470
-197.95982 -1660.94788 77.54423 259
-207.90094 -1658.69043 22.19307 421
-205.19273 -1644.03223 50.81884 468
-207.86078 -1656.72571 77.89697 259
-219.14990 -1663.02551 22.18974 410
-216.31622 -1645.77881 50.71619 263
-218.20055 -1656.48975 77.50703 428
-4479.63721 -24036.64062 -2271.33423 1000
-230.77972 -1667.47888 21.54974 409
-226.95821 -1647.31628 50.37285 467
-229.57820 -1661.23633 77.71270 407
-242.28398 -1672.28931 21.02576 404
-237.90474 -1651.70496 50.14265 401
-241.20999 -1666.58289 77.30139 394
-253.91100 -1678.24817 20.69756 404
-249.43839 -1655.74792 49.78308 401
-252.88951 -1672.00061 76.82716 389
-265.96182 -1684.06873 20.20740 402
-261.09265 -1660.76147 49.45718 450
-264.72208 -1677.32898 76.70190 389
-278.23514 -1690.45068 19.39599 401
-272.98837 -1666.28650 49.29413 450
-276.63736 -1682.98438 76.27131 388
-290.03720 -1696.68982 18.69188 400
-284.75174 -1671.47302 48.72106 449
-288.36188 -1689.07007 76.38518 416
-302.29248 -1702.71069 18.22997 412
-296.70044 -1677.14111 48.24755 448
-300.93433 -1695.67029 75.75282 411
-314.87888 -1708.42896 17.53362 400
-308.79565 -1682.52917 47.73052 447
-313.64917 -1702.05676 75.60287 401
-321.18234 -1689.02356 47.26804 370
-326.30658 -1709.76379 75.14000 382
-333.74457 -1695.34009 47.11726 441
-339.24780 -1717.26343 75.10024 373
-346.76956 -1703.30103 46.48610 312
-352.14169 -1725.01208 74.57969 387
-360.01196 -1712.19006 45.94303 394
-365.71280 -1733.51697 74.09638 386
-373.60760 -1720.64087 45.27594 406
-387.39682 -1729.46179 44.68754 397
-8636.93066 -25563.22461 -2524.04199 1000
-1562.45166 -3246.80786 192.51909 370
-1561.09204 -3245.28345 251.52632 432
-15368.24414 -29957.79102 6268.17578 1000
-8628.38867 -16157.06641 3785.03418 1000
-2027.16846 -2689.70166 76.33192 499
-2025.29834 -2688.49292 132.17203 499
-2024.71667 -2687.58765 187.78770 499
-2023.42981 -2685.58472 244.17677 499
-8623.79395 -10533.78320 1704.42859 1000
-21430.87695 -22434.53320 -6053.58398 1000
-2476.22583 -2142.94360 295.72275 316
-4997.35645 -2459.27075 131.20065 490
-5011.35742 -2465.70068 223.55028 463
-4468.28857 -2000.15930 131.95738 455
-257.90344 -74.73097 35.49360 321
-255.85880 -72.10069 36.25274 321
-253.82674 -69.42995 36.89693 322
-274.04312 -73.50137 37.86723 318
-254.18741 -67.34148 36.84636 352
-271.77893 -70.68732 38.56311 321
-256.04285 -65.39458 36.42951 351
-270.58093 -68.11716 39.00887 345
-291.58377 -72.09825 40.35931 318
-257.95984 -63.54477 36.07832 351
-272.28223 -66.16151 38.63377 345
-289.64108 -69.33728 40.98102 318
-259.85678 -61.66705 35.65694 350
-274.27756 -64.18923 38.24532 347
-290.27686 -67.02245 40.90252 341
-262.16049 -59.83333 35.03690 326
-276.27194 -62.25506 37.82953 347
-292.18359 -64.91830 40.51234 341
-281.91718 -60.82216 36.42583 323
-32731.57617 -5147.44922 6739.36475 1000
-197.70329 -10.81102 53.41412 324
-197.69418 -9.02061 53.39901 324
-197.73280 -7.25965 53.35325 324
-197.68036 -5.50046 53.37511 324
-18806.75781 -388.46207 749.06384 452
-197.72998 -3.65374 53.34771 324
-18747.80078 -269.20654 750.60858 457
-18741.73828 -268.95532 1055.38733 433
-197.64638 -1.85574 53.36368 324
-18691.75586 -153.40913 749.00012 463
-18716.91016 -154.90508 1055.74548 341
-197.62729 -0.04910 53.35635 324
-18644.38086 -38.26627 746.79376 463
