# .PCD v.7 - Point Cloud Data file format
VERSION .7
FIELDS x y z rgb
SIZE 4 4 4 4
TYPE F F F U
COUNT 1 1 1 1
WIDTH 995
HEIGHT 1
VIEWPOINT 7031.765137 -1975.605713 142.839905 -0.640594 -0.105017 -0.101643 0.753843
POINTS 995
DATA ascii
-17504.77930 1143.22205 712.77142 451
-17373.04102 1135.36475 996.38477 471
-17437.92773 1245.75244 713.55090 452
-17311.50586 1238.12634 995.79883 472
-17373.12305 1351.08020 712.78516 462
-17254.28711 1342.05505 991.53723 474
-17317.86328 1453.63708 711.39227 463
-17201.08594 1440.16296 991.67621 474
-17265.82227 1556.68530 707.58948 463
-17147.23828 1546.94116 987.76276 475
-17211.59766 1660.20874 707.97821 464
-17093.26953 1644.20483 987.33887 475
-17157.08594 1759.84924 706.88574 464
-17037.93164 1745.17163 981.05292 476
-17100.86328 1861.69385 704.51044 465
-16984.64258 1846.94409 982.60120 477
-17046.53711 1959.30762 702.05334 465
-16927.12109 1949.23730 981.13391 477
-16993.64258 2061.43970 701.01880 466
-16874.65430 2045.45459 976.53326 478
-16941.34766 2159.85034 697.53729 466
-16820.53125 2147.68774 976.62506 478
-16885.82617 2259.15747 697.38641 467
-16771.94922 2242.75464 972.84094 479
-16831.83984 2360.31885 697.49347 467
-16717.49609 2341.75830 973.62531 479
-16780.48438 2458.22510 697.84180 468
-16664.89258 2442.48560 969.30487 480
-16726.52344 2552.38159 694.27203 468
-16614.16211 2539.68311 967.77997 480
-275.90723 58.13395 33.22356 319
-16673.85742 2651.14624 692.08374 469
-16562.43164 2636.43140 967.81781 481
-269.57059 59.41678 34.87610 320
-284.05228 61.83172 37.58591 323
-16623.18555 2751.40039 694.76917 469
-16509.49414 2729.29248 963.72931 481
-264.95230 60.96671 36.01938 350
-279.48975 63.44359 38.58456 347
-295.57877 66.20027 41.30907 341
-16570.81836 2844.70874 690.52466 470
-16457.66992 2825.14697 963.18060 482
-262.99496 62.86566 36.35941 351
-277.45203 65.42871 39.00632 345
-293.61829 68.26777 41.58144 340
-16515.34570 2940.89038 692.34222 470
-16407.31836 2919.94067 961.31628 482
-261.03253 64.70131 36.80017 351
-275.53821 67.41550 39.35556 345
-295.20526 71.04230 41.07883 318
-16468.01367 3035.64258 689.54150 471
-16354.31250 3017.21387 957.55444 483
-259.06259 66.59034 37.17268 351
-275.42508 69.72309 39.27665 321
-16415.11914 3134.09277 688.47766 471
-16306.39941 3114.46191 956.09869 483
-257.40588 68.45248 37.55816 325
-277.27081 72.38319 38.68129 318
-16364.16797 3225.90894 688.10657 472
-16253.28516 3204.54150 955.77521 484
-259.20377 71.12476 36.97287 322
-16313.58301 3322.39014 687.92053 472
-16200.62500 3302.12720 953.40887 484
-261.09781 73.73697 36.22668 321
-16261.57715 3415.29541 683.03149 472
-16154.10742 3392.87256 951.51257 485
-263.05621 76.39712 35.57618 321
-16211.58496 3511.30151 683.33185 473
-16104.45020 3489.16650 953.47705 485
-16158.86523 3603.50830 682.23962 473
-16051.47168 3581.27197 948.02863 486
-16107.70312 3695.70557 683.57739 474
-16002.43945 3670.93359 948.46545 486
-16057.82227 3791.55029 680.96259 474
-15954.83008 3764.61035 948.54358 486
-16010.12988 3882.04395 680.74463 474
-15901.67578 3859.42065 945.72363 487
-15958.96289 3978.09424 680.25391 475
-15852.69238 3949.87036 944.01385 487
-15907.71875 4065.28052 680.55145 475
-15805.36328 4041.82104 944.16199 487
-15859.41113 4157.37646 676.24908 475
-15754.21973 4132.11523 942.54047 488
-15809.69043 4251.72803 675.48383 476
-15708.53711 4223.45557 939.96606 488
-16413.15039 4413.44189 1256.12488 479
-16475.10352 4428.62646 1546.20508 404
-15759.78027 4342.75000 674.65234 476
-15659.68262 4315.69727 941.99219 489
-16339.00098 4502.85059 1257.33740 479
-16400.93164 4517.96045 1542.78662 404
-15711.95215 4430.97021 677.00098 476
-15607.37695 4402.76318 938.49060 489
-16268.13965 4590.49414 1253.89221 480
-16328.08496 4605.07861 1535.44226 405
-15660.46094 4525.48975 675.75232 477
-15559.72363 4492.75830 937.17316 489
-16198.22168 4677.14111 1249.46313 480
-16253.01562 4693.76025 1531.08972 405
-15612.59668 4612.99072 676.29028 477
-15512.64941 4585.92041 936.23639 489
-16129.71191 4766.50537 1247.04321 481
-16178.03711 4778.20459 1527.64380 405
-15563.50977 4705.40918 672.04102 477
-15463.34375 4672.66602 934.89771 490
-16058.52441 4853.89307 1241.85620 482
-16104.33887 4868.38916 1527.36060 406
-15516.10059 4796.06348 671.65472 478
-15417.78125 4762.23926 934.51221 490
-15992.97656 4942.21924 1241.33887 482
-16032.35254 4951.87207 1519.51294 406
-15464.99902 4886.23975 669.75635 478
-15366.00977 4852.76074 932.28455 490
-15922.96582 5025.07275 1238.51538 483
-15962.68164 5037.85156 1515.94519 407
-15420.49316 4972.20361 670.75311 478
-15317.72754 4940.03760 933.66284 487
-15865.19434 5117.82861 1238.20447 494
-15897.33008 5127.81250 1513.02441 415
-15368.05957 5063.44385 670.54230 478
-15272.67188 5032.11279 932.65350 488
-15814.91309 5207.97168 1233.70557 495
-15843.65039 5217.10742 1513.16260 415
-15322.93359 5152.33203 668.47418 479
-15223.81250 5118.40234 929.53345 488
-15763.68848 5298.89697 1232.56458 495
-15792.68262 5311.22852 1512.73779 415
-15272.36621 5240.87939 670.02795 479
-15175.53418 5207.33740 929.07526 488
-15710.16211 5388.92529 1233.16431 495
-15736.82422 5400.45752 1507.77271 416
-15225.29102 5331.69922 670.77728 479
-15128.51074 5295.61963 931.80817 488
-15661.27734 5480.00195 1232.79846 496
-15684.74902 5487.50488 1507.68372 416
-15178.23438 5419.48633 669.33240 479
-15079.72754 5386.30908 930.22614 489
-15608.96582 5571.58154 1229.88318 496
-15634.74707 5579.12402 1506.66589 416
-15128.14453 5505.47314 668.62213 480
-15033.68848 5474.60156 928.02466 489
-15561.31152 5660.68604 1227.34851 496
-15580.55566 5672.11377 1505.94458 416
-15079.90723 5593.03418 667.43347 480
-14985.40918 5559.22656 927.13641 489
-15506.99219 5752.23730 1226.53589 496
-15527.69922 5758.98730 1505.97900 416
-15033.37793 5683.54248 665.68427 480
-14940.61816 5648.40869 929.24982 489
-15458.87891 5844.76514 1226.22522 497
-15477.59375 5849.16211 1502.14551 417
-14985.47461 5769.16016 668.28961 480
-14890.36816 5737.11914 926.84265 489
-15161.57910 5836.99561 1207.25525 497
-15423.62207 5936.93115 1501.89343 417
-14940.12207 5857.32812 668.57312 480
-14846.13086 5823.94043 924.49457 490
-15110.57520 5927.98779 1209.99170 497
-15371.16895 6028.78125 1498.80371 417
-15535.73828 6091.27539 1792.86267 409
-14891.63965 5947.50195 664.57672 480
-14798.72266 5910.49512 927.17462 490
-15060.49609 6014.18799 1207.07263 497
-15320.08887 6119.12988 1500.32275 417
-15462.17480 6175.91553 1787.95825 487
-15479.66699 6178.07764 2066.21387 367
-14840.46387 6035.28320 663.86084 481
-14749.84082 5999.04053 926.87390 490
-15013.47656 6103.70215 1206.68835 497
-15271.49902 6205.23779 1496.30017 417
-15264.94727 6204.38281 1769.35181 439
-14792.99316 6123.17578 665.88531 481
-14705.33398 6083.98682 922.32068 490
-14962.45605 6191.00244 1203.37061 498
-15158.07422 6269.60596 1489.16516 440
-15146.28809 6267.15479 1761.23572 440
-2748.71216 1188.97546 133.59790 452
-2754.10571 1191.13965 183.95056 453
-14747.75781 6208.87500 664.72345 481
-14656.09082 6169.85693 923.57996 490
-14914.28906 6278.20020 1206.52002 498
-15039.67969 6329.59326 1484.34399 441
-15028.59277 6325.46045 1754.67236 441
-2744.61499 1207.27002 133.63782 390
-14702.34863 6295.34229 665.54193 481
-14607.87207 6259.27002 924.03845 490
-14867.36621 6366.82861 1204.02979 498
-14924.64355 6391.22559 1477.82373 442
-14909.59277 6386.05615 1744.62280 442
-14655.21680 6383.99951 666.06970 481
-14562.72949 6345.04834 920.78998 491
-14814.94434 6455.13232 1202.14380 498
-14850.86816 6470.22852 1474.91760 498
-14840.34863 6465.35107 1739.25671 498
-15089.44434 6572.61523 2044.15088 453
-15009.06543 6534.81934 2307.14600 434
-14998.17383 6533.16895 2576.97998 434
-14988.41113 6525.07520 2852.89014 434
-14974.96680 6522.10303 3126.32251 466
-14966.11035 6518.89697 3405.34424 416
-14606.43750 6471.07471 666.46350 481
-14515.15820 6430.18457 920.61633 491
-14766.38184 6543.24902 1201.95544 498
-14771.98535 6544.01367 1469.11621 498
-14790.83984 6551.37500 1741.60461 498
-15040.05273 6661.40234 2042.73975 453
-14558.01758 6557.57080 664.40692 481
-14468.23340 6517.28613 922.85052 491
-14717.05078 6627.03955 1202.92554 498
-14724.70117 6630.71729 1471.88049 498
-14744.09961 6640.77539 1741.39319 498
-14990.24609 6748.49707 2040.20093 453
-15058.76172 6781.82910 2323.90503 485
-15445.26270 6950.65479 2666.18530 486
-15436.59863 6951.22021 2946.94336 485
-14510.14746 6645.26904 664.84796 482
-14424.61914 6604.80859 923.32190 491
-14668.45410 6716.49658 1203.29016 499
-14677.99707 6719.36768 1470.64832 498
-14693.66797 6726.40088 1737.60022 498
-14939.07324 6838.48486 2039.25903 453
-15008.87598 6868.13232 2324.78687 485
-14462.59863 6730.47803 665.71198 482
-14378.85547 6688.54590 923.77606 491
-14621.31055 6802.59473 1201.36902 499
-14625.85645 6806.26318 1469.74402 499
-14643.59668 6813.67578 1738.62463 498
-14887.29688 6926.42480 2035.77588 471
-14960.37305 6957.67334 2324.38428 485
-14416.73242 6815.13525 664.09869 480
-14331.55762 6776.57568 921.88049 491
-14570.32520 6890.79541 1201.95471 499
-14580.18066 6892.95654 1469.48962 499
-14596.98730 6899.01953 1734.87537 498
-14839.05273 7013.54297 2036.35266 471
-14909.30371 7047.37012 2321.88306 485
-14371.62695 6903.11230 663.81281 480
-14285.58105 6860.52051 922.38867 491
-14522.20410 6978.65527 1202.09338 499
-14531.00195 6977.79297 1466.07776 499
-14547.32812 6989.23779 1734.24329 499
-14785.28320 7100.80225 2034.16785 471
-14322.23438 6990.62305 663.87622 480
-14236.73633 6947.56445 918.94659 491
-1947.53625 944.32336 142.70615 499
-14480.42578 7068.87793 1466.39087 499
-14497.38867 7077.18457 1737.35828 499
-14732.67676 7186.84570 2032.81030 471
-14277.42676 7076.76611 662.88751 480
-14188.82324 7031.84570 920.34167 491
-14426.48438 7149.63574 1200.34680 499
-14431.30078 7155.57520 1465.77295 499
-14449.40918 7161.31982 1735.55786 499
-14685.80078 7274.87451 2033.47083 471
-14227.62109 7162.40332 662.33234 481
-14144.86914 7121.55029 921.99023 491
-14375.77344 7238.63525 1198.45142 499
-14412.11328 7254.62061 1468.02295 499
-14401.84180 7249.74756 1732.95325 499
-14636.02930 7363.83301 2034.40198 473
-14183.65234 7249.65625 664.43921 481
-14095.89844 7204.78369 922.14691 491
-14328.82422 7325.95801 1197.94067 499
-14363.11328 7339.08984 1466.48242 499
-14353.70508 7336.00342 1732.71875 499
-14585.82129 7452.95361 2033.55627 469
-14134.66797 7336.94678 660.53265 481
-14050.95410 7294.19922 919.86823 491
-14281.05859 7408.53418 1200.19006 499
-14202.44238 7370.50928 1457.70081 418
-14303.20898 7422.11621 1735.05762 499
-14534.43652 7540.79688 2030.04700 469
-14085.64746 7422.68018 663.70276 481
-14002.10352 7378.92969 919.00085 492
-14233.72949 7498.30811 1200.12036 499
-14264.90527 7513.39160 1466.53992 499
-14256.66113 7511.50684 1732.22534 499
-14485.17871 7627.62891 2033.15515 469
-14039.23535 7508.21631 663.64532 481
-13959.84473 7462.65674 920.80023 492
-14184.13574 7584.18652 1196.88684 499
-14216.62695 7601.11035 1466.11438 499
-14205.68555 7597.13086 1732.72424 499
-14434.99023 7718.05322 2031.02246 469
-13991.69043 7596.37109 661.75574 481
-13909.14062 7551.01270 921.01025 492
-14132.31543 7670.91553 1199.35632 499
-14169.02930 7690.80615 1467.22754 499
-14158.70605 7681.94922 1734.60974 499
-14384.59570 7807.35938 2031.30322 469
-13947.23047 7679.38086 661.25311 481
-13864.12402 7633.39893 917.95795 492
-14085.52344 7756.15283 1198.74292 499
-14164.24316 7798.94336 1469.69702 462
-14156.59766 7793.50293 1739.14563 462
-14361.38965 7909.94971 2033.21582 452
-13897.24512 7768.35400 663.97516 481
-13819.59180 7723.19824 920.28827 492
-14038.27539 7844.39893 1196.00269 499
-14171.32910 7919.50391 1475.75500 461
-14164.22852 7913.16748 1744.65833 461
-14339.83496 8013.29395 2037.13354 451
-13851.13867 7852.14746 663.30267 481
-13769.50684 7805.62354 918.51050 491
-13989.29883 7928.03857 1199.80969 499
-14160.90918 8028.69287 1478.05933 479
-14166.13867 8029.47119 1751.42944 460
-13807.58008 7939.40039 662.91522 481
-13726.93262 7892.79834 918.55530 491
-13971.93164 8032.18799 1200.99585 423
-14139.43750 8133.31934 1482.57678 478
-14172.44727 8147.10986 1758.11316 460
-13758.96191 8025.82275 664.07794 481
-13676.20215 7978.68408 918.36774 491
-13971.05078 8149.58398 1203.48474 423
-14124.19434 8236.86133 1486.26843 478
-13711.22168 8113.06445 660.70142 481
-13632.34668 8064.21582 918.91302 491
-13968.83203 8266.63672 1206.26440 422
-13663.10547 8197.83398 664.29449 481
-13583.20605 8152.29883 922.05243 491
-13971.87109 8383.87012 1209.65088 422
-13618.83301 8285.58203 663.10706 480
-13538.25684 8238.03125 921.29797 491
-13974.09766 8500.07227 1213.95215 421
-13569.53516 8369.65332 662.58667 480
-13489.63672 8325.14844 919.55792 491
-13522.87109 8456.74316 662.83960 480
-13446.05078 8411.64355 919.71405 491
-13477.35449 8544.15723 664.78845 480
-13399.65527 8493.98828 920.67645 491
-13426.99023 8629.91992 664.58661 480
-13351.03809 8580.23145 922.67194 491
-13380.85840 8717.69043 662.93890 480
-13304.32617 8666.63770 924.04413 491
-10327.25293 6771.70020 409.14865 480
-13255.72949 8753.02832 922.89618 491
-13285.04492 8893.17871 664.44226 480
-13210.22070 8842.15625 921.80786 491
-13236.20020 8978.47070 666.41925 480
-13162.70215 8929.16211 924.07068 490
-13188.25586 9066.15527 667.19275 480
-13115.78027 9012.36230 924.41724 490
-13143.53711 9154.38672 666.27063 479
-13068.45410 9102.53906 924.65637 490
-13096.53613 9240.82129 664.25970 479
-13022.35156 9188.14453 925.03625 490
-13049.55664 9324.53711 667.32220 479
-12971.93652 9274.59863 926.46899 490
-12999.57031 9415.73633 664.90546 479
-12928.58105 9359.54297 926.13232 490
-12950.96680 9500.24805 668.57605 479
-12879.72656 9449.50098 925.98157 489
-12903.59473 9587.55176 669.37317 479
-12834.08789 9534.76074 927.78607 489
-12854.69336 9675.87402 669.48730 478
-12783.83203 9623.23340 929.26086 489
-12805.57324 9765.77344 668.13770 478
-12735.82324 9710.40527 928.76691 489
-12759.72363 9851.55176 668.74329 478
-12690.95898 9797.18750 929.26990 489
-12712.30957 9940.50488 670.91998 478
-12640.83105 9885.47656 931.84528 488
-12660.07227 10029.74609 669.93970 478
-12593.43848 9974.00098 932.23779 491
-12613.91016 10118.57129 668.40295 477
-12545.24805 10064.95801 934.32648 491
-12565.85352 10209.32129 673.34631 477
-12494.43359 10153.48828 932.89246 491
-12515.11816 10296.49609 672.25873 477
-12445.86230 10241.86133 935.87982 491
-12464.82422 10386.42480 672.91907 477
-12399.18848 10329.90332 935.44519 490
-12415.67773 10474.54297 673.25061 476
-12351.41797 10416.84180 933.89465 490
-12369.72559 10563.00000 671.98895 476
-12300.39258 10510.01855 935.36322 490
-12320.70898 10654.43945 675.85852 476
-12251.12109 10598.91895 937.53339 492
-12268.68555 10742.93359 675.57831 475
-12205.52441 10685.71387 941.29828 492
-12222.53223 10838.48633 677.68536 464
-12157.31445 10778.18164 939.81067 491
-12188.23047 10941.26855 678.31409 467
-12104.59180 10866.72949 941.08551 491
-12146.69238 11039.77246 676.17407 466
-12058.60449 10959.11426 944.72467 489
-12107.15430 11144.72852 679.45618 466
-12015.83691 11058.19141 944.58264 472
-12071.80078 11247.24316 682.47906 465
-11979.20312 11158.44629 947.19366 472
-12032.49902 11349.00586 684.74670 465
-11938.56738 11261.80273 947.26227 471
-11990.57812 11451.32520 685.26373 464
-11903.37402 11366.63574 951.23297 470
-11956.37012 11558.22656 687.56641 423
-11861.22070 11469.87598 951.64661 470
-11939.29004 11684.90527 688.19940 423
-11822.36816 11571.50586 954.86267 469
-11922.08203 11812.02734 690.24243 400
-11785.56250 11674.68457 957.52374 469
-11910.36816 11947.01953 692.29266 400
-11745.02246 11783.47852 958.91718 413
-11902.03223 12086.02148 695.39069 399
-11724.93555 11906.03809 964.88025 422
-11894.51074 12227.53418 699.16211 373
-11704.91211 12034.11914 968.46704 422
-11913.90234 12397.51660 702.32367 304
-11688.34082 12162.39941 972.28595 421
-11665.48340 12292.23633 972.96759 420
-11653.46973 12428.92676 978.88281 373
-11658.52246 12589.12598 986.12964 372
-11668.30664 12755.09961 989.31207 371
-11676.06738 12924.35547 997.29449 323
-8079.56885 12843.34473 2651.15698 1000
-1217.97937 2152.77856 133.18954 326
-1187.41101 2131.60742 133.39816 359
-1189.44873 2165.89600 91.53979 341
-1161.43188 2117.34912 133.11395 361
-1135.01086 2103.11108 92.89480 335
-1137.12073 2106.98340 132.78885 345
-1106.47656 2084.40088 93.86022 336
-1116.51331 2100.74951 132.89943 346
-1081.59412 2069.70532 94.05824 397
-1095.19580 2094.31592 133.15514 346
-1059.02893 2059.66309 94.10822 398
-1077.64844 2092.87622 132.84761 298
-1036.95789 2049.53247 94.69991 400
-1059.74951 2090.75757 133.30347 394
-1015.51672 2040.11133 94.79855 401
-1133.95825 2257.95044 132.71951 477
-995.50909 2033.50378 95.10654 420
-1118.21558 2261.43311 132.90956 467
-975.83191 2027.15967 95.59329 421
-1101.88489 2264.51807 133.39720 468
-957.27832 2021.10144 95.67982 431
-1007.78223 2118.55103 132.87570 438
-1007.80481 2117.84204 172.14096 374
-938.82379 2016.35217 95.63392 432
-988.84491 2114.18042 133.01074 439
-988.96509 2113.68652 171.78596 375
-920.39758 2011.10156 96.24920 433
-970.10181 2109.80298 133.15871 440
-979.05640 2127.50122 172.20497 378
-920.07794 2041.43652 58.06065 414
-902.89429 2006.82983 96.23162 440
-953.32349 2108.47095 133.25905 380
-973.91229 2149.06958 171.96632 377
-901.74634 2035.62390 58.73641 307
-885.50616 2003.60242 96.21706 420
-947.80536 2129.60986 132.99881 379
-968.12048 2171.78638 172.84479 376
-882.18408 2027.61816 58.89016 307
-869.01013 1999.69556 96.77464 421
-942.50476 2151.57373 133.11406 378
-962.99030 2194.50879 172.97037 375
-863.54840 2020.46960 59.40232 307
-852.05536 1996.42078 96.77879 422
-900.02838 2096.96338 132.63043 444
-957.00128 2217.36523 173.37187 374
-844.65607 2012.81067 60.27861 308
-835.09058 1992.54712 96.88515 423
-881.84662 2092.33325 132.64711 445
-826.61017 2005.38538 60.74078 308
-818.83881 1988.88818 96.79771 423
-861.26208 2082.15308 132.84039 446
-807.81616 1998.38928 60.86125 308
-802.51874 1985.60315 97.49772 424
-848.39618 2087.71558 133.17059 402
-790.28271 1991.49878 61.83000 309
-786.39038 1981.99426 97.68440 425
-843.56024 2110.42896 132.61041 401
-845.40717 2114.74854 246.75777 401
-772.53632 1984.53198 61.77544 309
-770.01105 1978.63538 97.56845 426
-840.37592 2139.22754 132.65196 478
-838.85706 2135.30640 170.88260 449
-827.47400 2110.19702 245.78336 479
-755.78986 1979.09949 62.30817 394
-754.06903 1975.54639 97.89626 427
-833.23456 2158.53589 133.18431 464
-814.28833 2114.73071 245.79048 495
-739.11835 1974.19751 62.65820 395
-738.21985 1972.33606 97.72683 427
-760.00800 2023.36963 132.60448 451
-804.14667 2127.22925 246.54411 443
-722.71008 1970.12305 63.00386 396
-722.72443 1968.76672 98.02782 428
-745.09039 2023.28967 132.71265 390
-707.22546 1965.16663 63.27839 397
-707.08344 1965.53955 98.19550 429
-736.45471 2036.82739 132.85420 456
-691.21594 1960.58105 63.47281 397
-691.28833 1962.05847 98.06103 430
-735.46301 2070.85938 132.86072 394
-675.27032 1956.20178 63.94372 398
-676.14172 1959.13513 98.52178 430
-729.35596 2094.23389 132.94170 393
-659.63098 1951.81860 64.49912 399
-661.12726 1955.85950 98.69914 431
-723.94220 2117.66919 132.56511 391
-17978.80469 46536.16406 10077.13965 1000
-644.21027 1947.44019 64.32851 399
-646.19580 1952.54065 98.60945 432
-718.59399 2141.90625 132.57254 390
-628.63458 1943.40198 64.67980 400
-631.43951 1950.07532 98.65734 372
-712.14502 2166.17749 132.55853 395
-660.90265 2029.91577 168.05989 464
-660.50659 2027.70398 203.72464 457
-613.75128 1938.92297 65.26515 401
-616.43652 1946.93457 99.12965 373
-703.67047 2184.65088 132.69582 458
-649.16962 2035.73083 239.54344 473
-651.26501 2041.76868 275.46030 473
-598.28790 1934.27454 65.69157 401
-602.24683 1944.55310 99.06685 373
-641.35718 2053.25732 240.29475 386
-583.90289 1930.93359 65.98706 457
-587.75238 1942.41565 98.98106 374
-568.99255 1927.20581 66.29356 458
-573.32642 1939.50549 99.15403 374
-635.64148 2119.11646 243.23219 475
-554.94501 1924.03796 66.56487 459
-559.05444 1936.99951 99.33107 375
-633.45728 2155.40088 170.11447 461
-623.63928 2127.07422 243.41141 383
-627.00513 2135.44995 317.58032 461
-540.08582 1920.46985 66.44210 459
-544.89551 1934.42981 99.64367 375
-526.02185 1916.72888 66.53895 460
-530.86621 1932.43152 99.26956 375
-511.73361 1913.59937 66.78761 461
-517.28387 1929.80481 99.69559 376
-497.83185 1910.34924 67.51513 462
-503.29282 1927.07593 99.46906 376
-483.94559 1906.64417 67.58453 463
-489.66254 1925.08691 100.09034 377
-470.40829 1903.67188 67.85211 463
-476.14481 1922.40259 99.98611 377
-456.93649 1901.46680 68.12183 491
-462.54636 1919.89478 99.88453 377
-444.13934 1901.88098 67.94863 491
-450.53000 1924.40894 99.83369 329
-431.85178 1903.02637 67.80141 491
-504.12613 2160.98242 96.07323 444
-419.42694 1903.63025 67.98798 492
-458.57480 2047.45288 97.86823 463
-458.52026 2046.59485 133.03786 463
-447.06107 2004.40088 166.61850 469
-406.91196 1904.38879 68.29199 492
-473.50262 2154.34814 96.07341 445
-394.74078 1904.95178 68.55589 492
-455.52747 2139.91260 96.53760 470
-382.73157 1905.81226 68.11498 438
-443.67679 2147.77368 96.40567 446
-427.95276 2084.72974 167.66132 455
-370.12140 1906.20203 68.59962 426
-428.89218 2144.77612 96.54173 447
-414.55054 2142.95557 60.32196 449
-413.88892 2141.53125 96.92989 447
-399.77249 2140.41968 60.78168 472
-400.00281 2139.62109 96.59890 471
-386.46057 2141.57178 60.61596 347
-386.82748 2143.05225 97.01393 397
-373.50009 2146.59863 60.60134 347
-373.48828 2147.79834 96.53899 349
35.98960 853.84509 19.79675 387
35.75634 857.38489 33.44201 387
41.80997 849.39502 20.23197 445
41.47644 851.57166 34.16748 445
41.49158 853.92065 47.98732 445
41.07026 857.20056 61.88641 388
47.11525 847.61346 20.60704 484
46.99453 849.39398 34.49081 484
46.82153 851.06079 48.44276 484
46.82521 852.69849 62.28106 484
46.65113 854.76703 76.20387 480
46.50016 856.96375 90.15221 445
46.33912 861.20746 104.15814 341
52.17291 849.45050 6.15254 484
52.35603 847.62238 20.60117 499
52.23843 849.22156 34.62822 499
52.31669 850.60577 48.44461 499
52.08106 851.97266 62.36705 499
52.02286 853.52612 76.30500 499
51.91548 855.02716 90.22185 499
51.78207 856.50769 104.22636 499
57.50310 849.29919 20.49691 490
57.41043 850.64478 34.53302 490
57.41995 851.88147 48.40640 491
57.29616 853.49988 62.42254 457
57.24507 855.05621 76.35901 462
57.12714 856.66449 90.18006 459
57.17417 858.23492 104.14397 405
62.63142 852.62256 20.08514 456
62.71264 854.57062 34.03127 403
62.43647 856.70007 47.99054 403
62.49216 858.80884 61.97557 403
67.63015 861.32562 18.96365 335
1621.79382 68190.21094 9121.71387 1000
2949.89600 12447.24609 133.17279 1000
1246.13953 1825.41846 -44.10248 1000
12201.42383 15206.43262 -182.95210 1000
2958.93335 1299.88452 -22.12224 449
2973.88721 1284.59912 -22.59321 453
2988.89795 1270.76501 -23.50613 455
3004.03394 1255.98145 -23.70952 451
3219.60303 1349.38330 20.53579 434
3020.62988 1242.28210 -23.70461 452
3214.55444 1324.57092 21.05675 435
3061.03247 1237.79443 -78.63159 423
3038.21582 1228.67932 -24.82812 452
3209.49072 1300.13416 21.35231 436
3079.71509 1223.80774 -79.25011 418
3055.64844 1213.92737 -25.02719 458
3204.70166 1275.45483 22.35202 436
3100.21753 1211.08301 -80.38621 407
3073.75171 1200.41248 -25.88470 453
3199.39917 1250.87708 22.89605 437
3091.85913 1187.01807 -26.39163 443
3194.04785 1226.98596 22.84560 435
14881.09668 5851.18848 131.22002 1000
3113.00366 1173.03088 -26.63498 439
3189.74927 1202.88916 23.63627 439
3135.14453 1160.03894 -27.72220 431
3184.39355 1179.70813 23.32961 440
3158.42603 1148.03125 -28.67534 437
3187.11914 1158.89941 23.87582 485
3183.77710 1135.91870 -30.09373 420
3197.40479 1140.47144 23.40380 482
3211.97534 1124.10083 -30.45713 406
3225.70068 1129.85608 22.96052 447
3245.83252 1114.66492 -32.52193 378
3262.33984 1120.61304 22.32862 380
3285.08691 1107.40540 -33.84258 377
3325.76855 1098.92383 -35.41631 375
3365.61987 1090.61462 -37.09108 256
54361.09766 17710.58398 -8340.15332 1000
3403.79565 1080.56543 -38.76804 336
3444.86499 1070.63953 -40.96666 371
3489.50488 1061.97131 -42.57881 370
3533.94165 1052.86194 -45.13218 369
3589.08008 1046.05322 -46.94695 363
1887.94250 350.37238 -47.83583 453
1893.83118 351.34567 -18.51489 398
1885.65979 338.70038 -47.45956 499
1890.00244 339.45297 -17.71345 499
1894.88953 340.42664 11.93826 488
1890.84570 327.76877 -47.68708 449
1898.04175 329.21481 -18.47260 393
2457.75830 371.63452 527.10950 1000
10093.19727 947.54926 954.62921 1000
12707.31445 -356.12976 -2165.69873 1000
2911.88013 -183.51013 -99.96024 495
2923.65332 -184.43561 -54.10984 493
2928.15649 -202.04318 -100.94129 295
49254.62500 -3810.22729 -8015.83447 1000
3931.07056 -464.27319 -57.90313 312
3882.18433 -481.12033 -56.38898 366
3863.91138 -502.69809 -54.68138 477
3930.76685 -535.34033 -122.41405 390
3851.13135 -524.84656 -54.23372 479
3906.27856 -556.40125 -120.99184 421
3839.57886 -546.33624 -54.30751 483
3888.23950 -577.81433 -119.68288 428
3827.45654 -568.39178 -53.59392 484
3871.88892 -599.14374 -118.90238 437
3817.20923 -590.07336 -53.90618 467
3848.88916 -618.53217 -117.49384 484
3809.00269 -612.08905 -53.31639 467
3821.68384 -637.17377 -116.12432 303
3799.96875 -633.61072 -53.23187 430
3799.76611 -657.46210 -114.54961 372
3792.58081 -655.69403 -52.61588 435
3785.61694 -678.56543 -114.08511 376
3785.21118 -678.39594 -52.30282 438
3772.48291 -699.75897 -114.06576 434
3779.14185 -700.24469 -52.73457 412
3963.09717 -735.60352 66.86356 300
3762.55762 -720.86652 -113.43642 435
3772.45532 -722.21625 -52.38124 414
3858.50293 -739.72906 69.41127 326
3752.51929 -741.60406 -112.53927 438
3767.00195 -745.19305 -51.97522 413
3884.48950 -768.78717 5.52371 326
3793.14404 -750.71118 70.21664 328
3744.00317 -763.34790 -112.25766 476
3762.72070 -767.67230 -51.98183 358
3817.66260 -778.98730 7.21720 327
3783.75244 -772.59015 69.66399 499
3735.93188 -785.27936 -112.79298 477
3759.16455 -790.27911 -52.86378 358
3776.06274 -794.66620 7.92112 499
3779.24243 -794.52502 70.35190 499
3728.97974 -807.02686 -112.62753 477
3754.22119 -812.45294 -52.87646 358
3773.07910 -816.68451 8.08345 499
3774.47046 -817.93524 70.17026 499
3722.27930 -829.46033 -112.65711 478
3750.48804 -835.41736 -52.62432 255
3768.55103 -840.29492 8.01924 499
3770.68823 -840.25836 69.58685 499
3716.33130 -851.62354 -112.00704 478
3761.10474 -861.94910 -53.81628 499
3764.09229 -863.02405 7.72837 499
3766.73267 -863.18982 69.87791 499
3710.40332 -873.07373 -112.08456 478
3756.02368 -885.00854 -53.75132 499
3753.40234 -883.75354 8.67185 499
3756.66382 -884.93652 70.27107 499
3771.52612 -887.84070 131.36890 332
3774.49805 -889.50867 193.52730 475
3705.76147 -896.33459 -111.90150 498
3752.04663 -906.93219 -53.81298 499
3750.50977 -906.96277 8.75736 499
3751.87134 -907.45294 70.10057 499
3700.28271 -917.62720 -111.84724 497
3747.88330 -930.61078 -53.10802 499
3746.76685 -930.15613 8.09690 499
3747.40405 -930.01166 69.65968 499
3696.94604 -941.26367 -112.00341 497
3743.78589 -953.13483 -54.16511 499
3741.01538 -952.60864 8.55227 499
3743.12280 -952.89093 69.60288 499
3692.02466 -963.54926 -112.80368 497
3738.91772 -975.47260 -53.85010 499
3742.57568 -976.99719 8.43382 499
3739.83057 -976.20978 70.04987 499
3688.00488 -986.15131 -112.64868 497
3734.80542 -998.55792 -53.87191 499
3739.07983 -999.26965 7.73439 499
3735.43506 -998.71497 70.11475 498
3683.59106 -1008.18127 -112.87495 497
3731.28320 -1021.77405 -53.41930 498
3734.38403 -1022.97302 7.64840 498
3731.37061 -1021.16870 69.55790 498
3679.97778 -1030.69617 -113.39014 497
3727.69141 -1045.28577 -54.29856 498
3730.08325 -1045.44165 7.56456 498
3732.49292 -1045.88037 69.67325 498
3837.64893 -1075.91138 131.81279 495
3676.08984 -1054.04980 -112.60505 496
3723.58545 -1067.37488 -54.42527 498
3725.90283 -1069.02771 7.43131 498
3728.62012 -1069.19849 69.98624 498
3832.38916 -1099.65198 132.17430 495
3671.09180 -1076.83594 -113.58669 496
3727.38916 -1093.18689 7.07457 468
3773.18896 -1106.50635 69.17728 277
3849.43945 -1130.43005 131.80466 348
3667.02246 -1099.18115 -113.33419 496
3800.59375 -1140.47864 132.12840 492
3663.51538 -1121.82581 -113.94744 496
3799.92920 -1164.62195 131.53691 438
3658.42090 -1144.59253 -114.06535 496
3823.81152 -1197.25378 131.35677 366
3654.48584 -1167.47314 -114.06345 495
3650.75586 -1190.31860 -114.09657 495
3646.70117 -1213.69678 -114.19548 495
3642.41187 -1236.29883 -115.04604 495
3637.85571 -1258.85828 -114.97421 495
3798.35864 -1315.81970 -61.32733 496
3803.25708 -1318.01978 3.07785 484
3633.06519 -1282.57568 -115.63004 494
3699.93286 -1305.96667 -56.38887 290
3629.68066 -1305.53931 -115.93324 494
3686.32349 -1326.14832 -56.61082 496
3625.53662 -1328.77246 -115.27477 494
3621.24121 -1351.27087 -115.86967 494
3616.97607 -1374.58667 -116.25870 493
3810.61792 -1451.31934 -64.69498 497
3612.43945 -1398.39490 -116.56359 474
3666.79370 -1420.27600 -57.53529 495
3612.41406 -1423.36548 -117.58170 407
3703.22900 -1459.87952 -59.93495 497
3710.29346 -1489.14270 -124.78287 476
3691.24316 -1481.11133 -58.95999 497
3708.40186 -1513.58508 -124.94515 376
3682.24341 -1503.27100 -59.78689 479
3707.95264 -1513.70935 3.17320 277
3683.16772 -1529.82251 -60.47817 475
19529.04688 -13447.17676 -4975.19824 1000
2342.73682 -1683.74060 -98.30090 498
2350.13208 -1689.26550 -52.95771 490
2338.99243 -1702.72778 -99.14877 390
5509.84229 -6413.17969 -1826.09863 1000
1508.80530 -1700.47009 -49.52070 399
1489.52490 -1697.92273 -48.37273 415
1477.80994 -1705.35376 -84.34761 414
1470.09082 -1695.31409 -47.09457 416
1469.55640 -1695.17712 -10.79934 420
1458.73743 -1702.96313 -83.03633 414
1449.12061 -1690.97021 -45.47078 363
1450.75342 -1693.45044 -10.45516 400
1439.47986 -1700.94946 -82.00243 415
1430.47632 -1689.30640 -44.75573 415
1432.66809 -1691.81494 -9.62767 401
1421.09448 -1698.47937 -80.46646 417
1411.88110 -1687.36560 -43.53406 415
1414.39160 -1689.76733 -8.39263 402
1402.76086 -1696.25464 -78.84606 419
1393.57996 -1684.70190 -42.52528 416
1396.64172 -1688.25146 -7.93596 402
1384.57239 -1694.76685 -77.85999 422
1375.24255 -1682.14844 -41.65273 417
1378.46216 -1686.63977 -7.26538 403
1366.75769 -1692.98914 -76.75421 423
1356.99622 -1680.19263 -40.23677 418
1361.13232 -1685.20667 -6.49502 404
1349.14795 -1691.30933 -75.65488 424
1339.36792 -1677.71643 -39.51392 419
1343.90540 -1684.40063 -5.28400 347
1331.89270 -1689.84167 -74.37029 425
1321.48499 -1675.80396 -38.22457 420
1327.46399 -1683.12756 -5.04119 347
1315.07483 -1688.06970 -73.47441 426
1304.21191 -1673.08765 -37.36699 421
1310.62427 -1682.16785 -3.99083 348
1297.92456 -1686.32861 -71.88249 427
1287.04504 -1670.58411 -36.39440 311
1294.42981 -1681.37476 -3.19597 284
21527.98047 -29910.21680 733.53497 1000
1281.52087 -1684.84778 -70.87549 428
1269.35461 -1667.93311 -35.44979 379
1279.33655 -1682.23206 -2.92581 344
1264.98279 -1683.42725 -69.75169 412
1252.12610 -1665.39075 -34.63902 437
1260.92114 -1677.83301 -1.87108 437
1248.40442 -1681.73352 -69.23508 413
1235.83154 -1663.77100 -33.50916 369
1250.42065 -1684.76221 -2.19621 258
1232.14368 -1679.89050 -68.04231 414
1218.98047 -1660.99597 -32.70014 439
1398.64954 -1925.34985 -20.32585 486
1216.04041 -1678.35620 -66.71996 415
1203.01184 -1659.28699 -31.42085 440
1208.31641 -1667.15186 0.58083 434
18831.89844 -27920.05273 1232.52893 1000
1199.78638 -1677.14453 -65.81723 416
1186.93103 -1657.28589 -30.88443 441
1192.23657 -1665.55762 1.08980 435
1183.95203 -1674.97900 -64.75645 406
1171.33826 -1655.63330 -29.97429 442
1176.91235 -1663.69421 1.77647 436
1168.29004 -1673.59534 -63.98498 407
1155.94385 -1654.45337 -29.07595 443
1160.82788 -1662.27332 2.85068 437
1152.91357 -1671.62512 -62.84061 407
1140.70410 -1652.92664 -28.49254 391
1145.89417 -1660.54333 3.47563 438
1137.24976 -1670.50623 -62.25015 408
1125.93774 -1651.77747 -27.51196 445
1130.40137 -1658.96423 3.68025 439
1122.33911 -1668.65710 -60.98136 409
1110.69812 -1650.34058 -26.84270 452
1115.49792 -1657.63208 4.21688 447
1107.29663 -1667.47351 -60.23644 411
1097.50110 -1652.24988 -26.59569 454
1100.88965 -1656.87439 5.19466 448
1104.45459 -1662.64526 36.26873 454
1092.28943 -1666.38159 -59.32617 417
1084.25818 -1652.35425 -26.10389 466
1087.18408 -1657.34778 5.44469 462
1090.61487 -1662.74341 36.86712 470
1078.25305 -1665.46887 -58.42969 421
1070.69446 -1652.90259 -25.45807 473
1075.22644 -1660.76416 5.43688 474
1076.88867 -1663.59058 37.31444 471
1064.52808 -1666.40991 -57.72183 430
1057.75122 -1654.32947 -25.09173 474
1062.49329 -1662.32715 6.14191 475
1065.40881 -1667.52722 37.08984 485
1051.49829 -1667.61755 -57.32355 432
1044.87256 -1655.37524 -24.56814 478
1050.77136 -1665.63806 5.91809 485
1056.33557 -1675.15393 37.08014 485
1030.63733 -1667.61951 -57.23414 432
1024.00916 -1656.47119 -24.46666 481
1033.13269 -1671.93457 5.36088 485
1038.80664 -1682.32483 36.24248 483
1018.08313 -1669.36206 -56.91339 434
1012.01965 -1658.52576 -24.44208 480
1023.87256 -1679.44922 5.12946 484
1036.62927 -1702.78186 35.65390 383
1005.99133 -1671.56567 -56.48743 434
999.82697 -1661.13147 -24.32148 481
1020.75970 -1698.51868 4.57235 382
1034.15186 -1722.90198 35.12215 382
993.56940 -1673.58191 -56.47059 434
988.23090 -1663.26416 -23.61301 485
1018.74701 -1719.64575 3.40219 306
1032.04675 -1743.91406 33.78098 380
981.75793 -1676.08167 -55.85506 438
976.48846 -1665.76978 -23.46845 485
1012.17700 -1732.37439 2.46121 473
1029.79626 -1764.71960 32.92698 379
969.84448 -1678.53711 -55.61057 438
964.54962 -1668.23596 -23.07437 487
1088.83252 -1902.96899 -9.34218 453
1026.81946 -1785.98792 32.10784 378
958.09491 -1681.24780 -55.33797 438
953.24976 -1671.74133 -22.93229 486
1027.58240 -1814.30627 -2.38554 449
1024.67554 -1808.35767 31.46552 377
946.71063 -1684.00757 -55.09832 441
941.72882 -1674.58179 -22.97558 486
1012.31427 -1811.79700 -1.72469 450
1021.59900 -1830.43311 30.53502 376
935.25745 -1687.03125 -54.76289 433
930.72241 -1678.19678 -22.83775 489
1001.63623 -1818.18799 -2.07062 454
1019.43622 -1852.88550 29.37842 375
923.91571 -1690.87341 -54.75409 440
919.60620 -1681.93982 -22.70576 488
994.11676 -1831.79028 -2.74009 453
1016.19580 -1875.55408 28.56518 460
913.30890 -1695.01697 -54.36446 440
908.78503 -1686.11780 -22.16346 489
988.09216 -1846.91870 -3.11678 286
902.16394 -1698.60535 -54.48087 444
898.02130 -1690.39221 -22.29320 489
983.20770 -1866.41052 -4.46169 295
891.50208 -1703.12561 -54.06436 444
887.58777 -1694.26843 -22.04344 484
975.82550 -1879.72839 -5.08874 289
880.54352 -1706.88379 -54.25027 444
876.49158 -1698.22705 -22.09263 484
869.97974 -1711.41138 -53.89277 444
866.03040 -1702.19336 -21.85384 484
859.29761 -1715.28357 -53.90611 453
854.76300 -1706.51501 -21.96138 481
847.99524 -1719.03259 -53.64841 453
844.24792 -1710.92822 -21.84686 480
837.18695 -1722.92883 -53.78527 453
833.67407 -1715.09631 -21.95864 480
826.63947 -1727.24036 -53.37090 461
823.32538 -1719.62476 -21.90499 476
9220.00000 -21165.39062 2013.56714 1000
815.52594 -1730.71777 -53.72761 461
813.20929 -1724.47522 -21.89470 474
813.77289 -1755.93542 -55.61454 265
802.39380 -1729.59875 -22.00166 472
792.23914 -1734.49683 -22.02918 469
781.90576 -1739.37256 -22.19499 469
771.79163 -1744.52405 -22.40881 468
-513.19110 -3149.78613 -25.91612 471
-513.02545 -3151.41162 26.95627 496
-513.58240 -3152.53735 79.32179 497
-514.12488 -3155.57446 132.04369 496
-514.08844 -3158.75415 183.92766 473
-928.49707 -2557.74927 -3.16862 452
-928.39502 -2557.39307 41.63667 487
-928.04437 -2556.82812 86.80208 488
-928.23438 -2556.51221 131.57263 499
-928.10730 -2556.15283 177.31120 499
-29213.01953 -47809.59766 1045.26343 1000
-1336.88464 -1957.42664 12.90038 490
-1336.85254 -1956.91663 53.02779 457
-1336.03162 -1956.37341 92.25977 457
-1336.25598 -1956.36938 132.20319 405
-1336.73572 -1957.16211 172.03773 336
-10517.07129 -13656.68457 -2145.22705 1000
-38890.19141 -50193.33984 4294.22461 1000
-3879.91528 -2072.51562 131.95679 497
-1178.17322 -493.65607 199.26910 1000
-257.89224 -75.23610 35.34497 321
-32497.43164 -6974.56396 7904.46240 1000
-255.76775 -72.58504 36.06155 321
-253.77901 -69.89790 36.72790 322
-274.07022 -73.95284 37.76059 318
-253.44214 -67.64885 36.91528 352
-271.77820 -71.15048 38.36604 319
-255.35297 -65.76550 36.52063 351
-270.03598 -68.55598 38.92786 321
-257.15109 -63.84804 36.08015 351
-271.61600 -66.55809 38.59503 345
-289.74118 -69.81863 40.87138 318
-259.11649 -61.98677 35.69113 350
-273.55530 -64.53846 38.23483 347
-289.67871 -67.32761 40.90471 341
-260.93637 -60.03289 35.26007 350
-275.61813 -62.57339 37.80458 346
-291.57812 -65.28855 40.49754 341
-266.31967 -58.72842 33.84272 320
-280.59213 -61.00656 36.65493 323
-297.10764 -63.64885 39.34341 313
-272.61072 -57.37127 32.22895 319
-196.97447 -11.05168 53.39656 324
-197.00644 -9.26433 53.32087 324
-196.97488 -7.43411 53.35581 324
-196.95781 -5.65229 53.34938 324
-196.96077 -3.81522 53.31955 324
-196.86380 -2.05487 53.34618 324
-196.86984 -0.23239 53.38969 324
