# .PCD v.7 - Point Cloud Data file format
VERSION .7
FIELDS x y z rgb
SIZE 4 4 4 4
TYPE F F F U
COUNT 1 1 1 1
WIDTH 1102
HEIGHT 1
VIEWPOINT 7190.097168 -757.713318 139.381378 -0.670105 -0.103574 -0.100003 0.728170
POINTS 1102
DATA ascii
-18562.39648 61.98110 750.77631 463
-18510.97656 177.54330 744.74359 464
-18459.85547 288.62210 747.10248 464
-18413.46094 400.70453 743.55927 465
-18360.04297 514.07324 745.26056 466
-18309.72070 625.37537 740.71033 466
-18263.95703 736.92181 740.92841 467
-18213.47266 846.22583 735.99689 467
-18162.87891 960.78571 736.01721 468
-18114.69727 1065.90662 735.74622 468
-18065.50000 1176.34839 733.54059 469
-18017.96484 1287.02722 731.83691 469
-17971.82422 1394.05994 730.27222 470
-17920.16211 1498.62830 728.62439 470
-17876.70898 1606.95959 727.55640 471
-17825.71875 1717.02087 726.11737 471
-17778.38867 1820.86487 726.13074 472
-17731.21094 1926.17358 725.30164 472
-17682.84570 2033.00586 724.90399 472
-9257.84473 1067.38562 2007.52295 1000
-17636.46680 2139.20654 726.18738 473
-19422.47852 2351.23853 1103.93896 425
-17592.71875 2241.75317 721.04089 473
-19364.49219 2467.10742 1101.67065 426
-17542.40625 2345.66260 722.31653 474
-19308.27148 2581.37524 1099.27124 426
-17498.26953 2450.09839 723.38440 474
-19253.35156 2694.78784 1097.39758 426
-17450.00586 2553.13794 720.10065 475
-19198.36914 2809.11426 1098.19275 409
-17407.39648 2655.43140 718.06787 475
-19145.73047 2920.86621 1093.53748 409
-275.87552 58.10443 33.11856 319
-17358.76172 2756.56079 720.44476 475
-19091.14062 3032.81616 1094.58191 419
-269.56885 59.38626 34.76352 320
-283.98480 61.78146 37.47799 323
-17312.55469 2862.71265 718.14282 476
-17959.60352 2968.72754 1038.33594 476
-264.85248 60.88472 35.96828 350
-279.33923 63.38191 38.53442 346
-295.50702 66.09017 41.27954 341
-17267.41797 2963.32812 715.24323 476
-17893.79688 3071.58276 1035.95276 477
-17947.48047 3080.71069 1338.93799 477
-262.86707 62.82101 36.33062 350
-277.28922 65.38458 38.94738 345
-293.54874 68.16716 41.56207 340
-17223.92969 3064.62451 717.03229 476
-17823.85156 3172.81177 1035.95898 478
-17874.44531 3177.86938 1334.99829 478
-260.92874 64.62755 36.79288 351
-275.41763 67.33582 39.27998 345
-295.02048 70.91373 41.06503 318
-17175.86328 3167.54077 716.73529 477
-17752.59375 3271.26099 1030.00854 478
-17809.18750 3279.85132 1330.42908 478
-258.96259 66.52443 37.18334 351
-275.21252 69.58190 39.22032 321
-17129.93359 3268.24902 716.26727 477
-17686.34570 3373.00781 1029.95532 479
-17738.53320 3382.37964 1331.49536 479
-257.19485 68.40015 37.49728 325
-277.04099 72.31773 38.68799 318
-17085.26562 3366.35522 712.42871 477
-17067.78711 3366.40576 998.45300 295
-17670.50195 3481.39331 1325.87598 479
-258.97815 70.96742 36.94679 322
-17043.23047 3469.04346 711.56488 478
-17020.40234 3461.99536 996.52631 295
-17604.31641 3584.38940 1322.70935 480
-260.91696 73.66259 36.28410 321
-16998.18945 3569.63867 712.51233 478
-16967.11523 3562.51929 996.44501 301
-17539.92773 3682.61548 1323.09485 481
-262.86194 76.35110 35.54952 321
-16952.81250 3668.45142 710.45270 478
-16920.78516 3661.53564 994.80408 301
-17471.60352 3779.04712 1316.35083 493
-4065.04980 921.74286 133.67694 485
-16907.40820 3767.92090 712.29346 479
-16873.38477 3760.45972 992.26660 301
-17427.42578 3882.34937 1317.42310 494
-16863.01758 3866.92139 711.50665 479
-16823.96875 3857.54077 995.00684 301
-17378.17969 3984.80688 1315.07678 494
-16817.01953 3965.13477 708.32764 479
-16777.21484 3958.37598 988.95764 301
-17328.48242 4085.98169 1313.12366 494
-16772.42578 4063.46313 705.93823 479
-16728.52539 4055.97681 989.06744 301
-17281.56445 4190.92041 1311.70801 495
-16727.68359 4164.93359 708.08960 480
-16681.26562 4152.34619 989.57532 301
-17237.17578 4289.78760 1310.90051 495
-16683.20508 4265.32080 706.41095 480
-16633.18164 4251.90918 988.50415 301
-17191.63086 4389.01318 1311.01428 495
-16640.48047 4359.61182 708.43860 480
-16588.42383 4349.58936 988.17584 422
-17040.48633 4464.73193 1299.43103 496
-16594.33789 4457.79297 704.47687 480
-16541.29492 4444.19580 984.34723 422
-16994.38672 4567.45801 1299.15295 494
-16553.61328 4558.41895 707.17786 481
-16496.78711 4540.48291 986.51831 423
-16947.87891 4664.95703 1299.61462 494
-17086.14844 4702.99072 1598.67212 496
-16508.43359 4654.29785 705.35596 481
-16453.76367 4641.05957 986.83734 423
-16904.11914 4763.20166 1296.08826 489
-17037.91992 4805.17090 1598.08350 496
-17197.83984 4845.55176 1907.08813 457
-16463.49414 4754.37598 704.41278 481
-16408.47656 4734.74854 984.35797 423
-16856.82617 4866.53418 1294.22058 490
-16992.92969 4906.11768 1596.05652 496
-17118.49414 4940.00000 1906.60156 399
-16420.53125 4848.13867 703.67029 481
-16366.28516 4834.33057 985.41052 423
-16909.57617 4994.33398 1301.76892 435
-16903.98828 4989.42139 1595.15308 435
-16375.37305 4948.59131 705.36469 481
-16320.72168 4932.60791 982.26434 423
-16789.67969 5068.54004 1293.84399 436
-16779.70117 5065.51514 1587.20007 436
-16333.17676 5046.40820 702.71979 490
-16276.24316 5027.96924 981.18738 423
-16663.48047 5147.98828 1287.81335 437
-16656.10547 5141.45898 1579.16626 437
-16290.95996 5141.91797 703.49957 490
-16236.95605 5124.72559 979.96497 423
-16567.84961 5228.15625 1287.25952 497
-16562.10352 5223.67578 1573.74426 497
-16703.13086 5270.20020 1875.41284 354
-16248.93262 5237.44775 703.78979 490
-16191.00977 5221.14648 982.42786 424
-16522.20703 5324.72461 1285.84534 497
-16514.69727 5322.61523 1573.15076 497
-16636.19727 5361.26562 1871.89832 391
-16202.77734 5335.32178 700.05591 490
-16145.91211 5317.55273 978.66083 424
-16450.41797 5413.72266 1281.58118 498
-16440.98438 5414.25732 1565.39246 498
-16589.51562 5459.18115 1871.98596 391
-16804.40430 5532.36182 2187.21851 484
-16159.98828 5432.90088 701.83191 490
-16106.87402 5411.32861 981.69562 424
-16401.91602 5512.16992 1280.30505 498
-16396.77539 5510.41797 1567.53552 498
-16546.45703 5560.21436 1867.65625 391
-16759.90430 5628.23193 2185.94678 485
-16118.72461 5527.86182 703.00830 490
-16061.95801 5509.78662 981.31982 424
-16360.78320 5607.60986 1279.35559 498
-16350.15820 5606.02441 1565.00500 498
-16496.60352 5654.10254 1867.69678 391
-16714.57812 5731.42627 2183.84009 485
-16074.89258 5626.10303 703.13776 491
-16016.54297 5605.61182 978.23901 424
-16315.66016 5708.80225 1281.18323 498
-16306.41895 5701.82031 1564.72070 498
-16452.05273 5754.92041 1864.88281 391
-16669.57617 5828.26221 2184.26514 485
-16030.46094 5721.42139 702.32794 491
-15975.11816 5700.71484 976.88739 424
-16267.67090 5804.84961 1280.73755 498
-16262.17773 5803.06396 1563.35083 498
-16407.08203 5850.04688 1865.22339 391
-16619.88086 5927.54102 2180.85742 485
-15987.43848 5815.29443 700.79700 491
-15932.48438 5795.11865 976.04999 424
-16225.51270 5902.90283 1279.08582 498
-16219.38477 5897.54053 1561.59473 498
-16356.17578 5949.87598 1864.04517 391
-15947.03027 5914.91113 701.14099 491
-15886.78906 5892.91504 977.69763 464
-16206.60254 6008.71289 1277.87122 499
-16198.51465 6005.46729 1565.11035 498
-16312.41992 6047.23438 1861.82495 391
-15904.03711 6010.90771 698.69489 491
-15845.46582 5988.14160 979.12500 464
-16161.34375 6105.75098 1276.98645 499
-16155.41699 6102.70020 1564.46643 498
-16264.95898 6142.59082 1864.20178 391
-15860.03027 6106.34863 698.50421 491
-15803.73438 6081.41113 979.36902 464
-15947.04102 6136.13525 1269.07996 481
-15911.62305 6122.55127 1546.08496 392
-16219.24219 6241.19336 1859.93103 391
-15819.45020 6198.76465 698.44562 491
-15761.44629 6178.70264 975.66956 464
-15977.66602 6262.87939 1269.53198 307
-15986.47949 6267.25928 1556.66931 260
-16173.98926 6337.62646 1862.16711 391
-15776.31348 6294.78906 697.79431 491
-15718.60840 6272.76953 977.36945 464
-16027.86914 6396.07422 1276.73035 499
-16022.32324 6392.29639 1561.93872 499
-16128.17578 6435.83398 1861.42285 392
-15732.50977 6393.09912 699.87152 491
-15675.61035 6371.07080 977.43896 464
-15984.72852 6495.57617 1278.73975 499
-15977.90723 6488.41357 1561.33081 499
-16084.73047 6533.01074 1861.15393 383
-15688.62109 6487.73779 698.94891 491
-15632.40332 6464.05908 975.01459 464
-15972.37109 6601.06592 1281.74194 467
-15965.87695 6598.04688 1562.79114 466
-16094.12207 6652.27588 1862.79565 367
-15644.09668 6583.26416 699.71625 491
-15591.28418 6559.06885 974.99689 464
-15986.83984 6726.41406 1284.64795 466
-15976.51953 6721.80322 1568.86011 466
-16119.32617 6781.07178 1870.71631 367
-15601.31641 6678.64160 699.37921 491
-15549.27148 6654.68945 975.97528 464
-15975.51367 6837.14551 1285.55005 481
-15995.62988 6844.19385 1572.88538 465
-15560.72852 6775.66309 700.24622 491
-15505.04297 6748.03809 976.84485 464
-15964.58398 6948.98340 1289.24329 481
-16011.21973 6968.16162 1581.97717 464
-15519.00977 6870.84814 702.01129 491
-15463.86914 6846.86816 975.62665 464
-15953.81250 7062.86963 1289.78833 481
-15473.40820 6966.94873 697.97345 491
-15422.26074 6942.69141 978.22827 464
-15943.85059 7176.29639 1293.68384 480
-15430.81641 7060.54980 697.84277 491
-15379.41406 7035.81543 974.24127 464
-15387.31055 7154.91992 699.06494 491
-15337.01465 7132.57959 976.51868 464
-15343.95898 7253.97705 700.56415 491
-15291.56934 7229.19434 976.90039 464
-15303.82422 7345.42139 702.32111 491
-15252.26660 7322.19580 974.62201 447
-15259.48047 7441.12256 701.02570 491
-15210.10156 7418.09180 974.65540 464
-15216.15918 7539.15039 701.64368 491
-15165.11426 7511.23096 978.84204 464
-15173.07520 7634.59814 700.48694 491
-15124.19629 7607.74268 976.42279 464
-15132.25781 7728.48340 701.86029 491
-15080.66504 7705.56543 976.22363 464
-15089.23926 7827.29980 701.07672 491
-15040.30859 7799.06250 979.71881 464
-15045.59570 7921.11621 699.23083 491
-14996.51270 7894.87012 977.34583 464
-15004.32520 8019.31934 699.13483 491
-14956.17383 7990.36914 977.42596 464
-14961.43164 8111.49072 700.10132 491
-14912.17285 8088.45117 977.96405 464
-14919.24707 8208.00781 701.46539 491
-14871.44434 8183.37646 980.34106 464
-14874.50684 8305.19727 702.42065 491
-14824.99316 8279.76660 980.30792 424
-14831.36621 8402.84180 700.81781 490
-14781.92871 8378.05469 980.66315 424
-14785.73828 8497.14258 702.93561 490
-14740.77051 8471.13770 982.60120 424
-14745.36426 8594.33496 704.07220 490
-14697.86914 8568.89941 981.74121 424
-14790.60352 8742.74023 426.75562 479
-14700.28125 8693.07031 702.63446 490
-14660.06543 8666.39746 980.29498 302
-1243.54773 796.85651 31.01040 485
-1247.30212 798.67120 56.23822 484
-1251.66638 801.33527 81.62497 458
-14746.37988 8842.24805 426.35205 479
-14654.95312 8787.68066 705.48407 490
-14618.91992 8767.70215 983.96204 296
-1238.62939 804.61798 31.00734 489
-1241.07092 806.07275 56.52680 488
-1244.13013 808.12073 81.85868 498
-1246.78333 809.79755 107.23899 498
-14703.20215 8937.66895 423.37967 479
-14612.89551 8884.94531 704.77002 490
-14576.37305 8861.89355 984.96722 296
-1241.47534 817.59888 55.98989 400
-1245.44714 820.27405 81.79451 401
-14656.82031 9034.89551 423.80670 479
-14571.39160 8980.13086 706.31427 489
-14537.25684 8961.62207 986.60602 296
-14613.52344 9134.62598 424.85321 479
-14527.81836 9077.96777 703.06592 489
-14501.13672 9065.03027 984.97845 296
-14570.57715 9232.73535 423.15305 478
-14484.80078 9176.86621 707.47961 489
-14462.11133 9163.91895 986.03265 296
-14524.30078 9329.67285 427.25671 478
-14440.01660 9272.43945 705.68231 489
-14420.15820 9264.30664 989.39771 296
-14482.75781 9427.48438 424.61761 478
-14392.59180 9374.10352 704.64160 489
-14382.68555 9361.95020 990.06122 296
-14435.92285 9525.23047 425.24414 478
-14352.12207 9468.14941 708.26324 488
-14340.19922 9463.75195 989.29816 296
-14393.56055 9626.08398 424.88309 478
-14304.57910 9565.64258 708.34161 488
-14302.04688 9562.91699 990.51318 296
-14347.57227 9721.29492 426.38882 477
-14263.43555 9665.24219 708.24243 488
-14262.67285 9666.47363 993.77777 296
-14311.13770 9830.76074 427.17923 467
-14219.18262 9766.32324 709.01306 488
-14277.98730 9935.56250 426.78644 467
-14173.62402 9864.50977 710.58948 487
-14600.01855 10158.54297 1020.70801 390
-14241.87598 10040.87793 430.27454 467
-14138.40039 9970.75684 712.91266 470
-14475.75195 10203.74023 1015.42413 390
-14210.18066 10150.81641 431.56650 469
-14110.05176 10078.25195 714.48035 469
-14365.46094 10261.13379 1011.53455 419
-14177.13281 10262.05078 428.57858 469
-14075.18066 10188.41309 712.73926 469
-14319.26758 10360.47754 1014.04889 419
-42138.23047 30756.76758 -4121.52441 1000
-2606.43774 1966.41040 134.13840 258
-14146.50586 10369.14844 432.03918 468
-14043.09277 10297.06348 714.41718 468
-14013.32129 10270.91016 999.64618 314
-2527.52490 1933.64368 134.32715 309
-14125.96289 10488.41309 429.88452 429
-14012.43164 10405.11914 716.19501 469
-13958.25684 10365.91504 1000.58594 489
-3648.57666 2796.73730 -715.19318 1000
-2522.92651 1955.44983 80.90228 310
-2481.63257 1924.51831 134.26581 310
-14121.72266 10622.92090 434.62299 407
-13982.15820 10517.44238 719.78302 469
-15030.70215 11297.96777 1072.73389 468
-2402.28223 1889.50232 82.50424 299
-2448.07788 1924.04504 133.44337 289
-14122.41602 10756.79590 432.28995 407
-13946.88281 10626.98047 719.16534 468
-14967.04102 11394.61035 1073.19946 468
-2349.40601 1873.16040 83.13944 317
-2599.81592 2064.49829 134.03560 442
-14122.19043 10897.99805 434.69476 406
-13924.96875 10743.76562 719.39996 429
-14900.48438 11492.76660 1070.62061 468
-2308.47900 1864.60217 84.33279 365
-2575.86499 2072.83960 133.92543 464
-14120.99609 11035.49316 435.55786 405
-13916.67773 10876.32324 721.95020 429
-14829.12793 11582.38477 1069.75317 468
-2271.62402 1859.53113 84.15008 377
-2400.37280 1960.51294 133.76360 379
-14167.41895 11209.26172 437.97049 311
-13905.51172 11003.57910 722.83936 428
-14751.98535 11670.62793 1071.22351 407
-2235.73413 1855.48511 84.98769 378
-2362.77612 1956.21399 134.00975 380
-13896.00781 11138.90820 726.31561 427
-14670.75684 11756.74902 1068.70154 407
-2201.15601 1851.01257 85.44784 380
-2342.91382 1964.88330 133.65260 419
-13890.05273 11273.75879 728.35211 405
-14593.03418 11837.74121 1071.35608 407
-2167.89038 1846.95215 85.86297 381
-2339.06030 1986.77917 133.91283 460
-13903.99805 11426.06934 733.04700 380
-14496.83301 11909.71387 1065.65051 416
-2134.03735 1841.91724 86.31830 382
-2254.50562 1941.57800 133.69557 384
-13923.20508 11585.60449 739.87659 379
-14402.65430 11983.91309 1065.23206 403
-2101.78784 1838.26562 86.44414 384
-2239.43286 1953.52832 134.15021 459
-13945.67969 11754.00293 743.21625 311
-14307.17285 12055.57910 1063.08020 403
-2069.99194 1834.32214 87.04442 386
-2139.63623 1893.56506 133.32126 387
-14211.13281 12124.83984 1065.60864 482
-2038.43091 1830.41699 87.82515 387
-2125.56226 1904.82593 134.02882 350
-2218.34106 1984.72156 183.55542 483
-2228.66772 1993.55835 234.04434 388
-13779.61426 11905.33398 1041.50244 341
-2008.44153 1827.10889 88.17950 389
-2126.54126 1929.81055 133.27168 453
-13834.24219 12105.27637 1049.81873 322
-1978.29163 1823.58801 88.71725 390
-2124.23291 1951.64453 133.67900 456
-1948.97302 1820.23962 88.70663 391
-2121.92773 1974.17114 133.87569 455
-2050.48779 1910.03992 180.67387 392
-1920.03906 1816.41589 88.96384 392
-2118.92432 1996.16296 133.76562 454
-2040.13000 1925.07190 275.14905 355
-2038.44519 1923.58008 321.93747 355
-1891.36768 1813.58667 89.47984 394
-2115.98901 2017.94189 133.61504 453
-1863.74670 1810.30286 89.84970 395
-2113.11938 2040.61023 133.77559 457
-1836.27869 1807.09839 90.49392 396
-2110.02222 2063.14355 133.62744 456
-1815.51050 1809.29810 90.60664 449
-1796.31616 1813.70276 90.32632 434
-2032.32361 2039.60608 181.79666 494
-2029.87097 2036.79749 230.38976 496
-1777.59277 1817.79004 90.69392 434
-1761.96399 1824.50159 91.22489 340
-1847.22668 1932.48132 88.63297 443
-1844.88562 1953.90820 88.60016 442
-1845.21814 1953.99707 133.22771 497
-1842.30432 1975.44312 88.55704 440
-1840.22034 1997.65796 87.88772 439
-1837.74280 2019.79077 87.79109 438
-1835.17859 2042.19250 87.89320 437
-1813.20020 2044.13525 87.71540 393
-1791.15283 2044.77612 87.85513 441
-1770.57104 2048.43311 88.16964 441
-1751.04285 2051.47803 88.31342 442
-1731.01184 2055.10376 88.34095 443
-1710.08154 2056.86816 88.99419 421
-6686.76758 7822.12402 1328.69788 1000
-81.96886 21621.21094 2624.45508 1000
8380.17578 56690.37891 2016.71204 1000
3416.17871 20901.49609 -211.29291 1000
9119.62793 17469.85742 -5135.64111 1000
22098.97852 29830.18750 4423.58398 1000
29249.30859 35295.71484 -12102.15137 1000
1601.12744 1476.96777 -5.37673 356
1605.87244 1464.40906 -4.81340 486
1616.03845 1455.67883 -4.93337 470
1632.22986 1471.32117 28.68113 328
1625.72217 1447.26611 -5.32937 465
1639.31274 1460.08472 28.51179 411
1635.45874 1438.91052 -5.06042 456
1648.78064 1450.96521 28.37945 411
1645.47009 1430.66760 -5.44666 449
1658.78528 1442.47192 28.42173 347
1656.49878 1422.83911 -5.48808 448
1668.49500 1433.81567 28.26487 347
1667.14819 1415.03015 -5.46261 445
1678.18628 1425.23181 28.51298 368
1677.66150 1407.44434 -6.08657 445
1688.75964 1416.63257 27.94130 370
1688.98083 1399.64807 -6.38946 445
1698.73950 1408.50574 28.04757 393
1700.02502 1391.65491 -6.17390 444
1709.58459 1400.29541 28.18400 390
1710.99500 1384.12903 -6.33055 444
1720.07605 1392.02832 28.05041 390
1870.47156 1520.80286 56.11698 402
1721.49329 1376.49744 -6.82038 444
1730.76416 1383.75134 27.51122 423
1867.50879 1499.59644 56.59290 403
1733.42786 1368.68384 -6.90577 440
1741.63818 1376.00525 27.39529 421
1865.64038 1479.05420 57.51964 404
620.57294 433.95593 -14.86194 320
1744.77893 1361.11548 -7.54950 440
1752.82092 1367.70361 27.43608 439
1863.08960 1458.94971 57.74091 405
617.98840 426.41266 -13.51569 446
620.13983 428.24109 -2.52357 390
622.51538 429.96548 8.43406 390
625.47333 432.49176 19.23623 320
1756.91321 1354.25037 -7.89026 433
1764.11670 1360.19800 27.14342 445
1860.40393 1439.10620 58.37831 406
618.30035 421.38928 -12.77723 447
619.85498 422.75320 -1.77025 447
621.70587 423.96875 9.23758 447
623.23816 425.44455 20.23198 447
625.05505 426.76093 31.38362 447
626.80444 428.11636 42.28012 447
630.08899 430.75241 53.30531 320
1769.36755 1347.51233 -8.04851 432
1776.32178 1353.17444 26.56463 444
1858.05750 1419.09351 58.70198 407
619.56744 417.14270 -12.58300 485
621.07819 418.31143 -1.41803 485
622.60120 419.45767 9.59681 485
623.97375 420.58017 20.61827 485
625.39392 421.73416 31.78039 485
626.96753 422.98669 42.81487 450
628.53241 424.14523 53.80029 445
630.09259 425.50333 64.80642 445
631.96680 426.91974 76.05733 405
1782.25000 1341.03821 -8.70501 428
1788.65271 1346.21558 26.55758 440
1855.75220 1399.63086 59.28947 408
621.68726 413.67413 -12.36080 499
623.07568 414.67978 -1.30453 499
624.51416 415.83163 9.83385 499
625.98553 416.87808 20.88837 499
627.25555 417.92014 31.86311 499
628.84314 419.20129 42.89815 499
630.19299 420.24139 53.91990 499
631.52240 421.33582 65.03441 499
633.14185 422.41888 76.18623 498
1795.28198 1334.39783 -9.04179 428
1801.61230 1339.38184 26.15593 445
1853.38245 1379.89893 59.46894 409
624.40961 410.52237 -12.36982 489
625.75269 411.68686 -1.38348 489
627.30316 412.71539 9.72167 489
628.89313 413.94943 20.76371 489
630.22583 414.99878 31.68285 489
631.91559 416.15805 42.84037 484
634.36719 418.24487 53.71476 465
634.79529 418.47977 64.95086 454
636.72217 420.10352 76.01913 423
1809.30200 1328.21472 -9.22547 421
1814.75427 1332.56384 25.70026 444
1851.22314 1361.03503 60.00371 410
627.78809 407.99075 -12.76507 488
629.31647 409.14697 -1.62866 454
631.09412 410.37558 9.37474 454
632.75317 411.66785 20.48321 454
634.62604 413.01059 31.50737 454
636.55316 414.55856 42.36270 408
638.70990 416.36945 53.48878 399
1822.98584 1322.54773 -10.14691 420
1828.00549 1326.13342 25.49362 468
1848.32422 1341.59143 60.58536 414
632.32202 406.25000 -13.29438 454
634.10065 407.62372 -2.13443 454
636.28503 409.30276 8.82779 400
638.69122 410.97031 19.72507 400
642.17181 413.62515 30.38281 330
1837.54956 1316.77869 -10.63774 419
1842.40088 1320.13965 24.88666 463
1856.22961 1330.99060 60.43410 490
638.55688 405.71463 -14.18735 399
641.77185 408.08621 -3.53792 331
1852.86133 1311.76099 -10.97849 413
1856.95813 1314.41016 24.88599 457
1864.10059 1319.90503 60.52192 490
1869.38159 1306.65369 -11.76226 413
1872.00916 1308.51843 24.50540 456
1877.82349 1313.25696 60.37594 450
1886.51990 1302.23010 -12.63924 402
1887.88184 1303.47876 23.50906 446
1894.00732 1308.05640 60.05861 442
1904.58044 1298.75342 -13.37661 392
1905.72974 1299.44727 23.46780 428
1912.43823 1304.32690 59.50737 422
1924.32141 1296.15344 -14.52716 391
1924.93250 1296.68237 22.50728 418
1944.95776 1293.65894 -15.56632 390
1945.23486 1293.96472 21.61475 417
1965.66284 1291.51331 -16.24324 389
1965.46191 1291.20520 20.81724 416
1987.20190 1289.18066 -17.26574 388
1986.37341 1288.12231 20.49470 415
2008.45618 1286.29456 -18.35148 394
2007.11377 1285.34167 19.69784 413
2029.61731 1283.12622 -19.50390 393
2030.99646 1283.88013 18.69868 393
2050.73071 1280.15564 -20.33836 399
2052.43530 1281.22961 17.49754 392
2073.03125 1277.59460 -21.86394 398
2073.96387 1278.00549 16.77466 391
2095.92432 1274.76562 -22.72270 397
2095.55859 1274.84680 16.30919 390
2118.82983 1272.41919 -24.01737 396
2117.73462 1271.36255 14.89735 389
2142.24512 1269.16138 -25.63966 395
2140.56543 1268.52063 14.45207 406
2165.74829 1266.98340 -26.49874 394
2163.44458 1265.42932 13.76108 405
2190.36206 1263.47998 -28.14734 393
2187.35962 1262.06689 12.82457 404
2214.74341 1260.65198 -28.78143 394
2211.06738 1258.47180 11.36209 402
2239.42334 1257.62195 -30.17976 392
2234.95361 1255.70789 10.49875 401
2262.57642 1253.27649 -31.54088 361
2259.75000 1252.07056 9.83969 400
2291.58643 1252.73132 -32.93920 392
2319.75610 1250.35986 -35.03699 308
15630.07422 799.43561 4026.35962 1000
1691.19006 -5.63251 -25.53988 399
1698.17834 -5.71384 -0.10830 330
1685.17810 -15.44246 -24.99401 488
1689.13330 -15.33077 0.91381 488
1692.63965 -15.48496 26.98744 487
1700.48975 -15.25266 52.87326 436
1686.23291 -24.89700 -25.25372 485
1691.14661 -25.29239 0.48488 448
1701.94775 -25.44579 26.27695 481
2708.27466 -234.84023 2.34349 374
2699.47021 -249.65656 -40.37937 325
2679.33105 -247.98871 3.99727 376
2681.40991 -264.09116 -38.86040 369
2669.02612 -262.97070 4.34106 481
2669.71777 -278.82990 -38.60674 403
2661.05640 -278.26248 4.72303 476
2661.32446 -294.13504 -38.19943 414
2655.11646 -293.78268 4.84718 484
2651.52173 -308.74646 -37.74210 417
2649.05151 -308.71680 4.86596 470
2749.43896 -320.87634 44.03582 455
2643.29175 -323.60144 -37.35907 462
2643.34351 -323.86667 4.93611 470
2635.63306 -338.63629 -36.47379 462
2637.53857 -338.98648 5.57119 471
2627.84863 -353.38910 -36.14623 466
2632.37646 -354.24261 5.58239 436
2622.11182 -368.46252 -36.38504 491
2628.10986 -369.27271 5.60395 436
2616.05078 -383.95953 -35.83840 491
2624.35962 -384.90463 5.69409 441
2610.46631 -398.69327 -35.97778 491
2619.88232 -400.35385 5.41669 441
2604.52832 -413.74564 -35.66930 492
2615.75391 -415.03464 6.02020 414
2599.23389 -428.11526 -35.45438 494
2612.15698 -430.32751 6.05653 414
2593.56030 -442.94788 -35.29787 494
2608.76880 -446.32089 5.90514 418
2588.77539 -458.22720 -35.07505 494
2605.09473 -461.66180 6.26427 418
2711.77417 -480.90851 131.26743 300
2583.65771 -473.40268 -34.58489 495
2602.49585 -477.04803 5.77609 362
2691.48071 -493.62155 44.79295 404
2668.67627 -489.81458 131.67821 301
2582.74243 -489.14249 -34.91014 498
2600.83472 -492.71973 5.79736 363
2714.18628 -514.47986 87.67241 338
2627.54883 -497.47766 131.41690 302
2578.00391 -503.49139 -34.48857 498
2598.30542 -507.68750 5.60724 363
2675.28735 -523.59833 88.31065 340
2600.51221 -508.16531 131.82185 425
1298.76746 -244.54044 355.87274 1000
2573.45679 -518.90948 -34.47924 457
2596.06543 -523.84528 5.73518 363
2693.25879 -543.81653 44.53770 339
2637.51953 -532.40704 88.75873 341
2598.72949 -523.97559 131.47099 425
2716.46387 -548.89203 175.25017 498
2567.70386 -533.70581 -34.60352 499
2598.59863 -540.39911 5.43057 260
2655.61719 -552.30768 45.90253 340
2603.21167 -541.09827 89.15786 498
2597.02051 -539.98901 131.36792 424
2715.35059 -564.96527 175.34940 498
2563.87646 -548.68298 -34.47638 499
2603.55908 -557.46118 5.25363 497
2617.99365 -560.40686 46.45815 341
2601.62012 -556.93042 89.57916 498
2595.51685 -555.60779 131.72006 424
2563.00684 -564.37762 -34.69268 499
2598.01782 -571.99677 5.48399 498
2598.25806 -572.65302 47.24778 499
2599.87598 -572.44196 89.45145 498
2593.25171 -571.62939 131.12573 424
2559.30200 -579.13281 -34.82296 499
2596.52783 -587.81866 5.13828 497
2596.12866 -587.90491 47.36054 497
2598.17529 -588.60596 89.10284 498
2591.91431 -587.34351 131.49924 424
2556.03906 -594.97772 -34.75866 499
2594.64771 -603.89917 4.64505 497
2594.98242 -603.69208 47.22823 497
2596.63306 -604.61774 89.63593 497
2589.76367 -602.68060 131.29231 424
2550.77368 -609.02307 -34.30659 499
2593.20190 -620.02490 4.50531 497
2593.29395 -620.10199 46.81230 497
2594.77295 -620.52161 88.96982 497
2587.93604 -618.45935 131.28757 424
2837.92456 -680.49744 178.03197 491
2838.76514 -680.87494 224.06767 465
2839.59229 -680.97949 270.54514 465
2840.67700 -681.16211 316.59354 464
2547.82446 -624.90991 -34.35437 499
2591.74854 -635.56799 4.57604 497
2592.39355 -635.67072 47.00444 497
2592.59985 -636.26123 89.33301 497
2586.37183 -634.34930 131.17932 424
2548.10229 -640.61847 -35.18500 498
2588.83936 -651.30743 4.52945 497
2584.89160 -650.70850 47.09051 468
2586.14258 -650.78717 89.01487 468
2584.26221 -650.58075 131.45573 424
2600.73975 -654.58905 216.53775 378
2600.43994 -654.71497 259.08777 492
2601.43042 -654.68140 301.18292 491
2545.28223 -655.93646 -34.73026 497
2587.28638 -667.48334 4.89026 496
2582.67969 -666.35950 47.09769 496
2584.29712 -667.08618 89.54222 496
2582.51978 -666.53009 131.53584 423
2543.01587 -672.04858 -34.97082 476
2585.34375 -683.04468 4.76111 496
2581.11768 -682.20074 47.20609 496
2583.06177 -682.56818 89.42620 496
2581.23584 -682.04688 131.26106 423
2538.66895 -686.89795 -35.12808 497
2583.64941 -699.04919 4.10222 496
2579.30103 -698.22339 47.01050 495
2581.00024 -699.02600 89.31664 496
2578.79297 -697.85962 131.50366 423
2536.67505 -702.46826 -35.35255 441
2582.25562 -715.85309 3.97685 496
2577.62598 -714.56085 46.94402 494
2579.36475 -714.40363 89.00421 496
2576.96924 -713.74408 131.69135 423
2537.31201 -718.96460 -35.44787 495
2580.48706 -731.70667 3.93625 495
2582.23145 -731.97455 46.66051 495
2582.40918 -731.94092 88.83133 495
2575.65942 -729.88141 131.79076 423
2536.05859 -734.73322 -35.63776 495
2579.08911 -747.36359 3.87733 495
2579.79639 -747.63812 46.30564 495
2581.16577 -748.24091 89.27333 495
2573.29541 -746.46515 131.62692 422
2709.91235 -786.90881 176.50027 314
2534.24146 -750.52173 -35.99841 495
2576.57764 -764.15356 3.82829 495
2577.85498 -764.28345 46.12783 494
2579.53906 -764.31427 88.69839 495
2572.17627 -762.53625 131.56921 422
2720.85815 -808.07880 176.28931 408
2529.54736 -765.49091 -36.14095 494
2575.41235 -780.06104 3.76103 494
2576.09546 -780.27423 46.21202 494
2577.40796 -780.85693 88.91689 495
2570.08276 -778.10693 131.43083 422
2683.82544 -813.85364 175.69193 278
2528.31519 -781.71466 -36.52166 494
2573.46851 -796.59631 3.63383 494
2574.34570 -796.72327 46.01931 494
2575.64282 -796.89886 88.49545 494
2568.07642 -794.84698 131.10481 461
2655.43555 -822.74268 175.84041 494
2682.80762 -830.95300 220.12700 427
2529.41333 -798.66638 -36.63643 494
2572.74316 -812.77435 3.10265 494
2572.80029 -812.62146 45.68356 493
2573.94702 -813.26117 88.66526 494
2566.54761 -811.18134 131.28729 461
2632.56616 -832.70880 175.41154 494
2671.26221 -845.40936 220.41487 479
2527.47998 -814.33203 -36.79759 493
2571.02271 -828.91046 2.83961 494
2571.04932 -829.00854 46.13386 491
2571.44531 -829.59662 88.32023 490
2565.06128 -827.48102 131.38354 460
2630.85376 -849.05225 174.95282 494
2669.47388 -861.84583 220.30490 449
2525.47754 -830.45782 -37.16065 493
2569.06177 -845.12244 2.65380 493
2569.73267 -845.56555 45.80672 493
2570.48267 -845.84076 88.24863 493
2563.17358 -843.77820 131.78419 460
2649.59863 -872.91553 175.65178 493
2521.65723 -846.18683 -37.26117 493
2561.47241 -859.82153 2.67007 261
2574.44702 -864.14380 45.03471 456
2575.18091 -864.91364 88.71317 496
2561.73706 -860.04517 131.31551 459
2649.72827 -890.96503 175.51163 497
2695.02856 -906.64728 221.31789 383
2519.20874 -862.30505 -37.37082 493
2553.08887 -873.92792 2.98319 261
2646.46167 -907.28711 176.14912 491
2696.59985 -924.87903 221.65791 437
2520.55859 -879.40454 -37.66726 492
2547.46118 -888.75714 3.28973 309
2645.84277 -924.36578 175.73927 487
2700.30078 -944.73651 222.16452 488
2519.01880 -895.32501 -38.05626 492
2544.77539 -904.88727 3.31417 309
2692.10229 -959.26715 176.91960 326
2687.57861 -957.66205 222.04100 410
2517.33252 -911.91382 -38.53434 491
2541.91040 -921.24963 2.67643 309
2661.63574 -965.91760 176.44675 376
2512.67017 -926.88727 -38.21112 491
2539.27246 -937.51349 2.99891 309
2510.79639 -943.35876 -38.40919 491
2511.98413 -961.13788 -39.37678 490
2837.42407 -1090.48999 -13.88283 299
2509.74194 -977.52051 -39.58176 490
2792.67651 -1092.18274 -12.11848 490
2508.44800 -994.38861 -40.00192 489
2776.12451 -1104.24060 -11.60258 319
2503.94092 -1010.05212 -40.23217 489
2669.31665 -1079.15967 -6.06655 442
2670.17554 -1079.42834 40.24809 442
2501.00781 -1025.75024 -39.93117 485
2632.10693 -1081.50757 -4.22914 416
2796.70337 -1151.48071 35.39555 472
2499.31250 -1042.52527 -40.70665 485
2597.18311 -1085.46277 -2.43347 324
2794.62598 -1171.04089 35.32978 386
2497.16602 -1059.30444 -40.52692 484
2517.14526 -1068.66443 1.06555 393
2793.28516 -1189.89990 34.77557 385
2495.63672 -1076.26770 -41.56749 484
2514.96436 -1085.21008 1.08811 392
2791.79297 -1208.90515 34.67829 385
2493.69312 -1093.58215 -41.20284 483
2512.62549 -1101.71289 1.06367 392
2787.93774 -1227.30640 34.17768 465
2492.21826 -1110.50330 -41.68355 483
2510.31543 -1118.59302 0.36992 392
2531.76855 -1129.16638 43.58546 392
2490.07446 -1127.28784 -42.35020 482
2507.82837 -1135.59229 0.36678 392
2530.19336 -1145.99890 43.18750 476
2488.28809 -1144.79993 -42.36653 482
2505.94214 -1153.20520 -0.27567 391
2527.54272 -1163.51697 43.04126 475
2486.46582 -1161.76624 -43.15869 481
2503.37085 -1169.90576 -0.60449 391
2526.22046 -1181.21948 42.60210 475
2484.66162 -1179.79675 -43.38181 481
2500.57568 -1187.25122 -0.33827 391
2585.19141 -1228.72144 40.61319 499
2483.13354 -1196.74316 -43.79097 480
2575.50220 -1242.81616 -5.17968 499
2577.66626 -1244.28870 40.69723 499
2532.55029 -1240.67529 -47.75194 483
2568.30322 -1258.51538 -5.13868 499
2570.65259 -1259.41907 40.09761 499
2588.13159 -1287.54431 -52.34827 440
2528.97241 -1257.64172 -3.17127 482
2564.04443 -1275.85510 40.29231 464
2562.70605 -1293.87158 -5.30154 448
2565.14111 -1295.24988 40.04060 461
2528.39941 -1314.56738 86.10533 406
1250.19385 -1558.53137 -27.30029 470
1254.40735 -1563.27710 4.36041 423
1239.25317 -1563.51001 -27.20437 496
1242.00110 -1566.97351 4.30974 496
1244.43213 -1570.70825 36.16251 473
1234.17175 -1576.82581 -27.77907 365
5370.50830 -20347.61328 111.93816 1000
438.04364 -1652.87048 -7.86228 343
426.43689 -1649.91602 -7.10552 482
416.06924 -1649.06079 -6.97551 483
417.96262 -1659.29089 20.03731 410
404.88638 -1644.84082 -6.65827 485
404.62311 -1644.02039 21.05471 482
394.70175 -1647.66370 -6.62090 472
394.03613 -1642.63428 21.22125 485
384.32431 -1647.25525 -6.10986 481
383.41190 -1642.49866 21.47209 485
373.79358 -1647.05396 -6.29346 481
372.97348 -1641.73279 21.55864 486
372.98218 -1643.05798 48.98781 482
363.44800 -1646.30505 -5.86546 481
362.42456 -1641.48877 22.06672 486
362.44131 -1642.54541 49.44800 487
352.67838 -1645.93152 -5.56142 482
352.05432 -1640.83594 22.02989 486
352.18173 -1641.95422 49.38584 487
342.45963 -1645.45068 -5.65450 482
340.85904 -1636.13049 22.48914 486
341.79388 -1641.34033 49.19690 487
332.14215 -1645.02063 -5.21982 482
330.97180 -1638.08984 22.32944 484
331.40002 -1640.90320 49.54869 487
321.73062 -1644.45947 -5.00041 483
320.59396 -1637.65210 22.57950 483
321.23370 -1640.69214 49.76463 488
311.58981 -1643.99536 -5.14782 483
310.74597 -1637.25122 22.91089 483
310.87061 -1640.11670 49.53746 488
301.18127 -1643.32312 -4.81288 482
300.39136 -1636.53015 22.85821 484
300.78989 -1639.59900 49.70461 488
290.70309 -1643.04749 -4.55193 483
290.25879 -1636.07898 23.18019 484
290.55557 -1639.21448 50.02858 489
280.59262 -1642.48376 -4.34008 483
279.92194 -1635.44653 23.15133 484
280.27386 -1638.48474 49.87379 489
270.61523 -1641.76160 -4.57948 483
269.58487 -1635.09167 23.36519 484
270.06256 -1638.26221 50.08745 489
259.99805 -1641.42822 -4.34970 483
259.32263 -1634.27368 23.60431 485
259.99890 -1637.96558 50.21071 489
249.94920 -1641.10852 -4.02255 467
249.24060 -1633.61475 23.63439 485
249.49583 -1637.38513 50.49017 490
239.72668 -1640.57178 -4.25335 467
239.24887 -1633.18201 23.36620 485
239.28102 -1636.95471 50.58136 490
229.88626 -1640.61890 -3.84980 467
228.95605 -1632.78601 23.54480 485
229.22159 -1636.27612 50.57835 490
219.55873 -1640.31128 -3.84263 467
219.13075 -1632.12366 23.95557 486
219.32301 -1635.66943 50.51127 490
209.46497 -1640.15710 -3.81872 467
208.87775 -1631.69446 24.11212 486
209.31908 -1635.44519 50.65367 490
199.38707 -1639.97070 -3.66454 468
198.78221 -1631.05566 23.96706 486
199.08922 -1634.74170 50.83270 490
189.29195 -1639.98596 -3.76691 468
188.93790 -1630.51135 24.13806 486
189.20493 -1634.57056 50.52212 489
179.36560 -1639.95862 -3.40587 468
178.91026 -1629.89062 24.06329 486
179.03941 -1634.08069 50.88863 489
169.28621 -1639.59961 -3.60036 468
168.51974 -1629.67896 24.43621 486
169.08936 -1633.34216 50.87846 489
159.21220 -1639.38757 -3.48137 468
158.67281 -1629.11646 24.33683 487
158.78136 -1632.98645 50.82402 489
149.06030 -1639.65308 -3.45892 468
148.59566 -1628.65723 24.47000 487
149.04395 -1632.45996 50.94672 489
139.00032 -1639.12488 -3.47221 468
138.86995 -1628.14124 24.19330 487
138.87538 -1632.28723 50.73787 490
128.90041 -1639.30176 -3.28831 468
128.64307 -1627.39307 24.31923 487
128.66608 -1631.43359 51.18695 490
118.83720 -1638.85461 -3.18957 468
118.65491 -1626.87354 24.50997 487
119.06634 -1631.31750 51.16495 485
109.02962 -1638.96191 -3.11730 468
108.90667 -1626.39587 24.56855 470
109.00163 -1630.39990 51.22187 497
98.91588 -1638.88013 -3.28889 468
98.68217 -1625.92871 24.71821 469
99.12072 -1629.80518 50.94718 498
88.95612 -1638.53528 -3.34269 467
89.01363 -1625.50232 24.57185 469
88.87884 -1629.15308 51.24680 498
78.77959 -1638.05310 -3.22547 456
79.11584 -1625.20142 24.58477 469
78.80166 -1628.52527 51.18394 498
68.75832 -1637.82336 -3.15857 456
69.24546 -1624.59070 24.64094 469
68.89674 -1628.24182 51.38046 498
58.98915 -1637.80798 -2.95125 456
59.00716 -1623.91895 24.56513 469
59.02346 -1627.63428 51.28236 498
58.90738 -1635.25928 77.62267 499
48.94818 -1637.94470 -3.27394 456
49.19411 -1623.21167 24.77440 469
49.29819 -1627.53027 51.34400 498
48.80856 -1635.74915 77.65342 499
38.96923 -1637.51978 -3.04402 456
39.13168 -1623.08850 24.60330 469
39.46562 -1626.75049 51.50224 499
38.84951 -1635.16248 77.86087 499
28.99372 -1637.62622 -2.95989 456
29.20568 -1622.57471 24.87005 469
29.13581 -1626.20276 51.27263 498
29.16841 -1634.89404 77.54732 499
18.71766 -1637.57910 -3.27955 456
19.63425 -1621.99731 24.95402 469
19.52866 -1625.79675 51.27584 498
19.21939 -1634.78833 77.71792 499
8.75442 -1637.74658 -2.94788 456
9.70202 -1621.60046 24.74018 458
9.20838 -1625.69861 51.16225 497
9.20311 -1633.99109 77.80987 499
-1.38091 -1637.62854 -3.00913 456
-0.30700 -1621.61230 24.86613 458
-0.57911 -1625.65759 51.52802 497
-1.15586 -1633.92615 77.58521 499
-11.25203 -1637.69080 -3.41593 456
-10.26135 -1622.18750 24.91298 459
-10.59336 -1625.71960 51.23986 494
-11.16625 -1634.17432 77.91138 495
-21.50382 -1638.24475 -3.17273 455
-20.06590 -1622.68066 24.67953 459
-20.68953 -1626.83899 51.16407 494
-21.03383 -1635.23206 77.64070 493
-31.55982 -1639.22058 -3.49124 451
-30.44098 -1623.45459 24.45646 457
-30.62408 -1628.03943 51.19070 490
-31.39697 -1636.98914 77.64296 493
-41.63507 -1641.10938 -3.86645 450
-40.25228 -1625.12573 24.35808 457
-40.54276 -1629.77808 51.17743 490
-41.55848 -1638.21289 77.68697 493
-51.81186 -1642.98975 -3.82660 446
-50.66543 -1626.45837 24.46339 452
-50.86856 -1631.85461 50.88318 485
-52.11202 -1646.58508 77.23097 400
-62.15623 -1644.96301 -4.14518 435
-60.50283 -1627.92493 24.30883 452
-61.23009 -1634.00256 50.80502 485
-63.24822 -1656.39587 76.80709 410
-72.52364 -1647.37561 -4.61933 437
-70.92910 -1630.25366 23.96488 447
-71.65710 -1636.17944 50.38798 481
-83.20338 -1650.09668 -4.77521 436
-81.02563 -1632.13770 23.85924 444
-81.82323 -1638.75757 50.32789 481
-93.66479 -1653.26746 -4.94497 436
-91.42762 -1634.89600 23.39185 444
-92.21237 -1641.17590 50.39383 481
-103.90391 -1655.82666 -5.29505 427
-102.20172 -1637.52197 23.38120 443
-102.61708 -1643.78345 49.83848 480
-114.85206 -1659.24622 -5.64699 427
-112.52402 -1640.35608 23.08568 438
-113.29058 -1647.20422 50.01679 477
-125.60918 -1662.81128 -6.13473 426
-123.20965 -1643.80701 22.63108 438
-123.71024 -1650.36084 49.37791 476
-136.31108 -1666.15344 -6.71888 428
-133.88432 -1646.81396 22.48376 437
-134.39406 -1653.57446 49.27382 470
-147.48511 -1670.23303 -7.16814 424
-144.61740 -1650.52783 22.29515 434
-145.23134 -1657.58008 49.30717 469
-158.40182 -1673.69312 -7.43619 426
-155.34375 -1654.27502 21.93027 434
-156.33167 -1661.76660 49.00740 456
-169.38316 -1678.35376 -7.83352 419
-166.32401 -1658.31531 21.54004 428
-167.66289 -1666.72729 48.33322 456
-180.51682 -1683.23010 -8.25250 422
-177.51421 -1663.17346 20.72412 427
-179.00697 -1671.66980 48.21109 446
-191.80939 -1688.23193 -9.16753 417
-188.44815 -1667.92273 20.69706 423
-190.39323 -1677.58350 47.61702 445
-203.35300 -1694.07349 -9.73705 416
-200.26996 -1673.47083 20.06482 423
-201.84267 -1683.09473 47.32954 445
-215.07585 -1699.07666 -10.20900 427
-211.37108 -1678.77075 19.43053 422
-213.47977 -1688.59973 47.16569 441
-223.08934 -1684.21423 19.30851 421
-225.13057 -1694.21252 46.65976 426
-234.88832 -1689.67627 18.51564 420
-236.74532 -1700.56641 46.51703 426
-246.53404 -1695.13721 18.05400 420
-249.12691 -1706.92285 45.65067 424
-258.69223 -1700.48596 17.60280 416
-261.50397 -1714.26831 45.61588 403
-270.43414 -1706.82043 17.02131 418
-273.80420 -1721.32263 44.78349 399
-282.83948 -1713.12085 16.45977 410
-286.41559 -1729.55420 44.33545 384
-295.57132 -1720.19336 15.88218 421
-299.24390 -1737.40222 43.77646 380
-308.44144 -1727.58362 15.29461 429
-321.27350 -1735.06799 14.75258 413
-1505.85669 -3234.18066 71.39281 471
-1505.51733 -3235.05615 131.28824 424
-1506.80103 -3236.55322 189.45657 360
-1964.64014 -2678.70483 76.45835 321
-26062.95703 -24109.35742 -3965.38354 1000
-26147.22461 -24187.64648 -2799.34082 1000
-2415.06592 -2119.04004 78.43334 499
-2414.59521 -2117.50562 131.93678 499
-2413.37451 -2116.50879 185.71199 499
-2412.12646 -2115.67822 238.69028 491
-42058.15625 -25045.49609 4958.63623 1000
-5475.14307 -2903.96826 132.56435 490
-4931.66699 -2428.10645 132.67848 488
-4398.68945 -1970.00085 132.57372 486
-257.54794 -74.80106 35.43709 321
-255.52365 -72.16596 36.11578 321
-253.53529 -69.48970 36.74110 322
-273.72354 -73.61131 37.79493 318
-253.72581 -67.30556 36.83300 352
-271.53195 -70.87082 38.50381 321
-255.53748 -65.55235 36.44054 351
-270.08527 -68.22211 38.96901 345
-291.28870 -72.25243 40.28541 318
-4386.94873 -844.17517 961.83264 1000
-257.40631 -63.58960 36.04453 351
-271.86343 -66.25000 38.62853 345
-289.36816 -69.39074 40.93121 318
-259.35306 -61.69007 35.60434 350
-273.83795 -64.31989 38.22278 347
-289.89911 -67.04784 40.84293 341
-261.40793 -59.88582 35.13967 326
-275.79401 -62.26093 37.75738 346
-291.74554 -64.94866 40.53349 341
-267.02271 -58.52726 33.63924 320
-281.24609 -60.84990 36.48521 323
-273.39856 -57.27551 31.98126 319
-197.00337 -10.87653 53.37481 324
-196.97807 -9.07364 53.37249 324
-196.96201 -7.30639 53.37857 324
-196.97063 -5.50754 53.33673 324
-196.99237 -3.67694 53.36160 324
-18733.22852 -268.69360 748.59399 452
-196.92807 -1.85934 53.32691 324
-18675.16406 -154.47954 747.30817 457
-18648.46484 -153.63062 1052.66736 453
-196.93073 -0.06547 53.37561 324
-18621.65430 -40.61800 744.34082 463
-18625.54492 -38.49074 1050.13586 341
