# .PCD v.7 - Point Cloud Data file format
VERSION .7
FIELDS x y z rgb
SIZE 4 4 4 4
TYPE F F F U
COUNT 1 1 1 1
WIDTH 1274
HEIGHT 1
VIEWPOINT 7222.633789 -334.218292 128.800140 -0.679251 -0.099705 -0.093746 0.721033
POINTS 1274
DATA ascii
-18828.07422 76.64147 455.30209 466
-18778.03516 189.11214 455.48862 466
-18729.74023 306.29468 455.80737 467
-18684.31250 417.72275 452.90353 468
-18636.06836 533.93573 452.95758 468
-18585.04297 645.39386 451.16489 469
-18541.80469 760.06964 453.85126 469
-18492.44531 871.50916 450.65585 470
-18448.72461 985.03406 449.48477 470
-18399.81250 1097.83533 450.31824 471
-18351.30469 1204.45288 447.96454 471
-18308.55859 1314.42737 447.69458 471
-18262.61914 1426.54407 448.91446 472
-20072.18359 1565.25769 807.93201 423
-18213.46094 1535.89661 448.52667 472
-20014.94141 1689.29004 808.30450 406
-18171.91211 1643.53333 447.69199 473
-19959.63086 1806.20374 806.59143 406
-18125.93750 1754.39978 445.57669 473
-18105.18164 1754.32568 743.88947 293
-18080.75000 1863.65210 443.61084 474
-18052.37891 1857.77100 741.46619 298
-18032.35352 1969.15491 445.70694 474
-17996.42969 1965.05237 740.18616 299
-17990.05469 2077.12451 443.14258 474
-17944.41211 2074.15552 739.83124 299
-17945.46094 2184.99072 444.04416 475
-17897.31445 2177.14575 740.62653 299
-17899.67188 2290.65527 440.42435 475
-17841.66797 2283.48950 736.54559 299
-17853.92969 2397.61914 442.49600 476
-17792.34961 2388.73804 733.87341 418
-17809.76172 2501.33545 442.85455 476
-17748.71875 2496.15063 731.94849 418
-18507.09375 2600.51343 1069.34338 476
-17763.06641 2609.89795 441.24017 476
-17702.59180 2600.59351 732.88959 418
-18435.52539 2709.92407 1064.68799 477
-17721.32227 2713.79517 441.29581 477
-17656.91406 2702.84497 734.17072 418
-18371.34375 2812.42529 1063.01880 478
-17679.87305 2819.55444 439.30035 477
-17609.27734 2806.81592 731.72406 419
-18300.00781 2918.73657 1058.32617 478
-17635.40430 2923.15503 437.36026 477
-17566.61523 2911.80005 730.87000 419
-18235.07031 3022.67896 1058.24805 479
-279.75790 63.72665 38.68340 346
-295.95786 66.43703 41.43739 341
-17588.31641 3025.59570 438.99670 478
-17522.87891 3017.98853 730.89850 419
-18167.53906 3128.32764 1054.05261 479
-277.79102 65.70306 39.07624 345
-294.29565 68.60633 41.64447 319
-4519.51660 818.48804 58.42619 498
-4532.01855 820.58179 135.04221 476
-17544.17383 3131.85254 435.72144 478
-17475.20117 3118.82812 727.53247 419
-18099.78906 3229.99561 1051.49915 480
-275.91812 67.67181 39.41566 345
-298.51740 71.89024 40.58021 258
-17504.82227 3233.59033 436.04553 478
-17430.06836 3223.30786 727.52490 420
-18037.69336 3333.76318 1048.48096 481
-276.35684 70.05152 39.27779 321
-17460.14062 3338.55225 434.08481 479
-17388.40820 3324.14307 725.87604 459
-17985.97656 3437.94971 1049.90027 493
-278.31549 72.85001 38.68287 318
-17417.66992 3440.09863 437.46173 479
-17346.88867 3426.45972 726.48853 459
-17936.49805 3545.51514 1044.23047 494
-17374.15430 3543.51782 434.41003 479
-17301.13281 3532.43311 723.61316 460
-17893.46875 3650.97388 1045.01367 494
-17328.51172 3650.52002 434.49774 480
-17255.45703 3634.61743 724.87103 460
-17848.59961 3754.74902 1045.63220 494
-17287.39258 3751.73389 431.73291 480
-17212.26367 3736.86646 721.40594 495
-17802.98438 3863.03223 1042.16785 494
-56550.25391 12227.89746 4917.69678 1000
-53962.55078 11672.79395 8368.11035 1000
-17241.27539 3852.92993 434.02206 480
-17174.32812 3838.00464 720.02185 495
-17753.86328 3964.69067 1041.91113 495
-17202.10156 3955.85791 434.79053 480
-17129.90039 3937.71216 719.81934 495
-17603.25781 4049.68994 1032.61597 496
-17156.51172 4053.90625 431.21066 481
-17087.77734 4039.32031 722.04309 495
-17561.81641 4150.42236 1032.52991 493
-17113.92383 4158.14355 431.77701 481
-17046.34961 4139.86621 720.92310 495
-17518.68555 4256.62061 1033.69104 494
-17658.31055 4288.33203 1339.15076 495
-17070.57422 4257.46729 430.65222 481
-17001.78516 4240.83350 720.62354 495
-17469.86133 4356.57617 1031.24634 489
-17612.90234 4396.03564 1337.22729 496
-17788.42188 4438.39258 1652.42004 363
-17029.60156 4359.21582 431.00143 481
-16963.64258 4344.98438 719.76984 496
-17424.27148 4462.03076 1031.26611 489
-17569.40430 4500.16406 1337.25537 496
-17700.60352 4531.19629 1648.43274 400
-16989.90234 4463.02539 431.15067 481
-16919.69336 4441.58154 716.25183 496
-17482.17578 4592.64160 1034.76953 434
-17480.33008 4590.84424 1334.21924 434
-16944.56836 4559.74316 431.07068 482
-16880.73438 4546.82861 714.84424 496
-17360.23828 4673.82031 1029.31677 435
-17357.03711 4674.63379 1323.40015 435
-16902.18555 4665.25293 431.93631 482
-16836.46680 4643.77246 715.25946 496
-17235.25977 4755.43164 1025.80115 436
-17232.48633 4752.40918 1319.96533 436
-16858.56641 4765.64941 427.23547 482
-16796.86719 4747.19775 713.86670 496
-17141.71875 4844.28760 1022.65973 497
-17140.56836 4844.26172 1314.79248 497
-17289.79883 4884.88672 1621.06763 352
-16820.01953 4865.13037 428.62466 482
-16752.17969 4846.39844 713.17145 497
-17071.95703 4938.01904 1018.40222 497
-17067.55469 4933.65869 1313.07178 497
-17227.95898 4982.38428 1620.44507 390
-17870.86523 5169.55322 1980.00354 468
-17871.76172 5168.65869 2291.33984 467
-17872.51758 5169.92090 2600.15161 467
-17872.47070 5171.16846 2912.41040 479
-16775.52148 4962.49854 429.09155 482
-16710.91797 4943.06543 715.84827 497
-17023.28906 5038.49512 1017.06726 497
-17023.26367 5036.31006 1308.57385 497
-17183.32422 5081.98584 1620.03699 390
-17403.87109 5148.92969 1938.57397 484
-16733.12305 5061.48242 430.71036 483
-16671.18359 5044.51953 712.88751 497
-16980.15430 5137.42822 1015.68225 498
-16977.65039 5138.90381 1307.58044 497
-17135.24219 5188.07812 1616.46545 390
-17359.38672 5254.49805 1934.44690 484
-16690.17969 5164.25098 426.06845 483
-16629.94336 5142.40283 712.29218 497
-16937.42578 5239.94434 1016.12225 498
-16936.33984 5241.53711 1306.34277 498
-17089.93945 5286.65918 1612.59497 390
-17314.05664 5356.31641 1936.80322 484
-16651.58203 5264.60498 429.09729 483
-16589.14844 5242.48584 714.49860 497
-16894.71484 5338.99268 1016.42450 498
-16893.60352 5341.29736 1308.88550 498
-17042.85938 5389.60840 1615.40198 390
-17270.65625 5459.80469 1931.82532 484
-16611.03125 5362.57031 427.42606 483
-16544.35547 5343.92285 709.91541 497
-16849.87109 5440.27295 1012.74524 498
-16850.57031 5438.83691 1306.74963 498
-16999.53711 5487.38525 1609.83240 390
-16567.07422 5460.23291 427.34396 483
-16506.96875 5441.43115 714.34460 497
-16806.83398 5541.23291 1016.08423 498
-16805.70898 5541.93311 1307.47510 498
-16953.11719 5589.06152 1612.20483 390
-16522.75977 5561.25830 425.17728 483
-16465.88477 5540.41211 710.17078 498
-16794.50586 5652.63965 1015.29242 498
-16792.97852 5653.97119 1306.58325 498
-16905.93164 5691.28857 1609.81970 390
-16484.04492 5660.75293 426.91516 483
-16422.94336 5640.81104 713.27747 498
-16747.97461 5753.89111 1015.00385 498
-16747.20312 5754.73682 1307.58887 498
-16864.40820 5791.10107 1609.09473 390
-16443.71094 5760.37256 425.20102 491
-16378.81738 5739.25098 711.12231 498
-16541.46094 5797.79199 1003.51556 481
-16490.61523 5779.57129 1292.36157 392
-16818.15430 5892.18359 1607.48059 391
-16402.13867 5857.73779 424.73413 491
-16341.51270 5839.14551 710.04645 498
-16663.95312 5952.20703 1011.07880 499
-16658.14062 5955.33887 1305.69055 498
-16771.41797 5993.62793 1606.97534 391
-16358.24902 5959.75537 425.48868 491
-16296.40723 5936.87549 710.94434 498
-16615.89844 6051.01758 1013.55945 499
-16617.95117 6055.92383 1304.12842 499
-16724.21875 6093.53027 1604.05176 382
-16318.77246 6056.31787 427.79929 491
-16259.65527 6036.90332 710.83624 498
-16573.28906 6153.95654 1014.09399 499
-16570.65820 6155.44189 1303.82239 499
-16692.72461 6195.99756 1604.51855 367
-16249.60352 6149.09717 420.59222 492
-16217.56348 6133.96338 710.81128 498
-16590.39258 6277.23145 1013.14618 467
-16590.32812 6274.60693 1309.54919 467
-16725.88086 6327.34912 1614.94373 367
-16235.34668 6254.27686 425.11313 492
-16173.38281 6235.18311 708.49036 498
-16594.54297 6393.06396 1016.50452 482
-16606.75781 6400.21582 1311.72742 466
-16757.89062 6456.67139 1617.52856 366
-16193.60742 6353.47119 425.48691 492
-16135.90430 6332.99805 711.41614 498
-16587.92188 6507.78516 1021.22400 482
-16625.48828 6526.96240 1313.36511 466
-16149.94141 6455.70166 425.97070 492
-16095.56055 6430.10938 708.70294 498
-16575.77148 6625.85498 1019.58716 481
-16632.23633 6644.18311 1316.84387 480
-16108.07520 6555.52588 425.93854 492
-16049.67773 6532.20654 708.55255 498
-16567.98242 6738.23535 1020.73950 481
-16067.02148 6653.20850 424.99332 492
-16013.31543 6629.40479 706.34406 498
-1712.05920 755.37976 37.20017 364
-16026.86230 6751.87500 426.73199 492
-15968.13379 6726.51172 709.02637 498
-1699.32751 762.69281 37.25613 496
-1703.31299 764.39752 68.99197 472
-1709.63892 767.53748 100.99327 443
-15985.66895 6849.31934 426.56570 492
-15928.97363 6828.00928 710.82098 498
-1696.00122 774.38232 37.57117 470
-1700.64978 776.51624 68.86237 470
-1705.14075 778.41888 100.74162 433
-15943.41211 6947.50684 422.83173 492
-15886.81055 6925.08643 706.83813 498
-15906.01660 7049.20410 423.97351 492
-15846.91113 7021.32568 710.53754 498
-15863.06934 7148.78027 425.93216 492
-15803.17383 7121.14307 709.05322 498
-15822.89062 7245.10498 424.11807 492
-15765.11914 7220.17188 709.14130 498
-15780.17578 7345.42676 422.74142 491
-15721.81152 7317.79736 709.54779 498
-15740.23535 7442.28174 422.35706 491
-15682.61523 7419.89258 709.19360 498
-15696.79590 7543.61914 426.26025 491
-15642.18359 7516.38721 710.68982 498
-15653.13965 7641.90381 423.73013 491
-15600.24902 7613.69678 710.60046 498
-15611.14941 7742.20361 424.05536 491
-15556.88770 7717.06494 707.27765 498
-15570.45605 7838.86865 424.59592 491
-15519.25781 7813.92236 708.81653 498
-45194.22266 23013.09375 -4856.13672 1000
-15531.87012 7941.34180 426.07690 491
-15473.45605 7911.98047 710.41571 497
-15490.54297 8038.93213 421.71552 491
-15434.83789 8012.81152 709.08893 497
-15448.63574 8140.65869 425.19980 491
-15394.47559 8112.53955 708.95612 497
-15403.13867 8239.92578 421.59650 491
-15350.55371 8211.25684 710.12885 497
-15363.60645 8338.85254 423.17599 490
-15311.55078 8310.94336 708.18988 497
-15320.26855 8438.58789 425.29791 490
-15268.04199 8408.57812 707.48633 497
-15279.18262 8540.16406 426.13000 490
-15225.85254 8509.92969 710.45203 497
-15238.25488 8639.01270 424.32529 490
-15182.74707 8607.55859 712.34222 496
-15198.17578 8742.37305 424.31174 490
-15142.53418 8709.98340 712.12976 496
-15152.59863 8840.11914 423.32352 490
-15101.34668 8810.56934 709.27692 496
-15111.57812 8943.08301 424.97702 489
-15060.13965 8908.54883 713.65698 375
-15071.65039 9039.54688 423.98581 489
-15018.15918 9009.75879 714.31543 375
-2934.09131 1829.37073 74.91978 315
-3104.40723 1932.22107 133.32454 286
-15026.14160 9144.58008 426.50754 489
-14979.10156 9111.82812 714.57947 375
-2861.61377 1810.62756 76.01212 337
-3114.22852 1965.82312 132.72955 312
-14983.59277 9244.31250 427.18890 489
-14936.82227 9213.12012 712.90076 375
-2806.72900 1801.38013 77.52637 350
-3112.78979 1991.33899 133.10228 363
-14940.65430 9346.23242 426.38535 489
-14894.47461 9314.40527 713.35962 374
-2758.75781 1795.90674 77.98130 360
-3101.32056 2012.46606 133.01810 313
-14901.80664 9446.44434 425.74725 488
-14853.44336 9416.69141 715.72784 374
-2713.26392 1791.89197 78.75921 361
-2873.22290 1893.43054 133.34682 363
-14866.76270 9552.60547 423.75620 471
-14812.12109 9519.44922 711.97076 374
-2669.85962 1787.27051 79.07410 363
-2847.50244 1902.90332 132.42989 421
-14837.67285 9662.87598 427.01984 471
-14773.40137 9626.18066 712.68115 493
-2626.98120 1783.42029 79.23256 364
-2831.47876 1917.26624 133.05768 426
-14808.06641 9776.69141 424.48584 471
-14731.95996 9731.03027 716.29639 492
-2584.99365 1779.19312 79.98754 351
-2733.76416 1878.77856 133.04063 367
-14775.63086 9886.31641 427.23029 471
-14696.93066 9832.20898 716.92255 492
-2544.18164 1775.73218 80.34225 352
-2631.44336 1835.27966 132.78906 368
-14745.91992 9997.58984 425.42215 471
-14656.59277 9941.01270 715.72144 492
-2504.83008 1772.90442 81.67428 353
-2609.04663 1844.37146 133.18970 499
-14718.39355 10114.12598 426.29947 470
-2715.35107 1917.08362 243.55884 372
-2465.90137 1769.05798 81.70387 354
-2611.86035 1870.46265 132.99359 464
-2691.53882 1925.85535 188.47472 364
-2679.09863 1916.63525 243.17270 378
-2427.95654 1766.32654 82.48247 356
-2609.56836 1893.60388 132.34813 467
-14662.19434 10343.45410 429.07379 432
-2692.70508 1951.78174 244.07014 376
-2391.11523 1762.71558 82.94624 357
-2607.67603 1916.95947 132.42336 467
-14656.82422 10473.50684 432.21457 431
-2527.95361 1860.37402 237.50833 383
-2355.12500 1759.75513 83.68416 358
-2604.80371 1940.31458 133.09044 466
-14652.58301 10609.22461 429.72684 430
-2517.97559 1877.33179 237.92329 466
-2363.82178 1789.02051 33.48731 356
-2319.30298 1757.13708 84.12971 359
-2603.15186 1963.29248 132.39331 465
-14648.66211 10742.76562 431.44943 409
-14505.97363 10639.77344 724.91913 476
-40408.06250 29527.73438 10963.49023 1000
-2346.62866 1799.44214 33.12346 456
-2294.06836 1761.03320 84.39153 416
-2600.13599 1987.34851 132.48566 468
-14649.60938 10882.40723 433.26859 408
-14481.70801 10756.82422 726.44775 475
-2344.42896 1821.59607 32.78049 455
-2274.86011 1769.81421 84.38617 379
-2597.34326 2010.68408 132.85666 467
-14666.81055 11037.63086 433.45944 383
-2517.36084 1950.72510 239.39998 356
-2574.94800 2019.41455 77.53742 363
-14691.54883 11195.12402 435.44751 382
-14450.00684 11012.78223 731.80933 424
-2299.61548 1834.39502 34.22985 368
-2334.15454 1860.78113 82.95433 365
-14788.52539 11415.19531 442.33331 287
-14461.28320 11164.60840 732.78760 421
-2499.91455 2012.81177 78.74047 366
-14475.53320 11316.15527 736.60236 420
-2332.95044 1907.54260 81.98864 365
-2331.86768 1906.37463 132.75690 365
-14487.69629 11469.94336 742.51013 419
-2427.45972 2006.92896 79.97007 368
-14501.92383 11629.34375 746.25562 366
-2391.55176 2003.43848 80.18989 369
-2314.32642 1941.37451 132.82594 387
-2343.46631 1989.59851 80.94152 388
-2323.69238 1997.42175 81.00648 371
-2290.31958 1994.55273 81.28117 425
-2268.60547 2002.10242 81.49162 376
-2252.39185 2012.66748 81.47701 345
-25287.81055 40987.14062 -664.00275 1000
-30648.75391 53214.40234 -11060.42969 1000
-2004.94873 5819.70557 -1311.38672 1000
-5518.41064 17575.33008 -1994.34802 1000
178.53197 432.30975 14.44262 303
180.11847 426.67188 15.76931 376
180.64516 428.72443 22.83679 375
181.08011 430.88840 29.98974 375
181.68414 434.03036 36.82266 304
182.31552 423.56393 16.52877 436
182.60019 425.07651 23.64721 436
182.84694 426.57681 30.85626 436
183.26871 428.00552 37.97232 436
183.62097 430.00470 44.99942 376
184.29663 433.10553 51.88066 370
184.88139 436.31543 58.75665 305
184.46533 421.20978 16.97611 478
184.76044 422.47836 24.17021 478
185.07390 423.70679 31.40051 478
185.35945 425.17804 38.49728 437
185.70680 426.63498 45.57684 437
186.07791 428.69617 52.59171 442
186.31274 429.73254 59.82305 430
186.66609 431.25238 66.91169 431
187.04921 433.25534 73.99386 346
187.85361 436.47702 81.01901 300
186.89684 419.50439 17.32691 478
187.13278 420.86890 24.45354 479
187.43091 422.08313 31.68995 479
187.74287 423.34314 38.84293 479
187.98003 424.58829 45.89451 479
188.35341 426.08374 53.05634 448
188.53366 427.05905 60.16634 484
188.73027 428.28223 67.29090 479
189.07130 429.66428 74.49953 432
189.38197 431.13248 81.58100 432
189.71919 432.62457 88.75452 432
189.30588 418.40640 17.51732 497
189.56291 419.58749 24.61338 498
189.83046 420.80582 31.82420 498
190.09268 421.95505 38.95579 498
190.33704 423.07553 46.07592 498
190.74429 424.79819 53.11972 499
190.92078 425.57266 60.29782 485
191.29982 427.14877 67.40469 385
191.80969 429.44016 74.37708 493
191.66951 428.92953 81.74039 479
191.97601 430.17276 88.89069 479
192.62747 432.95193 95.98722 425
191.82491 417.55798 17.48510 497
192.09152 418.80914 24.68741 498
192.39764 419.95877 31.91698 498
192.59538 421.07297 39.01629 498
192.94781 422.29202 46.19878 499
193.39032 423.98157 53.23390 499
193.45044 424.59387 60.42004 495
193.77141 425.76807 67.52039 495
194.04216 426.95764 74.64577 496
194.29340 428.18832 81.80753 498
194.61093 429.41385 88.95269 497
195.21710 431.96317 95.92025 448
194.44209 417.20551 17.41391 492
194.70885 418.44922 24.59830 492
195.02716 419.65295 31.77774 492
195.34288 420.90323 38.93793 493
195.60938 422.05630 46.05347 493
195.93439 423.38074 53.11505 470
196.16830 424.44849 60.31917 495
196.45728 425.65848 67.47379 492
196.78793 426.80038 74.61057 492
197.11499 428.16525 81.76025 463
197.38634 429.48187 88.83437 462
198.22646 432.58548 95.92677 372
197.24002 417.20584 17.35820 491
197.53317 418.36407 24.45967 492
197.76630 419.62268 31.70013 492
198.11110 421.00943 38.73442 462
198.47879 422.38254 45.91599 462
198.92851 424.08057 52.89345 474
199.12791 425.17868 60.08681 455
199.48685 426.38358 67.23710 462
199.88544 427.88589 74.35523 412
200.25826 429.59360 81.46709 411
200.72131 431.58246 88.52531 397
200.00705 417.78638 16.90343 461
200.39772 419.17035 24.12806 462
200.71643 420.53751 31.30414 462
201.14470 421.89255 38.41984 462
201.48814 423.34860 45.48755 412
202.09258 425.50714 52.58138 395
202.32295 426.57312 59.71864 353
202.99416 429.43906 66.67100 300
203.96066 432.85495 73.55693 272
203.10146 418.67340 16.49371 461
203.54083 420.39032 23.62250 411
204.02031 422.24124 30.77411 411
204.44264 423.95706 37.81581 413
204.99072 425.89633 44.83975 345
206.37091 431.19833 51.39439 279
206.45221 421.00720 15.70111 412
206.97273 422.81454 22.89940 344
207.63315 425.66608 29.76206 344
209.15408 431.38895 36.00650 269
210.41809 425.37820 14.24158 343
12621.97949 36672.27344 -505.91684 1000
1126.41650 1516.47327 40.68505 322
1130.81921 1502.73157 40.73210 414
1139.44434 1495.51831 41.20678 414
1148.00842 1488.37744 40.75041 414
1162.14893 1507.96533 70.08596 307
1157.11719 1481.52148 40.98176 414
1170.13403 1499.78345 70.08137 404
1165.62000 1474.58850 41.10901 414
1178.39709 1491.61450 70.15730 404
1221.94250 1531.95923 6.02053 268
1174.53772 1467.64478 40.90022 414
1186.49756 1483.52966 70.26649 418
1212.85938 1499.90979 7.68301 269
1183.57751 1460.86877 40.93445 414
1194.95264 1476.20972 70.52192 436
1204.63562 1470.87061 9.79593 456
1192.37634 1454.61340 41.16064 499
1202.77185 1468.01501 70.40168 436
1214.39026 1464.60449 9.78470 446
1201.87439 1448.18042 40.95825 499
1211.46057 1460.90576 70.52873 463
1223.95471 1458.21106 9.54178 456
1210.88147 1441.74048 41.04773 499
1220.43970 1453.58777 70.47140 463
1233.72070 1452.43665 9.37302 456
1220.25439 1435.58118 41.11597 499
1229.09802 1446.51819 70.43279 463
1243.33203 1445.86072 9.27849 447
1229.91846 1429.24268 40.99547 406
1238.00598 1439.60132 70.29350 462
1252.44873 1439.77673 9.48889 447
1239.24756 1423.38611 40.74846 406
1246.91028 1433.25000 70.37193 462
1261.89551 1433.51880 9.35430 444
1248.79041 1417.02600 40.58082 406
1256.34924 1426.02063 70.41223 462
1271.80835 1427.29736 9.50988 443
1257.84937 1410.77905 40.94246 406
1265.24097 1419.24622 70.60001 480
1281.52356 1421.71729 8.91548 437
1268.00806 1404.95190 40.76537 414
1274.70825 1413.08386 70.20586 487
1397.69214 1560.14453 97.02251 372
1291.72034 1416.29614 9.25077 437
1277.53906 1399.31970 40.59093 414
1283.88477 1406.51892 70.07858 487
1394.94568 1537.43372 97.58004 373
1302.13257 1410.56506 8.72824 436
1287.91614 1393.82776 40.51104 393
1293.24536 1400.12073 70.15996 489
1391.42102 1514.31165 97.68915 374
1313.04126 1405.22559 8.49972 432
1297.84265 1388.31421 40.19978 416
1303.65991 1394.39917 70.43570 488
1389.08997 1493.15344 98.43213 375
1323.46936 1400.27686 8.51220 432
1308.53638 1383.28699 39.96296 407
1313.31567 1388.86414 69.97107 486
1386.57520 1471.94812 98.51801 376
1334.07068 1394.99744 8.43637 432
1319.27197 1378.14331 40.11426 406
1324.15442 1383.70667 70.12252 486
1383.59302 1450.37402 98.74297 377
1345.26282 1390.27087 8.01309 434
1329.99158 1373.05664 39.62397 415
1334.66797 1378.50537 69.84370 483
1381.23071 1430.35535 99.31336 379
1356.42639 1385.15320 7.53039 433
1341.15112 1368.75598 39.85232 415
1345.51489 1373.58447 69.71536 482
1378.57080 1409.52869 99.23409 380
1367.73071 1380.67786 7.34021 425
1352.18762 1363.73340 39.46252 438
1356.81189 1368.93835 69.59164 482
1375.87842 1389.56042 99.79320 381
1379.39111 1376.35608 7.35260 425
1363.58716 1359.67346 39.34835 436
1367.70251 1363.65491 69.35979 482
1380.87244 1377.79688 99.76972 484
1390.95618 1372.08557 6.89431 421
1375.57129 1355.41370 38.76654 435
1379.12854 1359.08740 69.49857 481
1388.02466 1368.39624 99.74304 484
1403.60815 1367.94177 6.18528 421
1387.72827 1351.26880 38.49088 434
1390.49109 1354.97522 69.07218 476
1395.82642 1360.26794 99.89679 475
1416.74475 1364.70557 6.01437 409
1399.98462 1347.91003 38.20899 433
1402.73352 1350.66418 69.11491 475
1408.33484 1355.89539 99.60531 474
1429.99463 1361.94812 5.59949 411
1412.94214 1344.87634 38.14053 424
1414.91345 1346.62842 69.09071 468
1420.98071 1352.58081 99.54002 470
1444.37976 1359.61743 4.84847 411
1426.63330 1341.88904 37.77566 423
1428.24463 1343.09204 68.48614 454
1434.12085 1349.67053 99.25385 449
40700.74219 40297.57031 -13258.88086 1000
1458.59607 1357.25525 4.57101 416
1440.85034 1339.31909 37.17862 415
1441.93689 1340.87097 68.51844 453
1448.95935 1347.78320 99.21057 448
1473.36902 1355.24792 3.75951 415
1455.29590 1337.57666 36.72903 416
1456.89429 1339.00916 68.03189 444
1463.77197 1345.67322 99.14771 447
1488.33789 1353.13403 3.37252 415
1470.64209 1335.78979 36.09452 415
1471.59399 1336.80164 67.58259 443
1477.70532 1342.69629 98.97057 446
1503.29626 1350.91614 2.49091 414
1486.13452 1334.37732 35.73784 415
1486.82141 1335.06653 67.25499 442
1518.50671 1348.95972 1.96479 413
1501.18921 1332.67151 35.26757 414
1502.08130 1333.00061 66.84822 441
1533.68982 1346.70959 1.28507 419
1516.90063 1331.11816 34.56375 413
1517.34204 1331.41052 66.55289 440
1548.50110 1343.59387 0.93396 418
1533.02246 1329.40515 34.03214 412
1532.95764 1329.51672 66.21950 437
1563.58997 1341.10608 0.03063 418
1548.35327 1327.63525 33.71615 418
1549.29053 1327.90356 66.06489 412
1579.21118 1338.71033 -0.70652 431
1563.95276 1325.29468 33.26933 417
1564.75903 1325.85938 65.99591 433
1595.18774 1336.11633 -1.49852 430
1580.30237 1323.30994 32.77213 425
1581.18018 1323.76807 65.15512 432
1610.93958 1334.00366 -2.10807 429
1596.59326 1321.07581 32.04074 424
1597.17773 1321.96143 64.87666 431
1627.28650 1331.60962 -2.49639 428
1613.49622 1319.23059 31.53863 423
1613.31689 1319.58289 64.63157 430
1643.85608 1329.47119 -3.39066 427
1630.04236 1317.42822 30.89376 422
1630.23718 1317.64209 64.28193 429
1660.62012 1326.64722 -4.06090 426
1647.42981 1315.86206 30.54320 421
1646.87610 1315.46643 63.71378 433
1677.16003 1324.83850 -5.12439 425
1664.16418 1314.00525 29.86386 420
1663.48230 1313.48621 63.24939 432
1694.23938 1321.84033 -5.69070 424
1681.66296 1312.19702 29.02227 419
1680.83032 1310.97961 62.90880 431
1711.46484 1319.38892 -6.19377 423
1699.56177 1309.94446 28.94110 418
1698.11694 1308.80640 63.01154 430
1728.77222 1316.93762 -6.95111 420
1717.23657 1308.24841 28.07617 417
1715.75256 1306.48132 62.33520 429
1746.62183 1314.99634 -7.74189 418
1735.34985 1306.11572 27.48759 416
1733.42468 1304.51404 61.61354 427
1764.78381 1312.57300 -9.05002 416
1753.57776 1303.92578 26.63005 417
1751.42798 1301.88721 61.42191 426
1783.69812 1310.50916 -9.84367 415
1772.33362 1301.57227 26.10427 415
1769.72131 1300.06360 61.27448 425
1802.16858 1308.45825 -10.36546 414
1790.59985 1299.45947 25.66970 415
1788.15076 1297.85889 60.41436 424
1821.58813 1306.70178 -11.73125 414
1810.84436 1298.45557 24.74974 416
1807.15137 1295.65698 60.04742 403
1840.48975 1304.12305 -12.19409 411
1829.84741 1295.88806 24.28952 415
1852.25610 1295.72046 23.17243 335
40809.75000 16972.90820 3719.09888 1000
1253.68457 24.51230 -2.15976 373
1260.29797 24.69760 16.65973 300
1248.64758 17.08701 -1.64243 477
1251.94104 17.25628 17.30037 477
1256.26074 17.28636 36.25268 441
1259.49207 17.41659 55.06290 377
1247.21228 10.14250 -1.23833 498
1250.15784 10.05575 17.54988 498
1253.62073 10.13471 36.43065 498
1257.35229 10.07874 55.36213 499
1259.27148 10.08700 74.27515 498
1249.28760 3.11274 -1.72967 466
1252.48865 2.96451 17.29356 465
1256.31262 3.10315 36.10566 410
1259.56641 2.93267 55.03402 423
1256.15198 -4.17713 -2.51727 351
2284.86646 -183.89688 23.05771 381
2281.32300 -183.61740 59.59792 379
2261.37549 -194.95012 24.42102 366
2258.15723 -194.90097 60.16721 381
2244.63184 -207.25632 25.35242 479
2243.08862 -206.97177 60.72303 483
2238.61108 -219.52354 25.49323 480
2237.12012 -219.39198 60.99242 451
2313.71899 -241.01840 -15.07641 392
2231.36353 -232.29916 25.47812 473
2233.32861 -232.63264 60.66805 464
2299.64771 -253.26190 -14.14077 398
2226.45947 -244.85881 25.67834 483
2229.09058 -245.32463 61.04572 467
2381.72656 -262.78381 93.40090 498
2288.26611 -265.71204 -13.75185 414
2220.67554 -257.74002 25.91325 487
2224.64453 -258.20407 60.86573 432
2319.91699 -269.66165 95.06004 452
2279.08618 -278.18176 -12.90389 422
2215.55200 -270.39182 26.21227 487
2221.39673 -270.89447 60.99588 432
2270.30225 -290.58447 -12.70971 432
2209.98779 -282.70923 26.45597 488
2218.05811 -283.62708 61.44535 437
2262.20337 -303.03491 -12.06211 432
2204.72217 -295.00885 26.80985 488
2214.53149 -296.76624 61.21824 402
2247.97998 -314.69669 -11.51907 487
2203.49023 -308.45706 26.39025 494
2211.44263 -309.22083 61.41870 408
2227.05127 -325.31268 -10.00885 289
2198.98315 -320.73419 26.86184 495
2208.95239 -322.24396 61.45314 408
2212.56128 -336.52942 -9.51754 294
2191.19629 -333.06161 26.95007 495
2205.92285 -335.04941 61.20819 415
2203.29175 -348.40836 -8.79160 359
2186.71729 -345.41241 27.47045 495
2202.76172 -348.10852 61.58580 415
2195.73193 -360.42310 -8.59832 365
2185.04614 -358.51907 27.17834 474
2200.70605 -361.24954 61.53574 360
2188.86499 -372.18188 -7.90839 365
2181.28247 -371.00555 27.13872 497
2199.40259 -374.13449 61.47973 359
2182.39893 -384.28387 -7.72221 426
2177.23462 -383.34137 27.26336 497
2197.90405 -387.02786 61.16710 359
2177.17847 -396.59738 -7.76090 426
2173.49194 -395.92270 27.68563 497
2196.67529 -400.54697 61.62660 359
2172.13843 -408.90952 -7.21746 430
2166.65771 -407.85181 27.54048 498
2211.07959 -416.32861 60.80163 261
2166.96924 -421.40771 -7.32072 430
2162.17017 -420.49323 27.76744 498
2225.24878 -433.33710 60.37491 353
2288.14160 -445.60483 168.06934 351
2162.48828 -433.77917 -7.31102 472
2158.70288 -432.53784 28.13039 498
2205.06250 -442.69852 60.83975 497
2307.06519 -463.81952 131.79532 345
2258.59888 -453.55801 168.14565 352
2296.41406 -461.24207 205.61794 298
2158.57764 -446.22791 -7.28191 472
2155.37720 -445.35330 28.08564 498
2200.81445 -455.23813 61.15704 497
2277.09912 -471.56808 131.82652 346
2229.39648 -461.31543 167.39474 354
2262.39697 -468.43744 204.16777 298
2154.62573 -458.42044 -6.67448 472
2151.55176 -458.11057 28.05499 498
2196.35791 -467.96820 60.87064 497
2292.38452 -489.11096 94.89001 346
2247.56470 -478.89575 131.94243 348
2200.43140 -468.51251 167.29639 359
2229.83374 -475.38116 203.26787 349
2150.94214 -470.76031 -6.69048 472
2148.93237 -470.62030 27.79521 498
2191.49487 -480.38995 61.08871 498
2261.90820 -496.22357 95.43123 347
2200.84351 -482.34729 131.43553 336
2179.89917 -477.75198 166.51508 497
2202.11206 -482.36575 202.46169 401
2147.74609 -483.68539 -6.99935 472
2146.07397 -483.34842 27.82277 498
2187.34985 -492.81509 61.17607 498
2232.62158 -503.70508 95.53367 348
2189.62817 -493.44519 131.97357 477
2178.84009 -490.73505 166.83655 497
2192.94360 -494.17026 202.43852 422
2144.34839 -496.25723 -7.12643 472
2143.32324 -495.53085 28.04670 498
2182.71045 -505.46024 60.92893 498
2204.25977 -510.73782 96.29345 349
2177.20752 -503.92368 131.87616 498
2177.19214 -503.70087 166.75731 496
2190.72998 -506.95523 202.74005 408
2141.31616 -508.65692 -6.87793 472
2140.57593 -508.56680 28.18222 498
2178.10132 -517.85077 61.21784 498
2176.78223 -517.76593 96.64818 496
2176.93921 -517.33167 131.48737 496
2176.10913 -516.96356 166.72787 496
2189.79565 -520.80817 202.81926 408
2139.20190 -521.29187 -6.73356 472
2138.69751 -521.04480 27.87774 498
2175.93237 -530.99628 61.31269 496
2175.24487 -530.35925 96.73034 497
2176.13013 -530.82489 131.75725 496
2175.06104 -530.79858 166.71066 495
2188.51660 -533.92749 202.39586 408
2136.22095 -534.38940 -6.63802 496
2136.22729 -533.90234 27.78061 479
2175.31128 -544.18896 60.89937 495
2174.78882 -544.02167 96.37379 496
2174.57007 -544.26080 131.96262 496
2173.46680 -543.94977 166.84573 495
2187.76660 -547.54108 202.40157 407
2134.01880 -546.80280 -6.89792 495
2133.94897 -546.81689 27.81637 479
2173.97021 -557.71924 61.12455 495
2173.76172 -557.88922 96.56246 495
2173.93018 -557.82538 131.84103 495
2172.95728 -557.50037 167.05786 495
2186.36133 -560.94373 202.80576 407
2131.59424 -559.90546 -7.29536 494
2131.86914 -559.99359 27.84904 478
2172.76123 -571.35254 60.71727 495
2173.08325 -570.92603 96.25766 495
2172.39746 -571.33136 131.77904 495
2171.49414 -570.84198 167.10997 495
2185.45923 -574.66119 202.61533 407
2129.64795 -572.89471 -7.40381 494
2129.65259 -572.80579 27.46162 478
2171.71216 -584.68896 61.19381 495
2171.57324 -584.56897 96.06284 495
2170.62939 -584.49866 131.63997 492
2170.88843 -584.51019 166.89519 495
2185.32031 -588.63452 203.20685 420
2127.89282 -585.51776 -7.49735 494
2127.79785 -585.60034 27.74797 478
2164.43433 -596.24200 61.05930 494
2164.42529 -596.02472 96.21731 494
2163.93237 -596.27191 131.98808 495
2164.06982 -596.23999 167.22267 495
2184.34839 -601.71851 202.89314 420
2125.82568 -598.59039 -7.29899 494
2126.27832 -598.76324 27.40041 477
2163.83496 -610.18500 60.88351 494
2163.26782 -609.75513 96.28569 496
2163.12988 -609.61957 132.03731 497
2163.71680 -609.74799 167.40710 494
2183.48926 -615.83893 203.36478 420
2124.50220 -611.63544 -7.25385 492
2124.82275 -611.89386 27.45976 476
2163.29980 -623.48743 60.86251 494
2161.99170 -623.56207 96.49372 493
2162.85571 -623.66266 132.02937 494
2161.80859 -623.32269 167.28093 493
2182.07300 -629.53503 203.57159 420
2123.00928 -624.89160 -7.63984 492
2123.23511 -625.44360 27.06143 476
2161.87378 -637.03302 60.62592 493
2161.27954 -636.74792 96.57516 493
2162.30664 -637.01910 131.69031 494
2160.69482 -636.85718 167.31575 493
2181.25806 -643.27386 203.40634 419
2121.13550 -638.45349 -7.58334 491
2121.28052 -638.46600 26.89315 476
2160.82446 -650.96564 60.55384 493
2160.04590 -650.28088 96.37769 492
2160.69263 -650.70215 131.55083 493
2159.71582 -650.57922 167.35980 493
2179.84253 -656.48676 203.47714 419
2119.83789 -651.67712 -8.13273 489
2120.42578 -651.62280 26.84090 474
2160.00415 -664.50134 60.37281 493
2158.95264 -663.95868 96.14809 492
2159.75195 -664.37238 131.80247 493
2158.83667 -664.31360 167.49426 492
2179.08179 -670.67474 203.77763 419
2118.99756 -664.74603 -8.19748 489
2118.72241 -664.99072 26.88424 474
2158.52002 -678.00348 60.66581 492
2158.21021 -678.15521 95.92549 492
2158.30273 -678.13312 131.84058 493
2157.71802 -677.81244 167.21262 493
2178.03467 -684.44727 204.00885 419
2118.00757 -678.51813 -8.62383 489
2117.79102 -678.68695 26.75103 472
2163.08032 -693.75897 60.41890 492
2162.67822 -693.53473 96.24795 492
2161.87378 -693.23950 132.07130 495
2162.42212 -693.59064 167.86903 492
2176.08643 -697.59607 204.04010 408
2287.58130 -735.05328 245.33191 492
2116.96509 -692.01562 -8.71542 488
2116.69434 -691.78809 26.84054 472
2161.83813 -707.70312 59.85804 492
2160.53345 -707.14722 96.07710 491
2161.52026 -707.32916 131.83012 492
2160.58643 -706.76184 167.79305 491
2174.56055 -711.84601 203.83931 405
2115.92822 -705.87195 -8.60548 488
2115.12207 -705.52026 26.52560 471
2160.75146 -721.30011 59.79890 491
2159.57080 -721.02625 95.70857 491
2160.48560 -721.05688 131.75575 491
2159.45923 -720.66650 167.37846 491
2173.80249 -725.64142 203.74554 405
2114.65894 -718.98657 -8.76770 465
2114.38428 -718.78241 26.42479 490
2159.53442 -735.26300 60.09597 491
2158.82617 -734.63257 95.82541 490
2159.53418 -735.21185 132.11206 491
2158.47632 -734.72119 167.95383 491
2172.59985 -739.94720 204.38095 404
2113.67090 -732.64142 -9.01560 464
2113.01172 -732.28473 26.29790 490
2158.55396 -749.30756 60.02040 490
2157.18750 -748.38318 96.13548 490
2158.35352 -749.21429 132.05835 491
2157.23486 -748.74164 167.52849 490
2171.57202 -754.03845 204.15819 404
2234.34497 -776.64062 244.18326 425
2234.78833 -776.65613 281.14429 425
2112.59473 -746.75946 -9.64487 464
2111.64331 -745.92609 26.20825 490
2157.19189 -762.86035 59.67073 490
2156.28491 -762.91113 95.68361 489
2156.96606 -763.00049 131.62187 490
2155.82520 -762.40485 168.07526 490
2170.38965 -767.79327 204.66603 404
2244.82788 -795.07764 244.65277 370
2255.26538 -798.80988 283.14270 475
2111.93555 -760.15857 -9.98324 463
2110.86377 -760.26532 25.91497 489
2156.11646 -777.09302 59.61568 490
2155.46655 -776.60065 95.94180 488
2156.20117 -776.91760 131.99419 490
2155.24463 -776.72034 167.92711 489
2169.41284 -781.96802 204.57742 404
2257.48755 -815.44769 245.36880 486
2255.56958 -814.36353 283.18912 426
2111.07349 -774.46362 -9.83118 463
2109.88330 -773.57886 25.73474 489
2155.34595 -791.41516 59.63003 489
2155.04932 -791.22021 95.42283 489
2154.90967 -791.03699 132.00479 489
2154.37573 -790.57391 168.30803 489
2164.76929 -794.94495 204.87108 320
2221.00293 -816.37402 244.04619 341
2109.79639 -788.12537 -10.10451 463
2108.71509 -787.80377 25.61534 488
2154.26392 -805.48035 59.28034 489
2154.12646 -805.15906 95.67226 489
2153.63794 -805.41339 131.89133 489
2153.34253 -804.79175 168.02913 489
2167.80322 -810.98962 204.58870 416
2249.35083 -842.35577 245.95399 337
2109.02954 -801.83820 -10.74154 462
2107.01318 -801.44135 25.07455 488
2394.59131 -915.56866 50.55884 488
2241.40796 -854.57898 207.74228 271
2230.75464 -850.28381 244.72479 490
2275.31982 -867.78766 286.22891 288
2108.15552 -816.08636 -10.94794 462
2105.88745 -814.96552 25.13549 488
2232.56323 -866.24579 207.21057 403
2229.05908 -865.13934 245.17297 486
2280.46387 -885.57092 286.85660 471
2106.97412 -830.17560 -10.86903 461
2104.80298 -829.26648 24.52189 487
2232.20020 -881.68811 245.61980 409
2276.60571 -899.52655 286.53769 466
2106.32593 -844.20111 -11.32878 461
2103.52441 -843.20862 24.80085 487
2263.68604 -910.28870 247.93550 390
2260.18457 -908.94556 285.87735 402
2104.98584 -858.60126 -11.78911 461
2102.30762 -857.37451 24.24874 486
2236.86719 -914.49866 246.22745 418
2103.87036 -872.32739 -12.01613 460
2101.48975 -871.45007 23.94913 486
2103.34912 -886.97382 -12.56401 460
2100.44971 -885.79596 24.15458 485
2102.18213 -901.23682 -12.40703 459
2099.15015 -899.59723 23.81517 485
2422.55762 -1044.77185 48.23864 313
2101.06299 -915.87775 -13.14478 459
2098.09961 -914.17578 23.48796 484
2384.28223 -1044.82935 49.30066 484
2100.05811 -930.46857 -13.39441 458
2096.66064 -928.36401 23.21798 484
2363.09888 -1052.25061 49.58611 336
2098.94043 -944.83466 -13.79335 458
2095.14624 -943.08875 22.85939 483
2319.47144 -1048.43250 51.00660 337
2098.13989 -959.32147 -13.99099 457
2094.22583 -957.74957 22.68519 483
2257.48584 -1035.44568 53.23920 461
2257.31958 -1035.47705 92.76005 461
2255.38647 -1034.41516 131.90384 424
2097.45825 -973.98590 -14.28588 420
2093.04761 -972.05017 22.71482 482
2236.88940 -1041.70361 53.58876 340
2387.39575 -1114.72058 90.40884 469
2096.65308 -989.25085 -14.83547 420
2091.61206 -986.63824 22.15529 481
2194.36328 -1037.06335 54.94550 482
2385.90039 -1132.15186 89.79502 469
2095.67432 -1003.93011 -15.21669 420
2090.47876 -1001.54370 21.73276 481
2158.63428 -1035.56714 56.32699 343
2384.75171 -1148.39746 89.76554 468
2094.76807 -1019.03436 -15.46916 423
2089.28760 -1016.35559 21.45916 480
2128.86572 -1036.40808 56.90182 452
2383.41919 -1165.42285 90.07836 472
2094.07227 -1034.04321 -15.95556 423
2088.31323 -1030.97607 21.72591 480
2143.85962 -1059.49805 56.40993 480
2126.12793 -1050.88965 94.52243 492
2093.21899 -1049.25134 -16.37775 423
2086.78857 -1045.87451 20.94855 479
2142.49609 -1075.13977 56.39318 479
2092.32910 -1064.35522 -16.44823 422
2085.30396 -1060.64563 20.88245 479
2123.68286 -1081.24707 56.57664 491
2284.41797 -1166.74768 91.35030 471
2091.25635 -1079.92456 -17.29651 422
2087.96265 -1077.87207 20.47983 478
2276.13354 -1179.41821 50.64102 499
2277.52612 -1180.49048 91.06105 499
2090.88037 -1095.12341 -17.82614 421
2086.55127 -1093.33704 20.09887 477
2123.31104 -1113.55334 56.12842 457
2203.06128 -1157.23022 92.23930 369
2089.73267 -1110.97400 -17.97907 421
2085.57031 -1108.52539 19.88175 477
2185.90991 -1164.18298 53.71800 498
2187.32886 -1165.13696 92.50710 498
2088.71631 -1126.80420 -18.62928 420
2082.00464 -1122.57983 19.52818 476
2134.92871 -1152.36926 54.79700 476
2181.21118 -1178.65686 92.38919 498
2088.06592 -1142.68469 -19.17577 366
2080.66089 -1137.78015 19.51430 476
2173.87109 -1191.32019 53.66866 498
2175.27295 -1192.33130 92.60794 498
2082.67651 -1155.21167 19.06668 398
2167.87354 -1205.20337 53.32203 498
2168.99585 -1205.51025 92.42273 498
2173.58667 -1225.25623 13.12035 425
2161.76758 -1218.41479 53.21579 498
2162.90723 -1219.53235 92.59875 498
2175.60645 -1243.99524 13.01249 378
2125.84155 -1214.30566 54.69936 489
2160.54028 -1235.06970 92.54685 451
40482.32031 -24429.65430 -2966.99756 1000
2161.20312 -1252.59155 53.04511 442
2162.30664 -1253.02966 92.20271 448
2122.83105 -1246.71216 92.77926 381
2550.30713 -1529.51587 37.11398 1000
2159.63965 -1286.77661 171.84799 453
20630.42773 -31009.79492 5029.29932 1000
850.87659 -1534.51172 19.95603 453
854.38403 -1541.15125 48.00346 324
839.82306 -1535.98303 20.36484 499
841.03949 -1538.13818 48.15585 499
842.02948 -1539.93640 76.24297 499
832.81476 -1544.86560 19.93234 395
2546.33301 -32392.97656 -3590.65186 1000
57.82057 -1823.65295 13.68705 495
49.02090 -1714.11926 20.84490 270
39.77796 -1658.78186 23.98239 478
29.87704 -1656.29370 24.13456 489
19.88870 -1656.33435 24.47673 489
10.35958 -1888.39661 40.34655 491
9.47708 -1653.10669 24.52657 456
9.70362 -1651.07947 51.57909 480
-0.40460 -1655.27197 24.45168 330
-0.37241 -1649.65588 51.63840 490
-10.71522 -1655.73169 24.44564 484
-10.24745 -1649.72595 51.83361 490
-22.31882 -1850.85583 72.20676 476
-21.14383 -1655.86243 24.18996 484
-20.48517 -1649.62317 51.96065 490
-20.45323 -1650.30396 78.68840 495
-31.41284 -1655.58496 24.21977 484
-30.87251 -1649.63672 51.97250 490
-30.93212 -1649.65967 78.77820 494
-41.32430 -1655.66968 24.22365 484
-40.79066 -1649.34875 51.59041 490
-40.97939 -1649.44727 78.87820 493
-51.56118 -1655.54663 24.13675 484
-50.79361 -1645.64502 52.09828 499
-50.98667 -1649.51587 78.96296 493
-62.04354 -1655.43591 23.99086 484
-61.10966 -1647.55566 51.85878 486
-61.07059 -1649.09717 78.68170 493
-71.87042 -1655.41260 23.89470 484
-71.23798 -1647.72253 51.89216 485
-71.51493 -1648.94995 78.88795 493
-82.08508 -1655.62366 23.76969 484
-81.34013 -1647.30664 51.58470 485
-81.81838 -1649.16370 78.68400 493
-92.55722 -1655.37659 24.04367 484
-91.71228 -1647.11609 51.63346 485
-91.69231 -1648.97778 78.90117 492
-102.81672 -1655.01733 23.78575 483
-101.63374 -1646.95740 51.44253 485
-102.20757 -1648.46130 78.75041 492
-113.03342 -1654.84607 23.56607 483
-112.18961 -1646.86755 51.35419 484
-112.41325 -1648.63074 78.86407 492
-123.54919 -1655.14075 23.60037 483
-122.31277 -1647.04126 51.52855 484
-122.38163 -1648.40808 78.52483 492
-133.59836 -1654.96973 23.41027 463
-132.35649 -1646.78613 51.48323 484
-132.76884 -1648.10742 78.56629 497
-144.13640 -1655.05676 23.34038 462
-142.97688 -1646.45874 51.11353 484
-142.87758 -1647.94250 78.36193 497
-154.44887 -1655.51013 23.42401 462
-153.02283 -1646.35901 51.22329 484
-153.16704 -1648.19067 78.41708 497
-164.91180 -1655.80200 23.39050 462
-163.20547 -1646.48987 51.22359 484
-163.68376 -1648.02869 78.44129 496
-175.54340 -1656.44165 22.92962 462
-173.65578 -1646.31079 51.32242 483
-173.90889 -1647.69678 78.53355 496
-185.86790 -1656.51721 23.03882 461
-183.92882 -1645.90295 51.16307 483
-184.18614 -1647.72095 78.38351 496
-196.34169 -1656.73096 22.65062 461
-194.50981 -1645.84216 50.85028 483
-194.49329 -1647.55640 78.43755 496
-206.63904 -1657.47681 22.50715 461
-204.61894 -1645.68921 50.78804 483
-205.24280 -1647.35107 78.08897 495
-217.21419 -1657.58179 22.47672 461
-215.15215 -1645.62292 50.64644 482
-215.58005 -1647.11365 78.26777 495
-227.94594 -1657.96204 22.53134 460
-225.45229 -1645.61304 50.89011 482
-225.74294 -1647.01941 77.96001 495
-238.72656 -1658.47241 22.12817 460
-235.76286 -1645.33521 50.49005 482
-236.45058 -1646.87903 78.09425 494
-249.12938 -1658.44910 22.19164 460
-246.42247 -1645.33142 50.45509 482
-246.62637 -1646.70068 77.95951 494
-259.72787 -1658.98291 21.84396 459
-257.08728 -1645.04163 50.46944 481
-256.98785 -1646.49036 78.06496 494
-270.32260 -1659.55615 22.01341 459
-267.34052 -1644.99438 50.59317 461
-267.56992 -1646.30994 77.89670 494
-281.40063 -1659.82800 21.62457 479
-278.06494 -1645.39771 50.40822 461
-278.26974 -1646.24573 78.08477 493
-336.00214 -1905.46082 101.18219 494
-291.83801 -1660.09924 21.59925 479
-288.69254 -1645.89172 49.89686 460
-288.87314 -1645.74377 77.65802 494
-348.36548 -1905.89758 101.15832 494
-302.98779 -1660.33472 21.10089 452
-299.18283 -1645.86658 49.92018 461
-299.33444 -1645.53418 77.64941 493
-360.68604 -1905.30396 100.99065 494
-313.71564 -1660.79700 21.20842 451
-310.17828 -1645.69189 49.75865 461
-310.19305 -1645.40442 77.56381 493
-372.70505 -1905.18347 101.04951 494
-13891.73730 -57861.35547 6025.02051 1000
-324.64551 -1661.25867 20.73497 451
-320.52948 -1645.53564 49.58826 460
-320.84027 -1645.40173 77.37312 493
-321.94327 -1651.44458 105.37453 492
-335.72870 -1661.51465 20.62723 451
-331.26193 -1645.31628 49.75177 460
-331.36169 -1645.41174 77.61997 492
-333.05219 -1652.15637 105.10500 491
-346.29813 -1662.21143 20.44619 450
-342.22537 -1645.44348 49.68375 460
-341.84125 -1644.92810 77.49429 492
-344.00009 -1652.45117 105.04001 491
-357.52579 -1662.74255 20.22646 450
-352.73727 -1645.35486 49.46708 459
-352.56769 -1644.94666 77.22364 492
-354.81384 -1652.17517 104.88390 491
-368.61560 -1662.97290 19.97544 449
-363.73489 -1644.99255 49.24231 459
-363.66275 -1644.62354 77.00154 491
-365.86411 -1652.27307 104.81005 490
-379.86478 -1663.80432 19.62963 430
-374.80554 -1645.14014 49.24239 445
-374.34286 -1644.86499 77.27610 491
-376.53107 -1652.52441 104.75267 490
-390.90729 -1664.51843 19.58447 433
-385.61417 -1645.76709 49.13682 444
-385.26608 -1644.59253 77.25076 487
-387.36157 -1652.55408 104.98986 489
-402.59100 -1665.42053 19.51998 426
-396.54395 -1646.29358 48.88659 444
-396.44366 -1645.06873 77.14949 486
-398.43387 -1652.45129 105.12029 487
-413.94882 -1666.94495 19.19780 426
-407.98178 -1646.99670 48.44213 441
-407.33081 -1645.51599 77.02765 477
-409.97144 -1653.38623 104.91923 475
-425.47620 -1668.32788 18.67308 415
-419.35352 -1648.73352 48.49954 441
-419.24097 -1647.11108 76.68167 475
-421.76419 -1655.70325 104.69698 471
-437.43164 -1670.99500 18.30579 414
-431.14688 -1650.50732 48.14348 435
-430.48901 -1649.27893 76.49634 469
-433.10809 -1657.83838 104.63342 470
-449.89529 -1674.55225 17.68223 410
-443.04031 -1652.40894 47.72570 428
-442.57846 -1651.86267 76.42697 466
-446.88025 -1665.10522 104.64671 350
-462.26910 -1677.86707 17.30157 418
-454.78140 -1655.14709 47.35617 428
-454.54449 -1654.26855 75.95321 458
-474.93820 -1681.45850 16.89834 408
-467.25690 -1658.22913 47.22942 421
-467.17184 -1657.77209 75.81512 454
-488.09329 -1685.71265 16.41180 398
-480.06409 -1662.09033 46.62310 416
-479.40591 -1660.88635 75.65259 453
-501.11383 -1690.97510 15.83168 397
-492.39716 -1665.82104 46.56718 413
-492.24283 -1664.82837 75.51808 451
-514.64948 -1695.89441 15.31729 397
-505.36066 -1670.17175 45.97810 408
-505.12863 -1669.01062 75.25134 445
-528.00964 -1700.90625 14.55030 398
-518.62238 -1674.68848 45.47419 407
-518.03516 -1673.11487 75.08000 445
-541.89508 -1706.52429 13.99587 395
-532.46716 -1679.77332 45.10968 402
-531.40527 -1678.18628 74.42362 437
-556.29376 -1711.80383 13.35824 394
-546.21082 -1685.12415 44.45633 401
-545.29388 -1683.03796 74.04292 436
-570.77277 -1719.10779 12.51877 385
-560.19635 -1690.89661 44.00186 392
-559.45331 -1689.56946 74.10896 420
-574.71680 -1698.25684 43.30159 391
-573.79010 -1696.36646 73.39792 407
-589.91907 -1705.77869 42.79387 385
-588.81079 -1703.51526 72.88850 406
-605.10278 -1714.02747 42.50611 384
-604.29718 -1710.96643 72.66122 405
-621.04883 -1722.37415 41.86558 383
-619.81165 -1718.77991 72.36512 403
-636.75092 -1730.53418 40.97924 379
-635.43732 -1726.70825 72.06477 393
-652.86578 -1738.82483 40.31267 382
-651.31812 -1735.22083 71.61357 379
-668.97009 -1747.21851 39.67688 392
-668.36853 -1745.04932 70.66644 380
-685.88190 -1756.43079 38.77298 397
-685.45282 -1756.02942 70.23605 370
-703.36469 -1766.88770 70.00257 371
-1861.81970 -3270.45044 72.12434 459
-1862.50342 -3270.24756 134.45131 459
-1862.19727 -3269.81787 196.37712 406
-1861.30505 -3269.62646 258.84705 406
-22089.90430 -27488.48828 5978.68604 1000
-2321.70752 -2737.42236 74.35933 351
-2321.05322 -2736.78809 134.08334 466
-2320.31421 -2736.69116 193.89046 494
-2321.24243 -2737.65210 253.17714 498
-2797.95020 -2178.14453 74.37484 395
-2796.26025 -2177.27173 133.39240 395
-2795.09399 -2176.94092 192.91655 395
-2793.51685 -2175.74512 251.43483 395
-4241.56641 -2868.81104 991.55786 1000
-5842.74658 -3049.01660 133.21326 348
-4787.30664 -2067.18872 133.37007 491
-277.32477 -73.57181 38.22046 318
-275.21970 -70.80888 38.87513 321
-273.86554 -68.19759 39.34600 345
-275.65714 -66.17020 39.05530 345
-293.05899 -69.43913 41.36666 318
-277.60391 -64.29311 38.66818 347
-293.63153 -67.10334 41.25166 341
-296.43372 -65.16040 40.74297 315
-1292.85583 -121.65434 155.11067 1000
-19149.61914 -633.99463 445.17419 457
-19089.03906 -627.65833 761.25464 452
-19095.29297 -512.36621 448.39713 463
-19040.05859 -511.68268 759.67828 453
-19048.75977 -393.34451 446.61642 464
-19003.07031 -392.51248 756.70178 316
-18995.55859 -275.57703 442.94629 464
-18935.96094 -271.69174 757.15015 317
-18945.35352 -159.36258 441.33771 465
-18866.40430 -159.12645 754.84161 317
-18900.96094 -42.28476 443.61044 465
-18808.52734 -37.75213 750.35706 418
