# .PCD v.7 - Point Cloud Data file format
VERSION .7
FIELDS x y z rgb
SIZE 4 4 4 4
TYPE F F F U
COUNT 1 1 1 1
WIDTH 1008
HEIGHT 1
VIEWPOINT 7073.434082 -1712.884033 136.196533 -0.648921 -0.110242 -0.090103 0.747415
POINTS 1008
DATA ascii
-17740.56445 832.24640 703.64435 452
-17673.34570 935.75702 699.05133 457
-17666.31250 936.96497 988.64423 453
-17615.94141 1041.54443 695.72998 463
-17579.07812 1038.66211 987.93225 434
-17561.67773 1147.70947 695.56860 463
-17503.21680 1252.02917 695.34186 464
-17449.13086 1356.77686 694.58093 464
-17395.36328 1462.23279 691.03424 465
-17343.66992 1566.27942 688.98230 466
-17285.89258 1668.36768 686.81812 466
-17234.67188 1769.58130 688.99231 467
-17180.94922 1868.45032 686.06256 467
-17127.03125 1973.94568 682.82587 468
-17076.00586 2074.21802 685.16919 468
-17023.45117 2172.93750 684.09857 469
-17102.75586 2289.24243 401.14069 448
-16967.52930 2274.49048 678.40143 469
-17047.33984 2388.76562 401.93835 449
-16914.19141 2372.12329 677.20587 470
-16995.18945 2488.93359 398.68304 449
-16864.01953 2470.11353 675.85846 470
-16942.24414 2588.21387 397.78870 450
-16814.99805 2567.45093 677.27960 471
-16885.21680 2688.18848 399.49750 450
-16761.14062 2666.26147 673.77209 471
-267.55490 59.46486 34.78616 326
-281.91226 61.83616 37.46487 323
-298.27383 64.50146 40.12141 314
-16836.33984 2784.90234 395.54318 450
-16707.42773 2766.78760 675.66858 472
-263.37256 61.05299 35.80640 350
-277.85010 63.44590 38.40598 347
-293.79404 66.19159 41.08070 341
-16779.73242 2884.27563 397.20743 451
-16660.00000 2860.47681 674.99078 472
-261.45218 62.91252 36.26799 351
-275.79395 65.46147 38.81158 345
-291.89389 68.30857 41.44990 340
-16729.66797 2980.41821 394.09344 451
-16608.48047 2957.48193 672.56494 473
-259.52777 64.81722 36.67784 351
-273.90817 67.48222 39.19949 345
-293.45984 71.07436 40.94321 319
-16678.66602 3077.47412 395.13312 452
-16555.94336 3054.65674 672.66827 473
-257.56647 66.64097 37.08838 352
-273.88797 69.81507 39.09349 322
-16624.49414 3172.94897 396.82986 452
-16505.62891 3150.93018 670.86072 473
-255.98695 68.54051 37.40665 325
-275.79486 72.43245 38.45185 319
-16573.22266 3272.03809 397.14590 452
-16453.96680 3245.51685 669.16632 474
-257.70538 71.13231 36.76740 322
-16523.18750 3367.98804 395.58820 453
-16407.14844 3344.40601 667.03320 474
-259.66388 73.80631 36.08291 321
-16472.05859 3462.99780 394.49432 453
-16357.18262 3435.94092 667.10657 475
-261.64709 76.47257 35.43267 321
-16419.67188 3557.39258 393.62500 472
-16304.37402 3532.21240 666.82330 475
-16369.65332 3654.28589 392.51645 473
-16254.50879 3628.71729 666.71851 475
-16320.20215 3745.89941 392.24811 473
-16205.51660 3721.87354 664.95483 476
-16269.54688 3843.68164 394.28156 473
-16154.20410 3813.58887 662.00165 476
-16220.92480 3934.05518 391.31311 474
-16107.74707 3910.06030 662.27136 476
-16809.26562 4079.49023 968.74268 478
-16804.19727 4078.58252 1253.64587 478
-16169.84766 4029.87817 390.18451 474
-16056.40527 4001.98730 662.21588 477
-16741.87695 4168.70068 970.16602 479
-16734.27344 4169.48096 1250.64807 478
-16117.79688 4122.23242 391.51849 474
-16010.37500 4092.59106 658.83002 477
-16671.17383 4263.11182 964.65320 479
-16664.35156 4260.19385 1247.66187 479
-16070.08398 4214.27295 388.21878 475
-15958.47461 4184.85449 662.35089 485
-16600.90234 4353.95361 964.54169 480
-16596.05859 4354.76807 1247.02039 480
-16019.42676 4309.55322 387.61942 475
-15910.15332 4277.89844 660.65063 486
-16530.27539 4443.87305 959.52789 480
-16527.15820 4442.99268 1241.78821 480
-15969.97949 4402.62988 390.22107 475
-15861.95605 4372.31592 656.35278 486
-16462.01953 4535.66064 960.17944 481
-16456.65625 4532.76318 1239.31775 481
-15922.64062 4495.59814 389.98557 476
-15816.84863 4464.61133 657.77264 486
-16391.70898 4626.82959 958.93365 481
-16388.19922 4625.14746 1239.37134 481
-15875.31641 4585.08887 386.84741 476
-15765.03418 4553.05322 656.31683 487
-16321.28027 4713.98584 955.33649 482
-16315.74121 4715.51270 1236.71289 482
-15826.89746 4676.39307 388.27200 476
-15720.15039 4648.00830 655.65686 487
-16253.36426 4806.62939 952.60681 494
-16249.74414 4803.06543 1231.48010 494
-15774.42676 4771.29639 390.02429 476
-15669.03027 4737.16504 653.79907 487
-16204.16211 4896.28076 953.16974 494
-16201.82520 4896.61621 1229.74902 494
-15726.44043 4860.29688 387.53067 477
-15623.61719 4828.24023 655.36548 488
-16154.89941 4993.19336 950.22919 495
-16150.63184 4993.32031 1232.15613 495
-15680.84473 4953.32568 389.45508 477
-15577.96191 4920.77002 656.69043 488
-16106.84668 5086.28271 949.96448 495
-16097.54492 5085.31641 1230.46790 495
-15631.71875 5045.36084 385.31659 477
-15530.02539 5009.71240 653.09143 488
-16038.92773 5174.27734 947.16187 457
-16049.46484 5176.47510 1228.05103 495
-15582.10059 5134.59229 388.74149 477
-15479.97070 5099.63379 653.85669 488
-15942.17578 5251.63184 947.44049 458
-15998.42383 5272.35205 1225.48926 495
-15534.10059 5225.18555 388.41525 478
-15434.69336 5189.43945 653.43158 489
-15844.08496 5331.20215 943.86633 458
-15947.30566 5362.66406 1227.57544 496
-15486.12207 5316.00977 387.84979 478
-15385.77441 5279.89355 652.16394 489
-15749.20605 5402.80811 936.85944 459
-15898.44043 5455.04395 1223.63391 496
-15438.50684 5405.67090 384.15097 478
-15338.68359 5371.36572 654.04407 489
-15654.48047 5482.44727 936.37494 460
-15792.61426 5531.14502 1218.98364 360
-15389.28516 5495.12158 388.23907 478
-15293.82129 5459.59131 650.40454 489
-15299.63281 5464.17432 921.00488 428
-15743.68750 5621.56494 1216.15820 329
-3044.95703 1135.72363 74.78922 325
-15344.21777 5586.65820 386.77274 479
-15246.24414 5551.91064 650.58777 489
-15254.90137 5554.03076 919.27850 428
-15700.15723 5716.49707 1217.44360 329
-15786.81738 5748.91016 1501.72766 496
-3025.10083 1150.55115 75.05351 486
-3031.03394 1152.15637 129.43864 486
-15294.88379 5674.14893 386.29532 479
-15200.05664 5638.83838 649.93323 490
-15205.94434 5641.94141 918.76129 429
-15651.96875 5807.13574 1214.51929 329
-15737.49902 5838.34180 1498.67883 497
-15878.48535 5890.43115 1793.15100 366
-15246.34277 5765.20703 385.95087 479
-15153.64941 5729.31934 650.28522 490
-15161.50586 5732.68555 919.82812 429
-15653.35645 5915.50635 1218.07019 497
-15686.02148 5932.53613 1500.83215 497
-15853.74316 5995.70312 1795.97754 395
-15198.61816 5852.57178 384.22952 479
-15104.06445 5820.40479 651.44678 490
-15111.86523 5823.22559 917.46497 429
-15586.13574 6002.36572 1217.88562 439
-15582.46191 5999.99316 1493.51294 438
-2268.58081 920.70801 -331.18842 1000
-15150.47266 5945.29395 383.51822 479
-15057.84961 5908.95752 648.79309 490
-15063.27832 5911.34961 917.07745 429
-15463.26758 6063.42578 1210.23633 440
-15462.37988 6064.78320 1486.67346 439
-15102.82129 6032.36377 386.65649 479
-15013.15820 5996.27539 648.01733 490
-15016.16504 5999.16943 915.82837 429
-15345.55566 6131.13086 1208.00293 441
-15344.36133 6127.24854 1477.75916 440
-15057.64746 6121.05957 385.31256 480
-14964.50391 6085.49756 649.35638 490
-14972.22754 6088.46094 913.37225 430
-15254.26562 6204.77539 1199.71826 498
-15252.94238 6198.83838 1475.40198 498
-15499.56543 6300.63574 1770.43896 453
-15011.33301 6210.48389 383.50006 480
-14916.95410 6172.43359 647.06085 491
-14924.56348 6177.21094 913.67310 430
-15209.46973 6291.14844 1203.68958 498
-15204.28223 6293.30225 1472.82410 498
-15446.82520 6391.57812 1771.06128 453
-14963.41113 6298.41504 383.35077 480
-14870.30176 6260.79932 646.42700 491
-14878.41992 6262.77295 913.48425 430
-15132.78125 6370.90625 1198.45776 498
-15126.21582 6369.53711 1468.65686 498
-15400.73926 6482.31934 1770.07373 453
-15328.77441 6453.97510 2039.24500 492
-15323.25195 6449.76758 2316.34521 492
-15314.36426 6450.40186 2591.94702 482
-14916.99414 6390.73975 383.34171 480
-14823.21777 6351.09473 647.12463 491
-14828.80859 6352.01514 912.14392 430
-15084.79492 6460.94043 1199.44702 498
-15079.18945 6457.65967 1470.00232 498
-15352.60645 6575.09717 1769.87415 453
-15432.77051 6607.69531 2057.78711 485
-14869.70410 6478.39746 384.17441 480
-14779.97363 6440.41260 650.16846 491
-14784.95801 6442.20752 913.60492 438
-15037.81348 6551.32178 1197.83704 498
-15030.89160 6547.59717 1468.02051 498
-15303.15332 6664.03955 1769.26685 453
-15385.73145 6702.36914 2054.92139 485
-14821.55176 6564.63086 383.79498 480
-14733.29395 6527.92627 646.44543 491
-14735.64746 6531.58057 912.35150 438
-14986.64551 6637.57324 1197.86011 499
-14983.20898 6635.71094 1465.88013 498
-15255.32129 6757.17578 1766.04138 453
-15335.51074 6792.09619 2057.97900 485
-14771.89453 6656.51660 384.42044 480
-14685.85449 6613.99951 649.54443 491
-14691.81738 6617.00586 914.49750 438
-14940.24414 6731.42236 1194.34290 499
-14936.17188 6726.57812 1465.72803 498
-15206.64355 6848.20166 1769.70349 471
-15288.91602 6884.02295 2054.99414 485
-14725.72852 6741.52295 382.45477 480
-14638.27246 6703.59668 648.39075 491
-14649.75195 6707.34521 915.21399 438
-14893.18359 6818.13477 1196.03003 499
-14884.62988 6816.68457 1467.78760 499
-15152.28906 6938.81982 1766.39246 471
-14682.21484 6833.17969 383.62494 481
-14594.67285 6791.02295 647.45599 491
-14601.02051 6795.73096 912.20337 439
-14844.33789 6909.23047 1195.13232 499
-14840.16406 6904.69287 1464.96814 499
-15106.11133 7027.23340 1765.85315 471
-14631.43750 6920.52393 381.61288 481
-14546.92578 6877.32178 646.00073 491
-14560.04980 6884.02588 914.21362 388
-14823.78320 7008.29199 1197.60620 499
-14820.27441 7008.32861 1470.14368 499
-15055.05957 7120.85498 1766.46216 473
-14585.79688 7007.88330 384.95901 481
-14503.10254 6968.12646 647.37567 491
-14513.57324 6973.42236 914.59906 388
-14776.34766 7099.78906 1195.70862 499
-14771.32812 7094.70850 1470.06213 499
-15008.60449 7208.16357 1767.04321 469
-14540.74414 7098.81934 384.03732 481
-14455.23242 7057.33301 645.39520 492
-14469.40039 7062.25293 912.10852 388
-14607.62109 7127.81250 1189.99377 417
-14721.22168 7185.53760 1469.23059 499
-14960.86914 7301.64111 1763.56860 469
-14491.04297 7185.03174 385.39648 481
-14409.19922 7141.96289 646.50433 492
-14642.12305 7258.30127 924.27802 499
-14679.13965 7274.69287 1196.26575 499
-14672.85156 7274.60547 1466.62744 499
-14912.46289 7391.73779 1765.20447 469
-14444.32031 7272.56543 383.88730 481
-14364.94043 7231.86182 647.17151 492
-14591.65527 7344.30518 923.66595 499
-14630.20215 7365.05322 1196.62634 499
-14629.37305 7362.06494 1465.43750 499
-14863.46387 7480.27197 1766.45337 469
-14397.56738 7358.44189 383.32211 481
-14315.74609 7316.94727 644.63171 492
-14543.99609 7436.00586 923.79388 499
-14585.23438 7457.65137 1197.55896 499
-14579.16406 7454.34473 1466.25659 499
-14816.84668 7572.65527 1764.74292 469
-14352.00391 7447.26172 385.39993 481
-14271.99805 7405.52832 645.83185 492
-14498.56934 7526.23535 923.24640 499
-14582.15820 7568.69287 1201.22571 463
-14572.90820 7563.23291 1471.73438 463
-14789.73047 7673.26465 1764.34570 462
-14302.46875 7538.44873 384.50943 481
-14225.01465 7493.19141 645.24182 492
-14448.24219 7611.77344 924.72888 499
-14591.18457 7685.64795 1204.22803 462
-14581.24805 7682.40771 1475.83411 462
-14771.17285 7781.27881 1771.45801 451
-14257.94336 7622.82324 385.27240 481
-14176.95020 7582.95361 646.34888 492
-14403.22754 7700.72803 924.73401 499
-14579.15723 7797.10205 1207.37952 479
-14587.89551 7803.37451 1482.79858 461
-14211.01855 7715.26758 384.88257 481
-14132.03613 7669.78906 648.59058 492
-14390.48438 7807.07910 924.92706 424
-14563.34668 7904.88232 1210.47144 479
-14597.85352 7924.39404 1485.81909 461
-14163.54883 7798.52002 381.42346 481
-14083.41992 7758.84814 645.96246 492
-14393.02734 7923.92334 928.17920 423
-14548.35547 8010.68652 1210.09192 478
-14118.80078 7887.67871 384.78647 481
-14039.74316 7846.57324 648.81946 492
-14397.00781 8042.33057 931.84460 423
-14068.90625 7976.41504 382.03522 481
-13995.20605 7936.37402 646.86133 492
-14401.31445 8164.82959 933.37146 422
-14022.79785 8064.48291 381.75327 481
-13947.18066 8021.36719 647.27698 492
-14405.98242 8282.15527 935.59802 421
-13977.75391 8153.49805 384.66891 481
-13900.31836 8108.54980 646.50098 491
-13930.46289 8241.57812 381.78381 481
-13855.37012 8198.23047 648.78223 491
-13882.59570 8331.10547 385.73959 481
-13806.23145 8284.60352 646.66473 491
-13834.77930 8417.45117 386.35019 481
-13762.93652 8372.45020 649.32733 494
-13786.15527 8505.96582 385.54541 480
-13714.04590 8461.28125 649.60223 494
-13741.63281 8593.76465 384.57098 480
-13669.33984 8548.45508 647.53131 494
-13693.33789 8681.68164 383.95627 480
-13622.93262 8638.21289 650.53107 494
-13647.93652 8772.19141 386.23242 480
-13578.63379 8726.70312 648.95367 494
-13597.33496 8861.78711 386.24286 482
-13529.29785 8813.47852 648.36975 494
-13551.37402 8947.66992 383.65182 481
-13485.24414 8904.14453 650.98175 494
-13505.78223 9035.66016 384.60843 481
-13435.58301 8994.63672 649.36017 494
-13455.49316 9125.51660 385.23691 481
-13391.73926 9082.55957 652.50873 493
-13410.90820 9216.76270 385.98709 481
-13343.19727 9172.09277 649.62604 493
-13363.70312 9304.50391 385.69968 481
-13295.00293 9260.89941 653.17200 493
-13314.52441 9395.98633 386.44754 481
-13250.06348 9349.19629 651.61066 496
-13268.09570 9484.57812 386.20148 480
-13202.43066 9440.29688 650.19122 495
-13217.80078 9573.31152 386.39557 480
-13156.65527 9527.59668 653.69873 495
-13171.56250 9664.90918 386.33560 480
-13109.06641 9618.07324 653.04865 495
-13121.90039 9750.19141 385.50693 480
-13062.86035 9707.99414 652.92218 495
-13076.54297 9845.10254 385.72607 480
-13015.74316 9799.36328 656.37805 494
-13028.45020 9932.25488 387.78131 479
-12966.57715 9889.87305 656.07507 494
-12980.30859 10023.27051 388.47678 487
-12919.27637 9976.79395 656.95068 494
-12929.91113 10114.72363 389.88940 487
-12871.52246 10069.61426 656.49188 494
-12882.03711 10202.80273 388.95248 487
-12824.68848 10157.43750 658.10535 493
-12837.78027 10294.51367 390.77502 486
-12778.90332 10253.21973 658.06421 493
-12785.66602 10386.98828 390.43747 486
-12732.07031 10341.25586 659.31976 493
-12582.77734 10223.47070 3081.38818 1000
-12738.02539 10481.83203 391.78204 486
-12682.48340 10434.60059 656.16870 492
-12688.98535 10569.66797 388.18127 486
-12633.70898 10526.66797 660.36353 492
-12650.43750 10672.89551 391.64032 467
-12588.57715 10619.65723 659.94153 492
-12612.54492 10772.86914 391.72165 468
-12541.75391 10711.93164 662.46301 490
-12575.87695 10874.81836 389.91980 467
-12497.89551 10805.23438 663.72699 489
-12539.93945 10979.83496 394.48419 467
-12450.84863 10901.62793 660.53577 489
-12499.68457 11084.63086 393.65115 466
-12412.52734 11005.92773 663.30890 473
-30745.24219 27472.41992 -2608.02197 1000
-12463.17969 11188.77734 392.87552 466
-12376.43164 11108.34082 664.70813 472
-12421.87695 11291.36719 395.86523 465
-12339.09082 11214.68164 668.19952 472
-12390.43457 11398.59766 393.21957 425
-12299.08594 11319.33691 669.62964 471
-12372.86230 11522.80664 395.05219 424
-12265.07715 11426.06641 671.05896 472
-12352.47852 11652.18945 399.20270 424
-12231.87207 11534.40820 672.74219 472
-12339.31641 11784.08203 400.16098 401
-12196.84668 11644.87695 672.04034 471
-12329.47656 11919.43652 399.56137 401
-12164.03418 11759.12402 672.60101 470
-12323.51562 12062.02441 401.40186 375
-12137.79590 11877.77930 675.80933 414
-12334.63770 12219.77734 403.19867 374
-12118.86230 12009.55762 678.46472 413
-14156.19629 14009.44238 4431.83838 1000
-12387.58105 12420.98242 407.53519 305
-12103.87305 12140.46191 683.41858 412
-12092.97559 12278.63184 685.78925 414
-12091.71680 12430.31250 688.69385 413
-12099.14746 12589.90723 690.29327 374
-12110.24609 12759.93652 698.14844 325
-1520.36572 2114.85669 86.17390 305
-1480.29956 2088.77368 87.38837 342
-1489.05884 2127.67529 42.84550 324
-1448.30457 2073.37646 87.77812 361
-1440.69653 2090.14893 44.93197 267
-1420.87610 2062.09497 88.12640 362
-1388.44055 2045.25989 47.09169 338
-1394.80945 2053.76001 88.45227 334
-1358.31519 2029.36096 48.21532 339
-1371.61963 2048.17310 89.03428 341
-1329.33582 2015.70374 49.52564 383
-1349.52087 2044.33154 89.42302 341
-1304.29248 2006.21899 50.10189 400
-1333.96045 2047.67798 89.02289 292
-1280.63855 1998.33130 50.47011 401
-1437.31458 2225.87036 85.48814 469
-1257.85339 1991.24902 51.57459 412
-1420.67542 2230.20654 85.77847 460
-1236.47168 1985.79333 52.24308 413
-1305.40503 2088.09741 89.32630 424
-1305.64600 2089.32593 130.11586 424
-1215.20923 1980.77551 52.30158 424
-1283.85071 2083.64941 89.00745 425
-1281.87378 2081.01904 130.49919 312
-1219.93152 2014.32922 11.92731 400
-1195.05481 1976.28687 52.88393 425
-1262.49976 2079.69629 89.60764 426
-1280.86963 2107.76709 130.30663 387
-1198.69043 2008.93823 12.72645 416
-1175.17212 1972.44531 53.56720 426
-1252.08984 2091.74487 89.40041 389
-1276.48730 2129.80273 130.51260 387
-1178.35901 2005.04041 13.43722 417
-1155.87024 1968.75720 53.80972 427
-1247.55676 2112.99341 89.33294 388
-1272.52454 2152.42065 130.42245 386
-1158.87317 2000.53723 14.31353 418
-1136.52026 1964.54871 54.73173 428
-1203.14807 2071.36206 90.02802 429
-1138.73206 1996.00854 15.23738 419
-1117.30994 1960.69885 55.14906 429
-1176.84033 2057.53882 90.97905 430
-1119.64417 1991.91138 15.83607 420
-1098.39539 1957.37170 55.22347 430
-1158.88306 2056.39233 90.68005 432
-1100.31653 1987.64917 16.22367 402
-1079.42590 1953.21887 55.47815 431
-1150.09766 2070.63867 90.92046 420
-1080.89868 1983.09949 17.16523 403
-1061.02930 1949.88342 55.90714 432
-1146.77795 2094.21777 90.17910 469
-1147.67236 2095.34424 210.08453 382
-1059.63147 1975.40881 17.85195 308
-1042.40173 1946.41040 56.28736 411
-1076.80139 2005.01880 92.62543 435
-1140.39246 2113.17822 130.16890 486
-1140.79211 2112.77539 170.21513 435
-1127.51843 2091.59082 209.49657 469
-1039.01917 1967.61816 18.89837 308
-1024.70581 1943.16125 56.83305 412
-1058.07544 2000.62683 92.83974 436
-1114.72998 2098.10132 209.88727 497
-1018.89709 1959.93958 19.91495 309
-1007.17041 1940.00842 57.31584 413
-1045.38684 2006.73413 92.44505 410
-1106.98352 2115.09204 209.88512 360
-998.42035 1952.43359 20.42884 309
-989.64380 1936.53857 58.03721 414
-1041.25647 2028.94421 92.25420 408
-978.46979 1945.74817 20.99403 310
-972.43573 1933.64551 58.32716 415
-1037.10107 2050.98169 91.76317 413
-959.17645 1938.37671 22.04156 310
-955.05310 1930.78088 58.46584 416
-1032.20117 2072.43091 91.92369 412
-940.06531 1931.35449 22.90585 311
-937.99530 1927.66052 58.84713 416
-1027.76147 2094.40283 91.77120 410
-921.96783 1925.90100 23.17551 391
-920.86652 1924.79395 58.92453 417
-1022.88672 2116.70386 91.28275 409
-904.86975 1921.47986 23.95258 392
-904.66968 1921.44409 59.85526 418
-1018.41974 2139.86084 91.03421 414
-956.73413 2021.59680 204.87578 460
-887.01697 1917.23816 24.69153 393
-887.74994 1918.50342 60.03426 419
-1012.74750 2162.11255 90.55789 412
-944.61255 2029.00757 205.38577 407
-870.00110 1912.43835 25.19316 394
-871.66217 1915.43396 60.40482 420
-1007.45020 2184.50146 90.48117 411
-852.99591 1908.46936 25.82170 394
-855.50067 1912.57031 60.69275 420
-836.78937 1903.95398 26.56388 395
-839.63385 1909.78882 60.63793 421
-935.02734 2104.50024 207.07729 463
-819.95636 1899.92371 27.08548 396
-823.66284 1907.59229 61.31108 363
-935.48547 2138.99854 130.44316 472
-935.31458 2138.67700 168.98059 447
-926.19855 2119.41064 207.71146 402
-929.27045 2125.54541 285.08780 481
-803.79120 1895.54321 27.18972 397
-808.24188 1905.08459 61.59900 364
-786.99762 1891.61865 28.08300 398
-792.69812 1903.24426 61.98389 364
-771.42072 1887.74902 28.57264 448
-777.54858 1901.00281 62.04982 365
-756.17664 1885.26807 28.82859 484
-762.21936 1899.09387 62.18803 365
-742.89771 1886.54517 29.34252 436
-748.96466 1900.11548 62.69325 401
-729.70721 1888.19543 29.47813 437
-738.27399 1908.11426 62.60511 328
-716.29999 1889.85071 29.64709 437
-828.40546 2148.99609 54.14749 429
-703.83527 1891.81934 29.99861 437
-762.67084 2030.37402 58.17249 455
-762.97534 2031.33215 94.67074 455
-746.66083 1992.36279 130.48985 471
-691.24323 1894.74658 29.62151 354
-794.70300 2143.04663 54.35727 431
-752.23541 2076.32178 20.58829 385
-777.94196 2139.80371 54.88706 431
-746.64685 2101.13599 19.58023 384
-761.52936 2137.08618 55.41462 432
-238.64854 854.05475 10.48818 446
-240.52876 858.44458 25.17120 388
-742.06348 2126.21802 18.51394 383
-745.09119 2133.46753 55.48587 433
-232.11191 852.97192 10.81008 484
-233.14908 855.52271 25.74733 484
-234.41148 858.79437 40.47844 478
-235.70082 862.24902 55.32677 375
-727.67719 2128.46045 18.64723 438
-728.82983 2130.82593 56.02403 360
-225.75140 851.68762 -3.74477 499
-226.59219 853.99078 11.11899 499
-227.41721 856.31763 25.96903 499
-228.51419 859.10980 40.87340 497
-229.29399 861.07446 55.69360 498
-230.27493 863.64252 70.79123 483
-711.21271 2124.50903 18.90470 439
-712.93860 2129.20581 55.73299 360
-220.67937 854.71570 -4.01203 489
-221.55449 856.86230 10.83868 489
-222.41745 859.18768 25.65323 489
-223.61732 861.83984 40.57924 461
-224.27426 863.77142 55.71248 457
-225.15630 866.30835 70.73106 456
-696.01147 2124.36865 19.17275 469
-699.01660 2131.32471 56.27504 393
-217.68307 862.65350 10.38132 402
-218.75441 865.63391 25.30478 402
-220.10030 869.23950 40.20887 394
-681.85559 2125.68286 19.14100 470
-685.90906 2137.92188 56.09768 347
-668.71320 2130.52905 19.54471 354
-85.64510 4130.51709 1165.78455 1000
6169.84033 59233.71875 -852.73639 1000
4615.60693 33792.82812 126.36490 1000
2745.49414 13437.72266 -1445.59595 1000
11039.96094 44071.73438 -1359.31519 1000
11599.64160 9253.70215 -3308.24341 1000
2701.24072 1361.43909 -60.42755 288
2677.51025 1348.82727 -10.82655 426
2693.82959 1337.17371 -58.70786 295
2689.79712 1334.70422 -10.52989 445
2699.28149 1319.69226 -58.75745 440
2702.42041 1321.57593 -10.81637 457
2715.67969 1308.01599 -59.46191 432
2715.86963 1308.44055 -11.43865 456
2731.77490 1295.72400 -59.68159 431
2730.13892 1294.69751 -11.52443 464
2930.37231 1393.39185 28.95312 433
2748.25391 1283.80713 -60.62323 426
2744.56104 1282.14001 -11.85685 463
2926.14673 1369.69470 29.27962 433
2765.00903 1271.22388 -61.64414 425
2759.78955 1269.21069 -12.14561 472
2921.73438 1346.94116 30.22662 434
2781.02686 1259.31152 -61.56011 419
2774.71338 1256.46301 -13.11401 471
2918.04443 1322.89539 30.72560 435
2799.02686 1247.17078 -62.94873 408
2790.77661 1243.43518 -13.32747 468
2913.59180 1300.34058 30.91803 436
2817.68433 1236.30530 -63.43930 407
2807.55322 1231.41833 -13.86122 458
2909.50122 1277.75464 31.33494 436
2838.29810 1225.01001 -63.91684 408
2826.15918 1219.28467 -14.62586 457
2905.44312 1254.92969 32.11573 437
2858.98779 1214.07166 -65.54792 402
2845.17578 1207.77136 -14.72580 451
2901.08887 1232.44763 32.21611 338
2880.64771 1203.01221 -65.96673 396
2866.67529 1197.59924 -15.92758 440
2897.09326 1210.10889 32.74645 441
2904.68457 1192.87488 -67.85834 391
2888.18701 1186.58362 -16.78868 436
2906.80322 1194.20239 32.99483 482
2931.89087 1184.79395 -68.47380 372
2911.61475 1175.60376 -17.02741 427
2922.31445 1180.65405 32.12713 419
2964.81738 1177.19617 -70.91730 361
2938.46631 1166.45300 -18.11217 395
2999.02295 1170.27844 -72.27306 360
2971.20923 1159.43396 -20.05624 384
3033.91162 1163.91638 -74.33334 363
3007.05396 1152.86414 -20.96246 382
3069.75146 1156.25989 -76.24275 377
3042.17041 1146.38672 -22.27155 381
3105.60791 1149.24255 -78.42246 376
3079.18677 1139.29871 -23.97217 380
3142.24756 1141.99756 -80.89500 375
3116.64624 1132.40039 -25.68572 378
3179.44897 1133.93164 -82.97588 374
3154.21582 1125.61145 -27.01619 377
3217.37964 1126.86877 -84.63561 372
3193.21143 1117.65479 -29.03586 376
3257.08472 1118.82080 -87.36373 366
3232.68994 1110.60132 -30.56054 374
3299.01074 1111.47314 -89.31755 364
3273.79028 1103.28455 -32.96134 373
3341.47998 1104.81506 -91.52338 364
3315.05371 1095.33459 -33.93041 372
1617.87451 376.56366 -22.14392 449
1623.69153 377.90155 3.32344 334
1616.05872 366.17685 -21.75029 499
1620.62170 367.02725 3.39187 498
1624.15845 368.07693 29.09112 489
1620.94165 357.24463 -22.14430 453
1627.50122 358.86905 3.12545 397
33309.88281 4594.53516 2338.94141 1000
48744.00391 6424.80713 2556.13110 1000
13818.29492 707.60925 -1673.54907 1000
2649.14160 -134.49196 -34.96132 495
2651.95117 -134.70772 7.06982 468
2654.59229 -150.59991 -35.79137 371
3664.19434 -409.08673 -44.07850 356
3622.18652 -426.43814 -41.46909 433
3670.85132 -431.72491 14.79555 302
3606.90503 -446.42017 -41.43989 477
3656.12061 -452.15649 15.59251 258
3595.50781 -466.50516 -40.70033 478
3644.47021 -473.05807 15.88045 492
3584.55713 -487.37146 -39.94836 482
3688.49365 -501.31433 13.70078 461
3573.93579 -507.53781 -40.05966 483
3567.47168 -528.24933 -39.45326 490
3555.68335 -548.53564 -39.76122 409
3545.70508 -568.48285 -38.75376 491
3539.59253 -589.25763 -39.12199 491
3531.36646 -609.91071 -38.58374 494
3520.60767 -629.22992 -38.49440 494
3513.96851 -649.87787 -38.22440 479
3576.34351 -661.80280 16.71012 329
3655.78320 -676.49774 132.72913 496
3503.47021 -669.92902 -38.01667 495
3550.26807 -679.16748 17.56009 493
3624.37109 -693.76178 74.03752 327
3589.25171 -686.60870 133.28851 294
3497.01538 -689.82855 -38.06891 497
3541.25439 -699.49628 18.13548 493
3564.53760 -703.92767 74.89397 328
3540.56421 -699.30939 132.93478 425
3490.75928 -710.50317 -37.72397 497
3532.03833 -719.15381 18.16722 493
3527.08472 -717.98828 75.05838 499
3536.36182 -720.28595 133.21581 425
3484.26172 -731.38824 -37.84728 498
3523.63770 -739.55310 18.21715 499
3524.58911 -739.80475 74.96184 499
3532.23657 -741.11688 133.37419 425
3478.41406 -751.10193 -38.01152 498
3519.97754 -761.16455 17.47546 499
3520.46143 -761.28546 75.83443 499
3528.51001 -762.66162 133.18753 425
3473.10205 -772.32581 -37.67606 498
3516.29980 -781.74127 17.91735 499
3517.11377 -782.05829 75.70000 499
3524.30566 -783.72418 132.80855 425
3468.44067 -792.59167 -37.16916 498
3512.52002 -803.45972 17.93272 499
3513.08374 -803.08899 75.27195 499
3501.16333 -800.59668 133.15631 341
3756.42188 -860.26984 195.04112 486
3463.49219 -813.22473 -37.76562 498
3502.58130 -823.07178 17.56456 499
3504.38208 -823.78345 75.62736 499
3496.05103 -821.99854 133.25151 478
3459.01172 -834.73438 -37.50530 498
3499.98633 -844.52570 18.41511 499
3501.82935 -845.05426 75.77798 499
3492.61841 -842.56299 133.11491 478
3454.85327 -854.96759 -38.07457 498
3496.64722 -866.06940 17.98314 499
3497.53784 -866.75488 75.15211 499
3488.53735 -863.47797 132.41466 478
3450.57056 -875.99438 -37.74619 497
3493.29419 -886.89954 17.52929 498
3493.39746 -887.00629 75.41534 497
3485.45044 -885.10034 132.84523 481
3446.75439 -897.55103 -38.13425 497
3494.32422 -909.64270 17.82451 498
3494.82568 -909.76154 75.45617 499
3482.05249 -906.49542 132.64580 481
3447.21460 -919.87238 -38.27729 498
3491.15796 -931.62622 17.35649 498
3492.22534 -932.11987 74.93726 498
3478.26318 -928.51392 133.31386 481
3440.54199 -940.19543 -38.21822 498
3486.86377 -953.08710 17.34805 498
3488.07983 -953.02576 75.47395 498
3476.21216 -950.00751 133.10352 348
3440.31128 -962.08362 -38.03375 498
3483.51929 -974.80170 17.32978 498
3485.24438 -974.70209 75.08021 498
3485.05371 -974.43280 132.71220 424
3618.58447 -1013.33191 192.70251 264
3436.74707 -983.04614 -37.98044 498
3480.59985 -996.28351 17.53979 498
3480.30249 -996.34668 74.69176 496
3480.73364 -995.93286 133.25604 424
3585.11157 -1026.92773 192.14696 495
3432.21704 -1004.07684 -38.06929 475
3476.30103 -1017.27704 17.50820 497
3477.28638 -1017.46490 75.32782 498
3477.17749 -1017.16376 133.18376 424
3551.02490 -1040.01245 191.81638 372
3426.25854 -1024.81091 -38.80279 497
3555.71729 -1064.40088 192.61833 456
3425.75488 -1046.86572 -38.75192 497
3550.68994 -1086.37183 192.20958 484
3595.99756 -1100.57141 253.43507 496
3421.98877 -1068.33215 -38.61346 497
3602.32568 -1125.87500 193.23445 455
3417.09814 -1089.46484 -39.04413 478
3550.50464 -1132.86877 192.71753 316
3412.70825 -1110.40259 -39.64513 496
3411.79639 -1133.27686 -39.95286 496
3407.74927 -1154.29016 -39.20894 496
3401.14502 -1175.19238 -39.75975 495
3398.40576 -1196.78210 -39.75482 495
3560.62817 -1255.68298 11.96641 499
3561.52100 -1256.04919 72.59917 499
3393.72339 -1218.06921 -39.69456 492
3547.60474 -1274.96680 12.61454 495
3389.86987 -1239.82300 -40.40805 492
3428.50537 -1254.75964 16.59187 495
3386.33545 -1262.01831 -40.87263 492
3678.42505 -1373.73792 6.78315 469
3382.54590 -1283.80908 -40.89138 491
3420.75122 -1298.95996 15.79489 494
3378.64868 -1305.48853 -40.62151 491
3580.40356 -1385.40283 10.32786 356
3375.01147 -1327.23682 -40.82391 491
3483.64990 -1371.05249 12.77643 460
3371.41846 -1349.78064 -40.93096 490
3471.50659 -1390.12073 13.18001 498
3373.58276 -1373.26587 -41.88530 416
3461.29199 -1409.96716 13.06586 498
3565.32153 -1454.47693 71.13496 287
3470.20605 -1438.59180 -47.12643 473
3450.14233 -1429.59546 13.82902 498
3469.42334 -1437.91125 72.90585 287
3471.47144 -1464.01965 -47.93938 287
3443.64697 -1451.40759 13.66228 473
3455.41821 -1456.31433 73.07379 312
3445.31445 -1476.51770 13.11606 472
39822.42969 -21434.53320 -10385.77734 1000
35331.26562 -20721.55273 138.90495 1000
13080.83984 -7745.54834 877.62994 1000
16981.42969 -10071.46387 3382.27002 1000
27362.21094 -21185.00781 -4409.88281 1000
2131.01270 -1646.12231 -39.56650 275
2109.16797 -1648.71460 -38.50486 493
2113.24951 -1652.31555 3.78171 493
2118.40210 -1656.94507 46.84663 466
2102.48950 -1664.30981 -38.35545 435
2109.63989 -1670.11243 3.64248 374
38376.96484 -38118.62109 2791.06934 1000
40640.47656 -52387.92969 -14173.11523 1000
1300.10889 -1689.07861 -4.04446 417
1283.15442 -1687.08008 -3.37194 426
1276.67639 -1678.84570 31.16246 417
1266.00049 -1685.31519 -2.37390 428
1260.06091 -1676.20398 31.89228 431
1249.87061 -1683.96924 -1.85026 428
1243.63574 -1674.72217 32.14700 432
1233.21472 -1682.19128 -0.98948 428
1227.12891 -1672.53821 32.81042 433
1228.94983 -1675.35876 66.07865 411
1216.74207 -1680.34656 -0.07641 429
1208.01575 -1666.63574 33.39616 420
1213.15149 -1674.58325 66.45525 350
1201.14197 -1678.24036 0.07284 431
1193.66919 -1667.48035 33.89261 431
1197.78589 -1673.82776 66.37846 351
1184.73608 -1676.31616 0.76632 432
1177.50879 -1665.42163 34.46486 316
1182.86670 -1673.15442 66.75936 351
1169.10266 -1675.10828 1.72391 431
1160.75854 -1661.83240 35.20471 317
1167.40942 -1672.49670 66.88223 352
1153.42688 -1672.76086 2.14837 431
1145.30408 -1659.88745 35.53932 446
1152.90649 -1671.89075 67.29688 283
8593.26367 -13548.92969 -2778.28979 1000
1137.83838 -1671.43372 3.06867 421
1130.11768 -1658.33447 36.03993 377
1138.81580 -1673.01465 67.51083 283
1123.08496 -1670.01746 3.57787 422
1114.44812 -1656.33777 36.52054 448
1127.99670 -1678.78625 67.85978 256
1107.96875 -1668.82336 3.99348 423
1099.52893 -1654.56213 37.02665 449
1201.33337 -1821.56860 62.15355 398
1093.06592 -1667.14502 4.65369 424
1084.59851 -1653.18079 37.38096 450
1197.53540 -1840.95923 62.18636 438
1078.47888 -1666.02258 5.23971 425
1069.96191 -1651.71765 37.87066 451
1181.62830 -1839.80420 62.31145 472
1063.93774 -1664.89233 5.92181 425
1055.68274 -1650.36243 38.28809 452
1181.81714 -1865.66943 61.47634 395
1049.31836 -1663.75586 6.26361 426
1041.07703 -1648.81775 38.46550 453
1049.38916 -1663.58142 69.43542 431
1027.30969 -1662.21729 7.20239 427
1019.05212 -1647.79443 39.60294 396
1164.24915 -1903.43433 60.73590 473
1013.19843 -1660.98645 7.59349 427
1005.34760 -1646.91162 39.55350 397
1155.56921 -1914.84802 60.37815 454
999.16681 -1659.94873 8.34566 428
990.94727 -1645.87927 39.97939 455
238.74068 -431.09457 -16.18979 455
985.16412 -1658.64758 8.58219 429
978.92902 -1647.27429 40.41227 456
1123.42920 -1912.06250 61.31522 456
971.50824 -1657.79614 9.42912 430
965.31409 -1645.74377 40.83369 457
967.46429 -1649.81274 71.11856 450
957.87872 -1656.50598 9.81822 424
951.37061 -1644.62952 40.98194 458
953.78986 -1648.84546 71.43811 450
943.83234 -1654.71521 10.23051 425
937.94135 -1643.08215 41.72786 459
939.92004 -1647.16907 71.77654 451
930.07611 -1652.71875 10.71649 421
924.76971 -1641.70508 41.97651 460
926.87512 -1646.14160 72.11870 452
916.92126 -1651.54224 11.02459 421
910.97919 -1640.79675 42.25252 461
915.05151 -1647.74609 71.88755 462
903.63959 -1650.60083 11.38476 422
897.79047 -1639.39746 42.75286 461
901.44171 -1646.74634 72.17036 463
890.64551 -1649.64453 12.20976 422
885.13690 -1638.07495 43.06306 462
888.61743 -1645.61951 72.41553 464
877.39874 -1648.37024 12.54786 423
872.18256 -1637.10657 43.01450 469
875.57355 -1644.15015 72.86510 464
876.22925 -1645.78711 102.41293 464
864.79138 -1647.64771 13.10289 425
859.45917 -1636.53772 43.26749 469
862.61542 -1643.01733 72.85180 468
863.84680 -1645.92041 102.42446 469
851.90088 -1646.57080 13.04895 430
847.62653 -1636.82239 43.67500 479
850.69476 -1643.24561 73.24052 485
851.60291 -1645.62842 102.64442 482
839.64478 -1646.53015 13.63193 434
835.76233 -1637.50732 43.95807 485
838.76178 -1644.49744 73.44152 485
839.82898 -1646.85742 103.05524 483
827.72174 -1647.00940 14.08966 440
823.75562 -1638.54199 44.31583 486
826.94208 -1645.73901 73.35078 486
827.82147 -1647.52698 102.79218 483
816.18060 -1648.38098 14.13406 440
812.50934 -1640.03882 44.24343 488
815.77771 -1646.77271 73.46150 485
819.23523 -1655.54028 103.01870 477
804.75134 -1649.33337 14.44412 441
801.31702 -1641.29175 44.55544 490
806.86932 -1654.13318 73.28148 481
810.95813 -1663.46631 102.60094 477
793.29480 -1650.95032 14.44637 440
790.04041 -1643.42529 44.63834 491
797.58966 -1661.34875 73.34332 480
804.95197 -1678.01721 102.54685 359
782.41974 -1653.01819 14.54775 443
779.42139 -1645.81677 44.64423 492
791.51660 -1674.75000 72.95285 360
802.88855 -1701.45935 102.27083 358
771.39722 -1655.05371 14.87289 442
768.42682 -1648.06531 44.76371 488
788.52502 -1696.61450 72.26082 358
800.43878 -1725.35132 101.85085 357
760.09314 -1657.16406 14.94816 442
757.58850 -1650.33960 44.96428 491
786.11517 -1720.30237 71.31056 356
798.40234 -1749.97266 101.55009 355
749.47083 -1659.37976 14.98153 445
746.58502 -1652.59167 44.67103 491
783.64667 -1744.17126 71.10930 356
795.68298 -1774.82910 101.17398 354
738.51984 -1662.09863 15.45590 445
736.02075 -1655.09180 45.10528 491
781.15826 -1769.18127 70.25790 355
792.71826 -1799.07874 100.72341 353
727.62122 -1664.54517 15.30795 445
725.24677 -1658.06055 45.28203 492
778.55908 -1794.23560 69.60207 353
790.47461 -1825.82153 100.43294 352
717.23590 -1667.21545 15.35521 447
714.69647 -1661.24280 45.25149 490
775.56653 -1820.42712 68.81261 351
787.91937 -1852.59009 100.00912 351
706.57837 -1669.97510 15.69567 447
704.78406 -1664.14417 45.13252 491
771.76868 -1843.73730 67.76231 278
696.26074 -1673.62781 15.75648 450
694.11023 -1667.82092 45.21223 489
767.89636 -1868.66028 67.22556 274
685.99579 -1677.06543 15.77811 450
684.23657 -1671.58533 45.34800 489
676.00342 -1680.63989 15.61571 451
673.85919 -1675.78455 45.17604 489
665.70166 -1684.60742 15.44691 451
664.05145 -1680.00586 45.01088 488
655.57178 -1688.48816 15.36981 450
653.71332 -1684.20728 44.80568 488
645.47382 -1692.67651 15.65380 450
643.63727 -1687.95056 45.06304 483
635.23541 -1696.75757 15.47988 446
633.45215 -1692.24622 45.07633 483
625.18127 -1701.00854 15.30621 446
623.35504 -1696.17273 44.88002 479
615.16754 -1704.69470 15.31477 455
613.55341 -1700.48877 44.58919 479
604.46564 -1708.42725 15.37720 456
603.52679 -1704.98291 44.76820 478
594.58319 -1712.64331 15.09460 456
593.63257 -1709.73279 44.55106 472
584.16528 -1716.79333 15.30534 462
583.57336 -1714.69104 44.36284 470
573.92926 -1720.93042 14.89647 463
573.56659 -1719.35962 44.56630 467
563.97644 -1725.15381 14.92181 475
563.75464 -1724.86719 44.60500 466
553.87598 -1730.15308 44.26912 463
544.08270 -1735.31921 43.97463 463
9139.94629 -37708.73828 -4980.12744 1000
13796.07129 -65957.56250 5643.97119 1000
-2629.23486 -51399.07031 121.73110 1000
-719.16583 -3163.04419 131.44218 378
-718.10693 -3162.27783 184.90448 438
-718.41022 -3161.81152 238.86569 438
-4019.54688 -12795.47559 1231.51245 1000
-1145.38843 -2581.69043 84.76936 347
-1144.31860 -2579.57422 132.03854 413
-1143.38562 -2577.44678 178.65341 413
-1141.95386 -2575.10889 224.98174 413
-1141.23804 -2572.60254 271.46997 464
-28720.47656 -34834.10938 125.06470 1000
-20866.28711 -19318.61719 -7011.60107 1000
-39223.93359 -26750.34766 -3772.15454 1000
-4668.86182 -2595.63452 130.97476 419
-4097.44971 -2152.54004 131.28848 484
-4109.50293 -2158.82349 208.67404 263
-3539.30566 -1727.24854 131.99936 431
-3556.30542 -1708.11255 131.49449 355
-256.52765 -74.61340 35.43709 321
-254.52289 -71.89557 36.13894 321
-252.46884 -69.29766 36.77702 322
-272.69482 -73.35162 37.79444 318
-253.09979 -67.13895 36.72063 352
-270.51190 -70.59680 38.40092 321
-254.92879 -65.34595 36.28701 351
-269.43866 -68.04344 38.83049 345
-290.34036 -71.98867 40.26627 318
-256.80823 -63.40188 35.82412 351
-271.14078 -66.05619 38.47192 345
-288.41589 -69.24216 40.86437 318
-258.63562 -61.50866 35.40696 350
-273.13275 -64.09475 38.05957 347
-289.19119 -66.92075 40.79607 341
-260.92145 -59.65067 34.95723 326
-275.17334 -62.09373 37.56713 346
-291.09641 -64.80286 40.32881 341
-280.73590 -60.64024 36.34818 323
-195.89465 -12.36533 53.27023 324
-195.86809 -10.58778 53.29752 324
-195.85324 -8.79954 53.31413 324
-195.87430 -6.98970 53.29828 324
-195.81697 -5.19449 53.28491 324
-195.87015 -3.37906 53.31314 324
-195.78241 -1.57890 53.32462 324
-195.72418 0.21963 53.29555 324
