# .PCD v.7 - Point Cloud Data file format
VERSION .7
FIELDS x y z rgb
SIZE 4 4 4 4
TYPE F F F U
COUNT 1 1 1 1
WIDTH 670
HEIGHT 1
VIEWPOINT 4169.303223 -4089.456787 132.755569 -0.001274 -0.132711 0.003393 0.991148
POINTS 670
DATA ascii
-275.15179 58.49494 33.67888 319
-269.07907 59.79683 35.20852 326
-283.34625 62.21150 37.91042 323
-265.10950 61.34782 36.17429 350
-279.50729 63.84182 38.74777 347
-295.60999 66.62851 41.37570 341
-263.23505 63.27826 36.57531 351
-277.58401 65.81779 39.17213 345
-294.23257 68.84502 41.61612 319
-261.31631 65.19524 37.00782 351
-275.75656 67.86877 39.46516 345
-259.40222 67.02189 37.37292 352
-276.49557 70.27704 39.21109 322
-258.51392 69.04954 37.49174 325
-278.40555 73.01767 38.63389 319
-260.36945 71.66277 36.85544 322
-262.30933 74.30004 36.18166 321
-17009.52539 17668.25586 2515.88574 1000
-31339.75586 60254.91016 -13479.45020 1000
-24789.49609 52312.99219 -1838.80737 1000
-8353.56543 18327.34180 -3565.38940 1000
-277.59317 1943.12610 1.55283 475
-277.77914 1945.77966 33.92794 497
-278.34854 1948.99536 65.91701 497
-265.20822 1944.92566 1.30528 495
-266.51810 1949.93359 33.73859 468
-255.79820 1959.12524 0.70460 356
1188.40320 15358.84473 375.95691 483
1288.63562 15421.05566 125.99725 469
1279.29541 15323.30957 376.88684 484
1378.84058 15378.75391 122.43607 472
1370.31287 15285.61523 375.19513 487
1471.43835 15348.46680 125.69456 476
1465.72168 15255.38086 376.34653 488
228.65634 1456.30469 12.30636 371
229.83424 1465.95312 35.57876 298
1565.68689 15313.10547 126.48595 476
1553.65088 15224.45117 374.10831 488
237.04956 1449.70410 12.68584 476
237.44598 1453.54785 36.39412 476
238.03503 1457.52295 60.16310 472
238.40343 1461.60962 83.90347 432
1654.81567 15281.95410 125.53992 477
1645.92188 15192.34180 374.59973 489
245.82083 1448.61523 12.59865 494
246.50359 1452.18054 36.59218 494
246.70486 1455.66064 60.39704 489
246.98906 1458.94531 84.15231 466
1744.84888 15250.14941 123.24781 477
1737.00586 15158.39551 376.47076 489
255.66151 1452.98486 12.09075 418
256.24057 1458.72083 36.07959 353
1835.83215 15217.50098 126.26290 477
1828.12842 15129.84570 373.96536 489
7239.13037 58981.34766 -15819.26660 1000
1927.92029 15184.96875 124.89332 478
1918.48181 15096.61719 372.57004 490
2020.78699 15154.77344 126.21913 478
2007.50439 15067.81348 373.77139 490
2108.12134 15122.37109 125.68862 478
2097.53931 15036.35742 375.72366 490
2197.94751 15092.52637 124.00910 478
2185.85156 15003.05957 374.15726 491
2291.17432 15059.37500 124.91418 479
2276.70923 14970.86426 372.38354 491
2379.11548 15027.33105 125.08864 479
2365.76538 14940.86621 371.23599 491
2469.85229 14995.80957 124.16586 479
2454.19067 14912.70410 372.26675 491
2556.98853 14967.16699 126.73598 479
2543.47925 14879.84180 371.99506 492
2647.13623 14935.38086 125.02763 480
2631.18774 14848.18750 372.05289 492
2737.50073 14901.16699 125.82004 480
2721.57080 14821.20020 374.72818 492
2824.78369 14870.16895 126.87387 480
2807.38452 14787.34961 371.60657 492
2911.60034 14841.79590 128.50160 480
2897.90723 14759.48926 373.95691 493
3002.92529 14811.12793 125.45680 481
2986.47803 14726.85254 372.13742 493
3088.77783 14780.78809 127.03214 481
3071.83105 14697.45898 371.14771 493
3177.27515 14747.20410 128.30241 481
3158.74683 14667.33398 370.38550 493
3264.19580 14719.00293 128.15459 481
3250.26123 14634.72266 374.14185 493
3354.61426 14685.44141 125.96404 481
3333.51050 14604.17969 373.99161 494
3440.64258 14655.60742 128.43550 482
3424.06934 14576.71875 373.11661 494
3528.17944 14625.17480 126.74103 482
3511.62671 14545.87109 373.35782 494
3614.75024 14595.42676 129.39905 482
3595.77734 14514.85840 374.04291 494
3701.27734 14564.28320 128.58688 482
3681.96826 14485.67090 370.29816 494
3791.78857 14532.25293 129.24753 482
3772.74512 14454.06641 373.49088 494
3875.61719 14500.04199 126.95126 482
3857.17310 14424.84375 371.03601 495
3963.85596 14470.08789 126.52937 482
3943.85938 14396.38574 371.18738 495
4050.50488 14440.25488 128.90796 482
4029.14844 14364.92090 373.87317 495
4136.99316 14408.32324 127.29424 483
4116.58057 14336.15820 370.47131 495
4225.36719 14378.12305 127.97859 483
4203.81055 14303.11133 373.35474 495
4311.18115 14350.98340 130.56807 483
4288.19629 14274.22754 373.21786 495
4399.95264 14318.57520 129.29141 483
4375.28467 14245.43262 370.47861 495
4591.03906 14952.79688 638.90289 494
4483.08447 14287.77734 127.65184 483
4461.84766 14216.70605 373.89944 495
4675.09375 14906.37500 637.35559 494
4695.30127 14972.91113 899.48645 413
4572.23486 14258.49609 127.72897 483
4547.08789 14184.67188 372.48239 495
4760.74707 14857.40820 637.55737 494
4780.81201 14921.35352 897.60266 413
4657.91846 14227.01953 130.23950 483
4637.07666 14154.53809 371.98361 495
4845.92090 14810.43750 636.31714 494
4864.88721 14873.68652 896.94244 414
4746.76465 14198.86230 129.14638 483
4720.24805 14126.69434 371.48001 495
4930.65039 14762.98730 636.23047 495
4950.08545 14824.06641 893.66595 414
4832.75537 14167.19336 130.56691 483
4806.61865 14096.34570 373.31290 495
5013.10400 14717.20215 639.13873 495
5036.62354 14777.54102 896.83441 414
4919.99316 14136.68359 128.76135 483
4894.84570 14063.83398 374.67932 495
5098.23779 14669.35645 638.02222 495
5118.71045 14728.34766 891.84418 414
5005.04932 14106.25781 127.93109 483
4980.14307 14036.57617 371.17816 495
5186.21191 14621.42676 635.44348 496
5203.04785 14679.61133 894.11078 414
5088.85840 14076.82031 128.43883 483
5067.62158 14007.38281 371.14783 495
5267.00391 14574.20605 634.33441 496
5287.95752 14633.07617 892.75684 415
5178.62695 14046.95996 130.76544 483
5150.43652 13977.34863 371.18344 495
5351.17383 14528.41016 634.17535 496
5372.97754 14585.64844 890.37683 415
5261.84619 14013.49023 130.62810 483
5236.93701 13947.89355 373.32086 495
5442.61670 14495.05664 636.20142 499
5461.05469 14550.33105 890.90997 417
5348.40137 13982.96973 129.80354 483
5325.76807 13916.16406 372.30374 495
5529.76465 14460.82422 634.40149 499
5549.91504 14516.50391 890.42285 417
5438.63525 13953.57324 128.15997 483
5409.00635 13886.65137 372.71939 495
5618.81348 14428.45215 634.15668 499
5639.74268 14486.61914 893.03821 417
5523.38135 13923.58203 128.30663 483
5497.16846 13857.48438 374.77866 495
5707.58154 14399.64551 637.49170 499
5729.16797 14453.43555 893.18384 417
5609.80469 13893.23340 129.71904 483
5582.48828 13824.60254 373.43140 495
5795.81836 14367.28516 636.59406 499
5820.48535 14421.43066 894.46722 417
5696.99072 13864.47754 131.22116 483
5668.97119 13795.16016 374.91681 495
5888.88232 14335.04102 634.61151 499
5908.78027 14390.48047 894.77448 417
5782.63281 13834.01562 129.47632 483
5754.86182 13764.43359 376.37103 495
5978.10791 14300.73828 636.55389 499
5999.00684 14358.39648 894.36200 417
5870.83838 13804.04297 132.00757 483
5840.68652 13737.49805 372.92053 495
6066.08203 14269.82812 638.84888 499
6090.65088 14327.10352 893.31189 417
5957.15723 13771.12109 130.16122 483
5929.28223 13708.28027 374.11011 495
6112.95215 14137.85938 632.46234 498
6170.76367 14276.25000 892.24207 499
6043.15039 13743.07812 129.76266 482
6014.62744 13677.97070 375.33615 495
6202.05225 14105.20312 632.57507 498
6259.57666 14243.70020 894.63422 499
6128.93115 13711.02832 130.30707 482
6102.83545 13646.30566 374.93088 494
6290.27832 14074.10645 632.97424 497
6353.53760 14210.14160 893.45624 499
6431.45117 14396.58203 1160.63062 283
6216.73779 13678.70215 129.82474 482
6188.71338 13617.63184 374.64209 494
6380.05713 14040.55371 635.09888 497
6439.65088 14180.49316 896.63416 498
6512.04639 14339.22656 1163.18555 352
6524.86084 14359.31543 1422.35876 382
6305.24170 13648.50781 132.50172 482
6273.95361 13586.27539 375.78934 494
6469.17676 14008.79004 637.03180 490
6530.54248 14146.83496 892.80560 498
6603.97900 14308.22949 1161.76672 294
6391.41016 13617.19141 131.01393 482
6363.44727 13557.12891 374.94751 494
6601.14697 14075.24023 639.35663 498
6610.59082 14091.26855 893.65082 469
6612.33643 14090.37598 1149.97388 469
6478.86475 13588.52539 130.46826 482
6451.35791 13523.61133 374.39304 494
6676.08936 14004.58008 637.48096 470
6673.13281 14003.71973 891.47821 470
6676.30664 14002.37402 1143.80664 469
6568.57568 13558.43848 133.73628 482
6536.32812 13495.96777 377.75989 494
6738.63574 13916.49609 636.01324 471
6739.49219 13915.70410 889.65613 470
6740.37012 13920.06543 1143.68494 470
6655.60059 13526.22070 130.63794 481
6622.62695 13462.61328 377.15567 494
6800.60449 13833.30273 635.49347 471
6804.30908 13831.18750 887.44299 471
6803.37354 13830.78516 1138.08862 471
6742.57812 13494.64746 133.81804 481
6712.58350 13434.49121 377.80997 493
6868.74658 13753.18555 633.87213 498
6868.40332 13750.52148 882.97314 498
6870.45215 13751.98828 1136.27002 497
7000.20215 14016.60059 1412.72217 451
6828.95117 13464.16602 130.40009 481
6799.48291 13401.77832 378.13248 493
6958.65967 13717.91992 634.41364 498
6957.43555 13720.29688 887.02588 497
6957.87012 13718.84766 1135.42200 497
7091.59570 13986.29688 1414.84570 451
7320.63379 14441.81738 1721.32764 469
7322.76611 14446.06055 1990.72632 496
7323.04150 14448.72168 2260.14233 496
6919.60254 13433.10547 130.94124 481
6885.68311 13371.60938 378.49701 493
7044.30078 13687.23633 636.17389 497
7031.72607 13661.96387 886.60431 497
7045.73145 13687.41113 1137.54712 497
7179.67627 13950.61621 1413.65881 469
7215.60840 14020.78906 1682.29700 483
7006.29980 13403.29785 133.85504 481
6973.96875 13341.43945 376.09830 493
7137.61328 13654.31641 636.46692 497
7122.02539 13627.29785 885.98010 497
7137.66064 13656.21094 1138.50122 497
7272.95996 13915.69434 1417.62598 469
7310.04297 13989.45215 1682.90112 483
7094.31885 13373.29004 130.42029 481
7063.80078 13312.76367 378.92188 493
7227.02295 13620.71777 635.54614 497
7212.55908 13596.79004 887.09509 497
7225.54688 13623.71777 1139.91638 497
7361.56592 13884.83008 1416.31396 469
7400.39502 13956.42871 1683.72705 483
7182.17480 13340.14258 134.14835 480
7151.11719 13282.20215 376.42404 492
7315.25244 13590.64258 637.94348 497
7299.62451 13565.98047 884.93335 497
7314.72021 13590.10938 1139.88391 496
7450.93799 13848.57715 1416.72559 469
7269.16455 13308.42090 132.85141 480
7240.49023 13249.89258 377.16541 492
7402.83447 13559.09961 635.65710 497
7391.94043 13530.91602 886.99689 496
7403.60938 13558.34180 1142.82434 496
7543.68750 13816.83594 1418.46521 468
7358.85547 13279.75098 131.93082 480
7328.89990 13221.28711 380.99884 494
7494.57422 13524.24512 637.44672 496
7482.60352 13497.49023 889.85590 496
7495.02002 13525.94824 1141.61194 496
7637.04297 13783.77246 1419.26868 468
7447.24658 13249.04395 131.39153 480
7417.67334 13190.15430 379.04724 494
7586.24902 13490.51172 637.19904 496
7570.93945 13469.03125 890.42389 496
7583.60645 13492.00977 1142.25378 496
7724.53027 13747.87891 1420.78809 468
7536.77588 13217.56934 132.23354 479
7507.61914 13158.11523 380.02725 494
7676.02246 13458.05859 638.47565 496
7660.59375 13432.63184 891.76538 496
7615.03125 13355.08789 1138.97290 389
7820.78076 13715.61426 1423.26831 468
7625.70898 13185.59668 130.91495 479
7592.60205 13126.81641 379.43506 494
7764.00098 13429.11426 640.22052 496
7766.36865 13427.49707 891.18256 495
7630.07275 13189.57324 1127.78564 390
7909.56543 13680.62793 1426.65198 468
7717.57520 13153.92773 131.98032 479
7684.73438 13095.49902 382.40955 493
7858.62598 13394.20996 639.99158 495
7857.15771 13395.65332 893.85870 495
7685.84912 13100.27246 1123.70581 495
8004.38428 13648.30371 1427.98975 468
7807.43848 13121.94727 105.38777 479
7772.25391 13065.08594 350.88138 493
7946.60938 13363.69531 611.13373 495
7838.97119 13177.26855 855.78094 491
7775.56787 13071.23730 1099.47229 495
8096.85156 13622.32617 1399.47827 468
7896.98584 13090.92969 105.36479 478
7862.62109 13037.55273 354.82565 493
8038.66797 13329.79980 610.37000 495
7955.99561 13194.33398 860.15094 352
7863.18750 13038.51270 1101.32166 494
8192.03320 13587.35840 1401.40369 467
7985.60303 13058.29102 102.46573 478
7951.56152 13006.50000 355.25488 492
8131.76123 13297.25391 614.63959 494
8129.07520 13297.17969 865.24823 494
7954.70557 13008.04590 1099.87646 494
8285.37402 13555.73633 1403.48242 464
8078.32471 13027.56055 105.83420 478
8041.91162 12972.26758 354.85889 492
8222.88574 13264.78125 613.80804 494
8219.56738 13267.28809 870.61993 494
8052.87793 12988.08398 1104.32947 296
8383.43945 13528.60352 1405.07935 438
8169.23438 12994.53027 104.19113 477
8133.05811 12943.08008 355.99121 492
8340.07031 13273.88672 615.31097 429
8340.23438 13274.06445 870.20105 429
8363.15430 13315.70312 1129.93909 424
8497.62012 13535.31152 1409.76721 437
8258.49414 12965.28223 103.35989 477
8225.03320 12909.14355 356.83765 491
8450.92480 13269.63574 618.67767 457
8470.87891 13304.20605 878.52612 428
8498.29004 13344.93848 1139.76953 423
8350.33789 12931.61328 106.45514 477
8316.30859 12877.62695 355.46872 491
8566.09863 13269.63965 618.98602 456
8599.80762 13322.02051 881.45618 455
8629.72559 13374.54785 1146.72852 422
17292.43164 26551.14062 -4089.21436 1000
8442.88574 12897.87012 105.12318 476
8407.39746 12849.78418 356.73141 491
8679.29004 13267.47949 620.19946 455
8714.75684 13323.14453 883.40613 454
720.66931 964.08441 -1.44091 435
723.15558 967.80206 16.92650 374
8534.48730 12867.62402 107.53950 476
8498.25000 12815.14258 358.56140 490
8796.29688 13268.47461 626.41534 454
8829.69727 13319.42188 885.81683 454
723.81213 955.79938 -0.95539 478
725.07697 958.02130 17.73590 478
726.35638 959.95215 36.60764 478
728.17560 962.65308 55.36488 471
729.64813 964.71918 74.13569 435
731.42023 967.80182 93.03147 374
8626.83984 12833.18652 104.33870 476
8592.18945 12786.73828 355.63651 490
8911.50000 13265.53809 624.91235 454
728.48785 950.44305 -0.85521 498
729.76135 952.54364 18.01714 498
731.06635 954.43890 36.78020 498
732.76111 956.98785 55.54407 498
734.45825 959.75067 74.20858 499
735.12689 960.55798 93.27529 498
8715.19629 12801.15332 107.96549 483
8681.24609 12752.93945 357.52219 489
9046.44336 13291.91797 631.71991 439
734.77997 947.25726 -0.92089 494
736.20789 949.63232 17.78080 465
738.04291 951.95526 36.57551 465
739.85541 955.14471 55.37426 422
741.93433 958.21661 74.19484 399
8810.15234 12770.65820 104.73911 483
8777.09082 12722.25000 360.91440 489
743.04590 946.47406 -1.30608 416
745.19055 949.92389 17.46200 415
748.66785 955.27924 35.95426 350
8903.84277 12738.74121 108.38405 482
8867.15527 12687.28613 360.97443 489
24349.25391 34582.07422 -5499.89062 1000
8994.82129 12703.95117 107.00173 482
8958.67285 12657.12988 360.24994 488
9090.44531 12675.73633 108.55910 481
9052.06738 12622.93359 361.34460 488
9182.37988 12638.95215 109.19551 481
9145.81934 12591.35254 360.65952 487
9277.85742 12606.77246 108.39574 481
9242.93652 12558.53418 362.59583 487
9374.51270 12574.31836 107.08356 480
9336.74316 12526.10449 364.55286 487
9467.38379 12543.66699 107.18376 480
9430.99316 12493.91016 363.34641 486
9565.18750 12509.20312 106.57313 479
9526.97852 12460.39941 362.47247 486
9659.97266 12474.03613 108.18424 479
9619.48535 12429.53027 364.02902 485
9753.50098 12440.50293 111.11987 478
9717.83691 12396.09766 365.88327 485
9851.66016 12410.58105 110.29974 478
9814.53516 12359.09082 366.07919 484
9948.36328 12373.89941 108.76781 477
9908.53613 12329.69824 366.35910 484
10047.75781 12339.89160 110.00780 477
10007.76562 12295.20801 367.09885 483
10143.39453 12305.35352 111.03593 476
10105.02148 12258.34668 370.17615 483
10241.26660 12270.83691 112.10441 476
10203.58496 12224.91992 370.29272 482
10341.38086 12237.44531 110.34927 475
10303.07520 12190.08203 368.63571 482
10442.25000 12202.35352 111.60853 475
10401.64160 12159.91211 373.32007 481
10539.03125 12168.16895 109.88156 474
10501.98633 12125.33301 373.97122 480
10639.85840 12134.17773 110.22643 474
10600.43945 12088.13184 373.66693 480
10743.06250 12097.91699 112.11414 473
10699.44434 12055.13965 372.42484 479
10843.91992 12065.08203 112.10871 473
10800.28809 12021.36816 376.16309 479
10942.83984 12028.50000 110.66525 472
10904.77637 11984.78320 375.79480 478
11044.74609 11993.88477 110.36020 471
11004.42480 11948.61328 374.94244 478
11148.62598 11957.59863 111.50567 471
11108.08691 11913.27637 377.42111 477
11250.88281 11923.36621 114.73434 470
11210.68945 11876.94336 378.96899 476
11355.99414 11884.37305 110.59251 470
11313.15527 11840.50781 379.41016 476
11460.72168 11851.36328 110.98683 469
11416.08691 11805.95801 382.23196 475
11567.59668 11812.39062 112.69714 468
11520.20020 11769.16406 380.81036 474
11671.67578 11776.47754 111.30791 443
11629.30762 11735.38184 382.37598 474
11789.28223 11755.23438 113.02083 443
11735.40820 11697.45215 385.01996 469
11912.53516 11730.89062 115.99390 442
11846.72852 11665.73047 384.47415 468
12034.56934 11707.55469 113.93816 442
11960.73926 11636.14941 386.95816 467
12153.81152 11679.50586 112.79508 442
12069.58594 11603.08301 388.78418 466
12278.23828 11658.08203 114.07915 441
12194.80273 11574.65332 389.71240 446
12401.02344 11630.35840 114.62907 440
12315.77930 11548.83203 392.32736 444
48361.61328 45007.89453 -8626.75293 1000
12541.17285 11613.97461 114.72744 393
12447.38477 11531.57520 390.09799 443
12695.87207 11618.36914 117.57504 392
12579.85059 11512.79590 395.35165 442
12854.04883 11622.89160 113.63012 391
12713.17871 11491.37793 396.74606 441
13033.24805 11637.21973 114.28192 369
12848.34473 11475.21973 396.02155 440
13226.82812 11665.76855 116.98021 341
12986.79004 11455.75879 397.88708 439
13468.82617 11739.45020 115.15370 276
13138.88379 11447.91504 402.08044 382
13318.11816 11464.53516 401.60968 375
13521.03027 11493.92773 405.39676 374
13725.58008 11522.66797 407.86261 372
14053.15137 11657.12402 412.24176 288
32998.73438 25152.43164 778.23077 1000
43327.61328 31807.49414 2730.33789 1000
13923.88086 7316.16748 -3522.41382 1000
14388.30469 6275.41699 2185.42041 1000
3653.84521 878.46350 12.76009 471
35748.80078 3161.56006 9113.31641 1000
4916.15820 -404.28348 56.10731 417
4948.53906 -438.38510 -25.10977 322
4899.39795 -433.49719 56.59641 445
4914.17578 -464.11539 -24.03580 415
4886.37646 -461.76898 56.65615 379
4892.46582 -492.33704 -23.40370 478
4878.22510 -520.81476 -22.46650 479
4874.67383 -520.07965 56.01225 398
56255.32422 -6466.33008 -8223.27441 1000
4866.32031 -549.02820 -21.71976 491
4857.95166 -577.78912 -21.49118 489
4849.60059 -605.65509 -21.58115 491
4841.31299 -634.57416 -21.15921 491
4834.97461 -663.03577 -21.59520 490
4884.48486 -670.98340 55.64436 499
4829.13721 -692.21838 -22.12890 491
4882.17773 -700.42987 55.42879 499
24450.37695 -3714.39209 -1064.40710 1000
4825.69824 -722.14661 -21.23520 491
2854.97021 -453.26004 -93.02655 491
4817.41113 -779.68646 -21.82319 485
4880.75732 -790.49908 55.76980 498
4815.81104 -808.79272 -21.90044 485
4873.26221 -819.65106 56.24739 498
4934.62939 -828.95294 135.05876 498
4815.02295 -838.96753 -21.46613 485
4922.38867 -857.66101 135.63283 392
4812.87646 -868.77979 -21.90048 484
4881.22803 -911.27087 55.66802 497
4832.25342 -933.23749 55.70308 497
4988.59619 -1026.28296 134.91788 497
2776.41333 -954.79810 -5.89635 1000
2743.52881 -942.61011 599.46820 1000
25783.86328 -10582.98730 -5378.17822 1000
3765.10083 -1926.13770 -0.98066 499
3772.16357 -1929.94458 66.57146 498
48694.53906 -48994.48047 8094.87012 1000
4671.85303 -4734.23096 26.85437 469
4649.74219 -4769.63037 27.33151 447
4630.37207 -4808.87695 26.52393 443
4612.20947 -4849.13721 26.18907 442
4595.21045 -4890.73682 25.75080 430
4581.64893 -4934.71680 24.45627 419
3551.53345 -3851.54736 49.28038 498
4564.71240 -5039.32031 23.69358 390
4565.94287 -5103.87598 22.78874 387
4565.98193 -5169.26709 22.49420 394
4566.86182 -5234.28857 22.01809 399
4569.34521 -5302.43506 19.71179 397
4570.29785 -5369.71289 19.20580 397
4573.37256 -5440.89355 17.87809 399
5786.92725 -8160.04102 -2533.25415 1000
763.31567 -1031.91101 11.08948 300
763.34485 -1031.68774 31.14955 300
763.09595 -1031.57971 51.76564 300
763.00555 -1031.39661 71.72479 300
762.94061 -1031.54016 91.93963 300
762.73022 -1031.34082 112.40429 300
762.78845 -1031.07739 132.33229 300
762.50635 -1031.09790 152.41534 300
762.41888 -1030.88501 172.82359 300
762.29956 -1030.67310 193.10822 300
762.33710 -1030.32886 213.26308 300
762.26587 -1030.19189 233.21877 300
754.41876 -1032.06104 11.47627 493
754.31580 -1032.14648 31.73290 493
754.24512 -1031.80591 52.01421 493
754.24774 -1031.93884 72.22393 494
754.13135 -1031.86536 92.03463 494
754.28094 -1031.71545 112.41814 494
753.91266 -1031.60730 132.54466 494
753.96973 -1031.54175 152.43697 494
754.06390 -1031.39490 172.62263 494
753.96252 -1031.36218 192.70036 494
753.95221 -1031.41272 212.73973 494
753.64368 -1031.14331 233.18819 493
3203.49951 -4963.27686 37.42511 363
3072.27808 -5988.65771 40.94818 275
3043.30762 -5928.25928 150.57553 427
3002.24438 -5937.07617 42.79741 372
3026.64502 -5987.14307 151.36162 289
2945.47437 -5913.23926 43.59506 386
2877.08887 -5864.19531 45.01559 290
2824.50830 -5843.10107 44.69633 356
2841.87500 -5881.83057 149.95526 441
2775.01514 -5833.68262 44.81091 412
2791.91455 -5869.82520 149.80238 442
2793.68457 -5872.64697 256.00919 408
2730.01196 -5827.39404 44.86986 418
2747.26123 -5866.14307 150.26195 478
2742.22803 -5853.71094 254.89421 331
2686.15796 -5824.20410 45.94670 423
2701.06665 -5860.51562 149.75743 478
2697.86108 -5851.62402 254.13138 331
2642.04834 -5822.85938 46.12138 428
2657.78809 -5861.80615 149.29967 479
2654.73926 -5852.13965 254.66148 459
2599.64575 -5824.22266 45.37881 429
2616.53882 -5861.10303 149.30165 479
2611.38086 -5852.76709 253.80661 460
2556.82324 -5823.20605 47.04716 429
2575.17798 -5867.27979 149.20811 480
2569.76880 -5850.95752 253.74979 460
2514.76245 -5824.41699 46.66688 430
2533.30322 -5866.56152 149.32750 481
2526.55835 -5851.55273 253.56415 465
1379.49475 -3151.45679 86.10500 286
2492.22314 -5866.18311 149.45026 481
2485.31787 -5853.00586 252.81018 470
1353.08508 -3141.67871 30.31296 296
1327.42261 -3078.54736 86.87046 299
1419.83667 -3307.09595 141.83450 462
2462.59106 -5900.34277 254.25172 337
1330.23145 -3141.76392 31.37090 296
1305.67957 -3077.95117 87.43941 397
1396.61182 -3308.30542 141.65607 463
2464.98633 -6010.75195 256.65567 305
1308.72205 -3142.96411 31.65595 297
1292.33752 -3099.51904 87.21796 408
1373.60083 -3310.26294 141.96593 463
2417.35181 -5997.54541 360.50500 414
1286.72620 -3142.49658 31.43773 297
1278.48096 -3121.57690 86.61232 422
1350.54468 -3311.15747 142.35204 465
1273.49072 -3167.58179 31.20327 389
1265.52808 -3146.16528 86.57556 423
1327.60925 -3312.39014 142.29419 466
1262.33154 -3196.04688 30.21216 378
1253.12183 -3172.60645 86.22717 418
1305.09631 -3313.37915 142.19977 466
1251.62720 -3227.60596 29.15743 366
1241.15051 -3198.72168 85.70914 415
1282.25610 -3314.49219 142.21271 465
1241.38367 -3263.52783 28.64958 358
1228.65771 -3228.37207 85.32272 401
1259.71008 -3315.68726 142.20908 465
1232.71191 -3301.84131 27.67722 353
1218.24634 -3262.09277 84.91946 393
1237.70703 -3317.40015 142.19516 465
1225.41638 -3349.13525 25.53550 321
1208.76245 -3298.67969 85.09186 382
1219.25256 -3328.17383 142.15880 464
11383.63184 -33265.84375 3107.05493 1000
1225.35706 -3415.92236 23.91183 313
1200.78796 -3342.17920 84.12430 363
1206.61853 -3358.94702 141.47740 355
1227.70227 -3494.08936 21.41871 317
1199.03931 -3407.27271 83.44563 314
2046.22729 -6007.22998 148.76187 498
1226.85046 -3566.22314 20.11064 316
1203.30981 -3493.03247 81.93281 313
1208.00146 -3584.01196 80.64158 312
1211.63855 -3673.20239 80.03936 261
242.36693 -1528.27869 10.03451 490
242.33939 -1528.00427 35.12831 490
242.22702 -1527.59094 60.38230 491
242.05367 -1527.72363 85.40187 491
242.02512 -1527.38428 110.92565 491
241.99049 -1527.30103 135.80246 499
242.18875 -1527.20251 161.21129 499
241.91525 -1527.02795 186.20216 499
242.02679 -1526.74170 211.27406 499
241.98457 -1526.61707 236.63101 499
-2460.74878 -19062.18750 1428.14172 1000
-272.20505 -2029.38525 34.41948 449
-272.14624 -2028.85181 68.15517 449
-272.48523 -2028.35388 102.32127 449
-272.27042 -2028.29993 135.66397 449
-272.24200 -2027.37659 169.44986 449
-272.08542 -2027.19385 203.58049 449
-271.96664 -2026.81030 237.13246 449
-21088.55859 -17018.53320 3267.17944 1000
-37539.73047 -15676.96875 4149.04053 1000
-262.10553 -74.39897 36.11807 321
-260.07083 -71.69273 36.84763 321
-258.20352 -69.06472 37.50161 324
-278.20929 -73.10043 38.54537 318
-258.97580 -67.04305 37.36501 352
-276.23837 -70.36750 39.16032 321
-260.94437 -65.21978 36.95885 351
-275.43793 -67.97882 39.41684 345
-262.81433 -63.36505 36.54792 351
-277.21951 -65.97557 39.12086 345
-294.11368 -68.98576 41.55090 319
-997.16809 -196.98927 150.19009 1000
-264.70380 -61.47980 36.09519 350
-279.18616 -64.02045 38.73302 347
-295.11746 -66.78440 41.41871 341
-268.47348 -59.88731 35.19142 326
-282.63940 -62.29081 37.98205 324
-298.97086 -65.03217 40.53168 315
-274.39996 -58.53580 33.70137 320
-288.26376 -60.80254 36.60513 323
