# .PCD v.7 - Point Cloud Data file format
VERSION .7
FIELDS x y z rgb
SIZE 4 4 4 4
TYPE F F F U
COUNT 1 1 1 1
WIDTH 1070
HEIGHT 1
VIEWPOINT 7176.874512 -903.648621 141.910049 -0.665586 -0.103764 -0.099451 0.732351
POINTS 1070
DATA ascii
-18540.61719 62.28380 734.11255 457
-18503.59961 59.11581 1038.63171 452
-18484.70117 175.00754 735.27728 463
-18439.61523 175.50697 1033.63525 434
-18432.60352 284.50363 729.34094 463
-18380.17383 401.90457 731.06671 464
-18327.36133 512.54926 730.15479 464
-18276.46680 624.11823 724.65265 465
-18224.92188 736.03369 723.01660 466
-18178.20508 843.82349 723.85681 466
-20014.48828 928.14911 1112.98303 443
-18127.65039 952.36841 720.20300 467
-18077.65430 1064.06873 723.93018 467
-18024.78320 1169.90100 721.67169 468
-17976.26172 1280.17590 719.57996 468
-17914.61914 1272.93628 1010.32013 298
-284.89807 26.85519 187.87141 1000
-17925.45508 1387.96069 717.91437 469
-17858.37109 1384.32861 1007.69501 298
-17877.59570 1492.45007 713.96265 469
-17798.13477 1489.72253 1006.22357 414
-17826.94141 1602.71765 712.50922 470
-17749.83789 1595.94666 1005.94891 414
-17779.09180 1705.68884 715.30878 470
-17697.11719 1701.51318 1004.65503 414
-17727.97266 1815.10986 710.75494 471
-17647.49023 1805.60559 1004.48334 415
-17679.60938 1916.45496 711.86115 471
-17595.08984 1910.25732 1000.68549 415
-17634.44531 2023.22583 710.04907 472
-17546.56445 2012.61987 997.50043 415
-17584.92383 2126.72803 708.06458 472
-17496.42578 2117.68115 998.03839 416
-17534.98438 2234.68750 707.34631 472
-17448.54883 2220.17896 994.44464 416
-17490.77539 2337.92969 708.83032 473
-17396.80859 2325.58716 993.81720 455
-17441.32031 2440.14282 704.40289 473
-17352.26562 2424.94946 990.13049 488
-17392.76172 2542.40015 705.64001 474
-17304.73633 2529.44312 989.43262 489
-17345.74414 2646.78955 704.95477 474
-17259.57422 2629.01343 989.81262 489
-275.55533 58.13162 33.10673 319
-17297.50391 2746.69067 705.26251 474
-17209.45703 2733.67310 989.66107 489
-269.22897 59.39403 34.77798 321
-283.68106 61.77053 37.46958 323
-17251.21484 2846.94678 701.84454 475
-17163.56836 2834.39648 984.25574 490
-264.58469 60.89721 35.96246 350
-279.08990 63.34424 38.51456 347
-295.11734 66.04562 41.13821 341
-17202.65625 2947.44775 703.45331 475
-17117.61133 2933.59668 984.23029 490
-262.60910 62.74656 36.30404 351
-276.98337 65.27273 38.89843 347
-293.24554 68.13583 41.55188 340
-17158.42578 3053.09985 701.73505 476
-17069.37695 3036.07471 980.62506 491
-260.65601 64.70220 36.75863 351
-275.15109 67.26588 39.29433 345
-294.52481 70.88135 41.13376 318
-17113.86523 3150.52051 700.36444 476
-17022.81250 3138.02734 981.62671 491
-17780.61914 3273.20947 1316.63086 477
-258.72397 66.50455 37.15240 352
-274.92081 69.61896 39.26077 321
-17064.70312 3253.94824 700.19690 476
-16977.22070 3236.06787 982.20667 491
-17707.53906 3371.79980 1315.70422 478
-256.87271 68.37610 37.50939 350
-276.70981 72.25647 38.66431 319
-17018.42773 3350.03882 695.96503 477
-16935.97266 3335.17700 980.33228 492
-17640.52930 3472.37866 1308.88708 478
-258.65833 70.94126 36.94713 322
-16970.32617 3453.50195 694.65979 477
-16885.65039 3435.64575 978.88971 492
-17573.09961 3575.95337 1308.65808 479
-260.58929 73.65906 36.22729 321
-16927.64844 3552.79761 698.43256 477
-16842.40625 3536.16162 977.98145 492
-17501.82227 3671.36084 1306.00171 479
-262.58084 76.29929 35.58062 321
-16880.42969 3651.34961 694.35712 478
-16795.97656 3634.61597 974.24744 492
-17433.87500 3768.48877 1303.17078 480
-16834.47656 3747.90503 696.10590 478
-16752.95508 3732.79443 973.18964 492
-17366.70312 3866.28955 1298.25488 481
-16788.26953 3850.39282 694.95251 478
-16708.57617 3828.73340 974.19318 493
-17299.96289 3966.97070 1295.54834 481
-16742.77539 3946.31152 692.16681 479
-16663.84961 3927.55518 971.30341 493
-17247.03906 4066.66675 1294.09106 494
-3906.14038 963.55731 130.85474 483
-3911.81152 965.16248 198.65437 486
-16699.13086 4045.15283 693.49323 479
-16616.47852 4024.24268 969.48151 493
-17198.20508 4164.74902 1292.42908 494
-16653.68164 4141.43994 690.27148 479
-16573.15234 4124.73730 970.37579 494
-17151.87891 4267.05469 1291.01794 494
-16609.04883 4240.30762 689.38983 479
-16528.15039 4221.02393 969.07715 494
-17100.86328 4364.39697 1290.05811 494
-16560.92578 4340.11865 690.37592 480
-16481.03906 4316.74463 968.63373 494
-17051.58984 4467.98535 1288.67102 495
-16517.53711 4438.09229 690.85199 480
-16435.70703 4416.67920 968.46375 494
-17005.22852 4566.58057 1288.90137 495
-16473.58594 4534.59570 692.10156 480
-16392.03906 4511.04688 966.01093 495
-16959.57422 4665.53564 1288.03052 495
-16426.32031 4628.89941 690.53870 480
-16348.04980 4607.97461 966.42639 495
-16811.94531 4737.96973 1279.89514 402
-16383.94531 4725.00049 689.80231 481
-16306.99707 4706.77539 965.99957 495
-16766.38477 4838.29492 1278.78540 402
-16898.70312 4873.38525 1579.43628 496
-16335.78125 4821.39160 687.38696 481
-16260.96777 4802.97754 964.16888 495
-16717.83594 4933.68213 1278.25928 402
-16852.99805 4975.27002 1577.83594 496
-17030.43945 5028.40771 1883.11169 437
-16293.46680 4918.23486 689.36438 481
-16218.51660 4897.62842 962.96790 496
-16673.77539 5035.80127 1275.30566 403
-16805.87109 5075.04004 1575.20642 496
-16931.79688 5111.01318 1877.27576 458
-16247.38672 5015.65967 689.17969 481
-16172.73047 4991.58252 962.50317 496
-16724.22461 5159.07422 1281.97156 497
-16750.58203 5167.84131 1571.03857 435
-16967.79102 5233.79248 1887.39453 398
-16204.18164 5110.03223 686.05328 481
-16131.39355 5086.30127 963.94397 496
-16634.48828 5246.12549 1275.94849 436
-16623.74023 5244.45312 1562.98425 436
-16731.53906 5274.96680 1863.66052 352
-16160.65527 5209.95898 687.37793 482
-16085.60840 5185.06006 964.91064 496
-16510.94727 5321.16455 1269.78259 437
-16501.64258 5318.28467 1558.01624 437
-16598.01562 5348.33691 1856.01404 353
-16114.26660 5303.81689 686.73871 482
-16043.63574 5278.43945 962.29578 496
-16389.06836 5392.99854 1264.07446 438
-16380.92676 5392.06104 1549.60803 438
-16460.98047 5414.58447 1845.20801 354
-16071.03906 5400.93652 687.67950 482
-15997.14453 5372.16211 962.21393 496
-16329.47949 5487.70020 1261.26270 497
-16324.22363 5482.91064 1547.39221 497
-16378.63574 5500.34863 1838.29846 391
-16495.42578 5540.57910 2139.70557 448
-16488.78320 5536.36328 2428.00317 447
-16482.83984 5536.89697 2721.64624 464
-16474.46094 5535.45557 3011.51489 464
-16472.02148 5533.73584 3306.04785 463
-16025.23047 5493.95020 687.60645 482
-15952.83301 5467.80371 961.88428 497
-16255.42969 5573.56445 1261.97131 498
-16249.82812 5570.83740 1546.13000 497
-16332.37109 5596.14795 1838.64563 391
-16597.47461 5687.54004 2158.36963 484
-15981.71973 5589.25781 686.85217 482
-15909.72168 5563.81006 961.53467 497
-16211.51758 5668.94434 1257.13171 498
-16201.74512 5666.84033 1540.40295 498
-16283.31543 5694.20068 1835.49634 391
-16550.91016 5789.13770 2155.90186 485
-16979.99609 5936.92188 2507.51392 337
-16982.06055 5934.06445 2807.07080 337
-15936.30664 5683.92139 686.42249 482
-15865.59863 5660.24414 959.28156 497
-16164.49316 5763.37695 1258.62781 498
-16156.10254 5759.82471 1541.88293 498
-16235.60254 5789.74023 1834.00830 391
-16462.73828 5869.55859 2147.02197 452
-15892.02539 5777.42285 684.05713 483
-15820.37793 5755.62158 961.32745 497
-16121.16016 5860.08496 1259.14490 498
-16110.85840 5856.89795 1543.28796 498
-16188.48340 5883.76855 1832.44434 391
-16456.45703 5982.45947 2153.31470 485
-15850.52246 5874.94043 685.17773 483
-15778.21582 5847.52979 958.13879 497
-16073.61035 5956.27734 1259.74780 498
-16064.32715 5954.82617 1538.53906 498
-16141.11133 5980.79834 1833.46350 391
-16410.73047 6078.67432 2153.67822 485
-15804.01465 5970.13818 682.60651 483
-15737.28320 5945.80469 957.26221 497
-16024.91113 6052.72754 1258.34253 498
-16021.06543 6049.76660 1538.10059 498
-16093.04199 6075.68115 1829.89844 391
-16361.59570 6176.56641 2151.02832 485
-15758.11133 6064.03076 684.73389 483
-15694.29492 6039.06055 956.80072 497
-15981.79102 6149.18066 1256.31274 499
-15974.23145 6146.77881 1541.36853 498
-16046.35938 6173.34424 1831.52551 391
-15718.71777 6157.93018 684.59955 483
-15650.58496 6133.10205 957.55750 498
-15964.74121 6253.21631 1257.46960 499
-15958.76270 6252.20850 1542.62036 498
-15998.26367 6268.88672 1830.94104 391
-15674.41309 6254.62061 682.75592 483
-15606.72754 6228.90479 958.75024 498
-15918.70117 6352.19580 1258.68274 499
-15891.68652 6338.87500 1537.52063 479
-15951.28125 6364.38135 1829.05530 392
-15628.64844 6349.29639 684.72980 483
-15562.77930 6319.48975 956.02557 498
-15730.14648 6389.13916 1245.49951 427
-15646.63184 6354.07324 1520.79810 467
-15906.00195 6456.75635 1829.20349 383
-15584.87793 6442.85107 682.21887 483
-15517.52832 6417.20605 956.95538 498
-15827.76660 6541.63232 1258.35046 499
-15821.19629 6540.31250 1538.87720 499
-15858.10352 6552.84277 1828.07227 383
-15538.75391 6537.75684 684.92273 483
-15476.56641 6511.65820 955.66772 498
-15780.76367 6635.66406 1256.53320 499
-15776.58789 6634.74707 1536.70496 499
-15807.94629 6646.57520 1825.78369 383
-15497.74121 6631.57861 683.18945 483
-15431.08105 6601.85645 958.00555 498
-15734.92676 6731.00928 1256.45984 499
-15730.50293 6731.47559 1537.94055 499
-15765.61621 6744.10352 1824.42822 367
-15451.11621 6726.40967 685.24890 491
-15388.28320 6699.38965 956.88062 498
-15745.51074 6850.04102 1259.21472 466
-15736.60352 6847.65527 1544.78638 466
-15789.05078 6873.11230 1834.93542 368
-15410.61621 6821.99219 684.27826 491
-15347.11816 6794.21289 955.50513 498
-15742.66211 6965.06396 1264.01648 481
-15751.36914 6971.12744 1549.31274 465
-15815.49219 6997.51514 1842.45972 368
-15366.79688 6912.74268 681.42346 491
-15303.39844 6886.13379 957.30298 498
-15729.22656 7074.86279 1264.67981 481
-15765.27344 7091.79639 1553.44702 464
-15846.25586 7128.02100 1847.72717 367
-15322.45703 7009.42578 681.33325 491
-15259.08789 6981.36768 958.46777 498
-15714.59277 7185.11279 1267.93835 481
-15765.74316 7207.95361 1556.15857 480
-15279.45215 7101.41406 681.65070 491
-15216.16895 7072.44043 958.57452 498
-15705.13867 7297.32666 1267.60657 480
-15231.85449 7198.51709 682.19757 491
-15171.10547 7166.61182 956.96368 498
-15689.54297 7413.09424 1272.30457 480
-15190.74121 7289.48096 682.33850 491
-15126.92676 7263.05420 960.00079 498
-15145.28027 7384.89795 685.56079 491
-15083.55371 7356.65820 956.07446 498
-15101.85449 7478.21143 685.96271 491
-15040.88281 7447.90186 959.72107 498
-15058.34473 7576.15527 683.36951 491
-14999.71387 7543.55908 956.44189 498
-15014.99902 7671.51123 682.25702 491
-14954.45703 7638.70215 957.28156 498
-14971.30957 7765.36865 686.03467 491
-14911.45020 7730.77539 960.31146 498
-2383.92407 1296.09045 -376.73071 1000
-14926.10742 7859.82275 684.91217 491
-14866.19043 7827.54004 958.43872 498
-14883.08105 7951.81201 684.89789 491
-14826.41309 7919.08740 957.09875 498
-14838.27246 8048.55029 683.26221 491
-14779.67090 8015.37158 960.02887 497
-14794.65430 8142.29980 687.60712 491
-14740.47852 8108.46582 960.01379 497
-14750.57031 8237.35156 684.07544 491
-14694.75195 8206.18262 960.80176 497
-14711.02930 8331.20020 687.32220 491
-14649.64648 8298.59277 959.34558 497
-14663.85254 8425.73828 685.51135 491
-14609.72559 8391.65332 960.83252 497
-14620.93652 8519.32324 685.30475 490
-14562.79102 8487.62500 962.58588 497
-14575.35840 8618.94727 685.26569 490
-14521.43945 8581.49023 963.11407 497
-14532.37793 8709.96484 684.87421 490
-14475.72559 8676.74805 964.40021 497
-14487.87891 8807.80762 687.50201 490
-14433.27148 8773.26270 964.99200 496
-14444.33887 8902.22852 689.34912 490
-14389.08203 8868.37012 966.23975 496
-14399.49707 8998.61133 688.52399 490
-14341.41699 8965.93066 963.86902 496
-14355.79883 9094.88770 687.28278 489
-14300.68555 9060.13184 964.26318 496
-14308.80664 9191.24316 687.60040 489
-14253.66211 9155.08984 968.21094 496
-14264.83398 9284.68066 691.14197 489
-14209.76660 9249.92090 967.78290 495
-14223.00977 9383.57227 689.63190 489
-14168.71387 9348.09766 970.40094 495
-14175.26660 9480.32422 693.17395 489
-14121.50488 9442.69629 969.67542 495
-14130.18164 9573.68750 689.91467 488
-14077.11230 9540.48926 971.35272 495
-1090.19373 807.67529 38.38132 403
-1097.70361 813.00165 61.34254 334
-14087.99414 9670.88867 694.45917 488
-14032.56738 9638.09473 970.63123 495
-1081.23364 812.03430 38.71019 489
-1084.04309 814.36823 61.62403 489
-1088.03894 816.93903 84.92908 466
-14040.08594 9770.74512 692.93573 488
-13986.16406 9734.63965 971.91156 494
-1076.15479 819.20428 38.42086 484
-1078.42883 821.02643 61.77470 483
-1080.97778 823.12280 85.03870 498
-1083.34351 824.62628 108.52498 498
-13997.08984 9867.16992 695.04510 488
-13945.60156 9828.23438 971.33893 494
-1075.08569 829.64233 37.99286 445
-1078.02405 831.66266 61.71213 387
-1081.81641 834.27563 85.11164 388
-13953.12207 9962.48145 692.38654 487
-13898.88672 9925.32422 974.29388 494
-13910.27344 10065.48340 696.76093 470
-13855.55469 10028.41211 976.06549 492
-13879.45020 10175.42383 698.54968 469
-13816.41406 10126.50977 976.56934 492
-13846.41504 10280.91406 698.18658 469
-13774.33398 10226.79297 978.82739 491
-13812.93262 10390.85742 700.54968 470
-13734.13477 10331.01855 977.07404 491
-13777.25684 10497.06348 702.44232 469
-13690.99219 10431.54102 979.14758 490
-38541.02734 29226.95117 12262.42090 1000
-13745.69727 10607.78125 701.92499 469
-13658.93750 10536.15234 980.38794 477
-13713.38965 10716.80273 702.84009 468
-13632.04199 10650.76367 986.25409 477
-13679.84375 10823.52637 705.70435 429
-13599.39844 10764.23535 986.33893 476
-2402.91113 1987.91248 131.98094 298
-13669.36230 10953.68848 706.25696 429
-13573.69629 10880.65723 987.29913 475
-2340.20776 1962.37476 131.82678 327
-13655.76758 11082.84570 710.14288 428
-13543.91504 10993.94922 992.38055 475
-2342.81396 1989.05676 80.45083 317
-2293.98096 1949.55017 132.42815 321
-13646.99023 11215.13770 711.77887 427
-13518.64746 11108.51367 993.06281 474
-2248.74585 1936.63928 82.27393 257
-2258.34717 1944.49658 132.22684 322
-13640.76758 11354.97070 713.82733 405
-13487.58984 11224.09473 994.76373 465
-2189.73169 1912.00220 83.48841 322
-2232.24878 1947.17517 132.16702 291
-13641.95508 11496.21973 719.17151 380
-13461.29688 11344.44922 1000.04584 465
-2146.93921 1899.13428 84.35462 371
-2394.65259 2109.67041 131.62225 434
-13659.40039 11657.25195 719.98645 379
-13438.71777 11467.50098 1001.74969 410
-2111.71997 1892.93799 84.30017 383
-2231.36768 1996.08582 131.86388 385
-2224.56030 1989.95837 182.39445 303
-13683.11328 11821.36426 723.80487 310
-13440.09570 11610.66504 1004.72900 418
-2079.07471 1888.12305 84.95490 384
-2197.38135 1991.34021 132.37440 386
-2223.80420 2014.39856 182.34946 459
-13448.56934 11761.71777 1014.86810 417
-2046.65222 1883.76025 85.06012 386
-2165.32251 1987.73193 132.01230 491
-2221.42676 2036.70825 182.40753 458
-13453.86328 11916.33203 1014.97083 416
-2015.45581 1878.89844 86.09476 387
-2162.16187 2010.28418 131.72285 457
-2218.29053 2059.14233 182.39445 457
-13462.60840 12073.26270 1021.77991 415
-1984.59888 1874.82092 86.05074 388
-2103.60181 1982.22424 132.37241 390
-2214.59473 2082.34253 183.09683 456
-13531.44238 12285.60352 1032.57654 351
-1954.37451 1870.50757 86.94987 391
-2064.92847 1971.67358 132.28014 391
-2211.94043 2105.52344 183.01994 456
-1925.10059 1866.47058 87.42389 392
-2060.56982 1991.95081 132.09941 454
-2194.75171 2116.58496 183.27957 330
-1896.11218 1862.82910 87.34731 393
-1960.40637 1922.94653 132.34180 393
-1868.24072 1859.36133 88.11770 394
-1949.28943 1935.61646 132.04190 342
-2050.39307 2032.51550 180.81068 497
-2045.73108 2028.25513 228.48564 497
-1840.56262 1855.48840 88.00146 396
-1949.08020 1959.95312 132.27049 447
-2036.42200 2043.15662 180.78310 482
-1812.87256 1851.88135 88.39754 397
-1946.85474 1982.08398 132.01096 451
-1785.81226 1848.94788 88.84801 398
-1943.35547 2003.23254 132.46335 450
-1759.30725 1845.17871 89.65350 399
-1940.41589 2025.43408 132.01132 449
-1733.72058 1841.99658 89.64571 385
-1937.89429 2047.69946 131.79704 448
-1709.07593 1839.28503 90.20998 386
-1934.60291 2069.07764 132.19838 452
-1684.09875 1836.66357 90.24608 387
-1930.94055 2091.33154 132.11641 451
-1660.16077 1834.12280 90.38169 388
-1641.45703 1837.62659 90.91181 438
-1844.60400 2052.11865 317.27649 341
-1625.03296 1842.44678 91.06472 395
-1611.98254 1851.39355 90.77093 339
-1671.29199 1939.94922 89.28663 438
-1668.98047 1960.55774 88.69365 437
-1665.59778 1981.39368 88.79151 435
-1669.37134 1985.71155 131.97624 333
-1662.91882 2002.87585 88.34760 434
-1660.14905 2025.04749 88.37600 433
-1656.78394 2047.12891 88.00272 432
-1654.19019 2069.15942 87.61884 431
-1631.88977 2068.89502 88.23578 415
-1611.59570 2070.15698 88.33251 446
-1593.92554 2074.02100 88.06911 447
-1576.45044 2078.30688 88.19244 391
-13575.74023 26997.25195 -2846.94897 1000
-12412.58594 37559.53125 6007.32959 1000
-6272.67139 25847.61328 -1610.70569 1000
-2266.28223 10131.12988 -720.16589 1000
-6467.03613 65118.26953 -13997.79199 1000
7303.22754 34390.55469 -7454.46680 1000
9179.41016 37564.26172 -7552.75781 1000
1821.64551 3831.27197 1183.48682 1000
840.59277 1135.13354 333.99261 1000
39257.64062 39382.86719 -2574.06201 1000
1768.49390 1450.66394 -11.73342 366
1776.00342 1439.98462 -12.22345 467
1786.64526 1448.63306 23.71999 363
1786.34399 1430.69897 -12.36441 465
1800.02625 1442.14124 23.24296 390
1797.07947 1422.02979 -12.42960 465
1809.40393 1432.35266 23.09295 408
1807.84839 1413.41589 -12.60649 450
1819.20349 1422.52319 23.48709 408
1819.36829 1405.36938 -12.57398 448
1829.44763 1412.90771 22.99875 419
1830.82166 1396.65271 -12.72481 445
1839.02197 1403.84143 22.86268 438
1842.69446 1389.08777 -13.31626 444
1850.04541 1394.57971 22.67714 443
1854.20728 1380.85339 -13.44713 444
1860.75854 1385.69519 22.69011 460
27485.66992 21498.37500 1856.11902 1000
1866.17920 1372.44055 -13.78728 444
1871.61047 1376.79907 22.67084 457
2037.76477 1505.57678 52.71034 408
1878.35901 1364.41382 -14.19316 443
1882.76538 1367.68616 22.20914 473
2034.47351 1483.90894 52.89853 409
1889.93127 1356.43542 -14.47827 443
1893.88672 1359.05286 22.26871 473
2032.05835 1463.29895 53.95907 410
1902.51648 1348.04688 -14.72205 439
1905.81470 1350.11401 22.20582 470
2028.81946 1442.13086 53.99397 411
1915.37329 1340.64062 -15.36629 431
1917.76721 1342.19556 21.65717 477
2025.70801 1421.81482 54.87860 412
1928.78186 1333.30359 -15.43109 431
1930.11670 1334.16309 21.72247 469
2023.12939 1401.37537 55.03146 412
1942.41687 1325.70898 -15.96818 426
1942.83850 1325.99048 21.62495 473
2019.50598 1381.40015 55.70503 410
1956.88708 1319.26685 -16.14485 426
1956.76831 1318.91211 20.71517 469
2017.36951 1362.02563 56.04404 415
1971.74060 1312.23694 -16.93157 419
1971.08765 1311.75891 20.45936 462
2014.46570 1342.02673 56.22816 416
1986.90845 1305.42676 -17.62423 421
1986.02380 1305.19263 20.16862 461
2012.14148 1322.72266 56.88840 417
2002.40906 1299.68042 -18.03692 416
2000.72583 1298.17163 20.10975 462
2018.15283 1309.80310 57.02851 489
2018.94836 1293.15479 -18.77732 412
2016.18372 1291.63794 19.34562 452
2025.92676 1298.20386 57.05747 489
2036.57666 1287.69177 -19.84554 409
2032.37024 1284.96326 18.94843 451
2040.71667 1290.77856 56.38711 444
2056.23242 1283.34753 -20.55971 398
2049.79858 1279.85474 18.11015 441
2058.11768 1284.69312 56.03297 435
2076.48340 1279.90979 -21.69847 385
2069.48657 1274.76294 17.86220 422
2079.22778 1281.68591 55.43482 415
2098.62524 1276.77344 -22.50661 384
2090.99731 1271.89331 16.76299 412
2099.83032 1277.62402 55.56096 414
2120.74048 1273.43396 -23.54516 384
2112.95288 1268.56970 16.33249 411
775.80975 422.13382 -13.23575 413
779.02087 424.16998 -0.37895 347
2143.93213 1270.71680 -25.15283 383
2135.63843 1265.09424 15.37439 409
774.29004 415.48257 -12.21303 463
776.13342 416.75797 0.69610 463
778.23517 417.87454 13.74247 414
780.42920 419.34985 26.72246 413
783.12543 420.90860 39.82473 360
2168.03516 1267.89966 -26.49460 390
2158.19922 1262.19263 14.13657 408
773.00061 409.07043 -24.87538 493
774.78656 410.10922 -11.88256 493
776.50293 411.19257 1.24146 493
778.14966 412.28821 14.27694 493
779.91193 413.36908 27.32812 493
781.86176 414.56665 40.33595 466
783.70441 415.38513 53.41346 462
785.48578 416.55994 66.42272 462
2190.85767 1264.39258 -27.10762 389
2181.95776 1258.92957 13.21706 407
774.84076 404.68231 -24.76529 498
776.57880 405.63226 -11.75429 498
778.37665 406.75037 1.29893 498
780.10529 407.81943 14.22092 498
781.88330 408.71954 27.32125 498
783.83032 409.79089 40.36930 499
785.50616 410.82724 53.29726 499
787.30444 411.81534 66.54365 494
2214.22583 1260.75977 -28.52802 388
2205.06201 1255.66650 12.47789 406
777.60870 400.58377 -24.90899 498
779.62439 401.81628 -11.95113 479
781.49005 402.75208 1.03920 479
783.40063 403.97464 14.04513 479
785.42737 405.10178 27.17408 479
787.65265 406.43359 40.04516 473
790.59088 408.21594 53.13874 449
792.78644 409.46237 66.27161 376
2238.02539 1257.06335 -29.63798 387
2229.34937 1251.91309 11.51773 405
781.72235 397.45166 -25.18796 478
783.71405 398.61789 -12.28996 478
786.23511 399.97696 0.80530 437
788.79590 401.41498 13.62121 437
791.64874 403.13950 26.55684 377
797.70990 406.68890 39.02678 290
2262.42114 1253.26501 -30.92641 386
2253.71240 1248.63770 10.42830 404
2808.56567 1569.37988 338.76776 1000
790.25146 396.57428 -13.06527 376
794.08179 398.77005 -0.25023 376
2286.51807 1249.97534 -32.21855 385
2278.41724 1244.85583 9.45872 402
2311.83130 1245.98328 -33.48715 389
2302.97900 1241.17542 8.85757 401
2338.52222 1242.89795 -35.02430 388
2328.45825 1237.83997 7.87893 400
2365.22266 1239.36963 -36.19423 387
2354.32251 1233.56665 6.35372 399
2392.02856 1236.37109 -38.03794 389
2380.78906 1229.99121 5.82656 397
2419.75098 1232.37732 -38.97099 386
2407.52344 1226.50049 4.46954 396
2447.55884 1228.67444 -40.94169 386
2434.96484 1222.50635 3.29506 395
2470.41968 1222.70520 -41.74577 383
2501.00854 1219.32532 -43.67023 352
37810.62500 17398.32227 825.78986 1000
50083.33984 9759.63965 7701.41455 1000
1836.94995 -27.50082 -39.28946 405
1842.34949 -27.50106 -10.77861 404
1831.98657 -38.06601 -38.70130 499
1836.23059 -38.02884 -10.42708 499
1840.67212 -37.90317 17.85264 292
1834.76343 -48.77606 -39.01711 445
1841.53577 -49.06116 -10.66835 387
2857.62964 -264.79153 -3.68741 372
2852.40918 -281.69955 -49.10255 289
2826.75757 -279.12393 -2.25852 445
2829.62793 -296.52042 -47.45954 363
2816.38721 -294.44632 -1.82029 480
2817.09302 -312.18143 -47.15964 386
2807.68604 -310.98108 -1.74439 486
2807.65625 -327.29172 -46.27591 415
2801.66187 -326.58322 -1.21533 483
2797.51855 -343.11511 -46.16007 418
2795.14795 -343.18884 -0.75114 469
2901.10303 -356.38669 39.84187 499
2788.06250 -358.77289 -45.85035 462
2789.22412 -358.68820 -1.21517 466
2779.33618 -374.42325 -44.76740 462
2782.78955 -374.78851 -1.03400 428
2771.74878 -390.34430 -44.65844 468
2778.12598 -391.06436 -0.50238 434
2765.30200 -405.85709 -44.34416 491
2772.98950 -407.09628 -0.16545 439
2758.12891 -421.89996 -44.58188 491
2768.17896 -423.22299 -0.73490 405
2752.34375 -437.78241 -44.27107 491
2764.42944 -439.78775 -0.59213 412
2745.90747 -453.16800 -43.61193 494
2760.35840 -456.05185 -0.43531 412
2739.95483 -469.35196 -43.22722 494
2756.06030 -471.86261 0.11825 416
2734.68604 -485.17200 -43.24344 494
2752.93677 -487.85321 -0.36057 360
2837.08301 -503.39325 132.97525 333
2728.78027 -500.51337 -43.42059 495
2750.27490 -504.78806 -0.59716 360
2889.68262 -530.92743 39.69134 259
2790.77661 -512.35217 132.33324 335
2723.43335 -516.30579 -43.10873 495
2747.77856 -520.84290 -0.00782 360
2856.13062 -542.77802 86.42516 337
2752.28687 -522.17688 132.49171 419
2721.96118 -533.02667 -42.98490 498
2745.42017 -537.35266 -0.69052 361
2876.11621 -564.01459 39.58098 335
2814.46582 -551.29474 87.28339 338
2740.38159 -536.47583 132.84157 479
2716.01685 -548.04883 -43.41424 459
2753.09473 -556.48865 -1.09010 258
2830.90723 -572.49200 40.88367 331
2773.70264 -560.84705 87.74886 339
2736.30859 -552.28534 132.88521 482
2710.78760 -564.44019 -42.64992 499
2752.69458 -573.37268 -0.74741 496
2790.22681 -581.43719 42.42648 332
2747.44214 -572.31604 87.82603 498
2733.73828 -569.37921 132.55544 482
2708.55078 -580.12433 -43.41145 470
2745.81323 -588.66223 -0.95131 496
2752.56616 -590.12244 43.40495 340
2745.64990 -588.67865 88.47952 498
2731.80420 -585.56757 132.43796 482
49820.40234 -11040.10938 11141.61523 1000
2705.17798 -596.21069 -43.18074 499
2741.39771 -604.74542 -0.66493 498
2741.75781 -604.96490 43.94584 499
2744.29761 -605.13501 87.86490 498
2730.34644 -602.11157 132.38776 482
2701.35596 -612.46405 -42.81514 499
2739.40039 -621.20337 -0.70246 498
2740.50293 -622.06390 43.44030 498
2742.09375 -622.39520 87.78040 498
2728.51855 -619.06854 132.37427 481
2695.26782 -628.42328 -42.72718 468
2737.78711 -638.36835 -1.46063 498
2739.05493 -638.55463 43.38499 498
2739.53369 -639.01080 87.78736 498
2726.06616 -635.63812 132.64655 481
2692.47314 -643.89276 -43.04191 499
2735.64111 -655.04279 -0.82332 498
2737.02832 -654.94305 43.26125 498
2738.02661 -655.16656 88.38950 498
2724.45386 -651.83704 132.73271 481
2691.38306 -660.79565 -42.94299 499
2733.40552 -671.48938 -1.41823 497
2732.78613 -671.56506 43.21347 282
2731.08594 -670.75903 87.73898 282
2721.94580 -669.15778 132.73318 481
2688.60840 -677.49097 -43.08173 498
2724.91626 -686.55096 -1.05745 497
2726.48535 -686.95795 43.67353 499
2727.84106 -687.15472 87.94456 499
2719.98682 -685.71472 132.29872 481
2686.19678 -693.54218 -43.40637 498
2728.55298 -705.07428 -1.83032 497
2725.74121 -704.43481 43.15582 497
2726.74170 -704.76654 87.95417 497
2718.28345 -701.98560 132.40617 480
2681.58594 -709.75781 -43.37069 498
2726.52466 -721.97083 -1.40102 497
2723.57983 -720.94879 42.94864 497
2724.38330 -721.63446 88.20366 497
2716.39990 -718.69238 132.77971 480
2678.99268 -725.63525 -43.70986 497
2724.24927 -738.55347 -1.67977 497
2721.41211 -737.50476 43.44398 497
2722.60864 -738.03619 88.11860 497
2714.64453 -735.87549 132.22641 480
2679.41772 -742.84808 -43.56073 496
2722.48828 -755.81537 -1.62617 496
2718.71680 -754.81555 43.12143 496
2720.09619 -755.00946 87.52407 496
2712.44556 -752.97034 132.52887 480
2677.10693 -759.92627 -44.21482 496
2720.62451 -772.57526 -2.28649 496
2720.96289 -772.95569 42.47561 498
2722.41284 -773.46094 87.63631 498
2710.74463 -769.96417 132.83087 350
2886.82544 -821.00610 180.23172 410
2674.87646 -776.25543 -44.43736 496
2718.16821 -789.17383 -2.12604 496
2720.56616 -789.72229 42.53042 496
2721.27002 -790.31439 87.48853 496
2708.36182 -786.36761 132.87691 349
2861.39307 -832.66547 179.66379 487
2670.33203 -792.15521 -44.15534 495
2716.38745 -806.25830 -1.94109 496
2718.56470 -806.89050 42.98350 496
2719.23730 -807.61115 87.77837 496
2706.42847 -803.49866 132.22784 349
2668.29834 -809.05420 -44.63544 495
2714.37866 -823.65039 -2.28490 495
2715.96777 -824.10590 42.78075 495
2717.58179 -824.50580 87.52843 495
2705.14331 -820.80597 132.33974 349
2820.89819 -856.65070 179.12030 492
2798.23853 -849.81866 225.19048 264
2669.16016 -826.50409 -44.60613 495
2712.80518 -840.76202 -3.00543 495
2714.08252 -840.99200 42.79115 495
2715.25513 -841.14819 87.87119 495
2702.58765 -837.82080 132.95616 349
2818.73364 -875.00787 179.51631 492
2667.21167 -843.80792 -45.08719 494
2710.54419 -857.60303 -2.71657 495
2711.04224 -858.35168 42.56434 492
2712.42944 -858.72699 87.03940 492
2700.67383 -854.61902 132.38518 349
2799.40479 -886.78888 178.87671 381
2664.84937 -860.69983 -45.14135 494
2708.54321 -875.01190 -3.15070 494
2709.93872 -875.36499 42.22648 494
2711.16943 -875.93158 87.65981 494
2698.98169 -871.62732 132.85680 349
2790.74365 -902.68542 179.13176 358
2660.63257 -876.17767 -45.25510 494
2946.88135 -974.07422 -15.94349 494
2714.19116 -894.81958 41.76554 494
2715.28979 -894.88104 86.87352 455
2697.63525 -889.13934 132.24110 342
2790.99536 -920.95624 179.12238 498
2658.55786 -893.19159 -45.37391 494
2945.19360 -993.00336 -16.01566 494
2786.76050 -937.77472 179.49782 497
2834.92041 -954.40845 227.93774 467
2659.01733 -911.26233 -45.97118 493
2787.11035 -957.26862 179.33606 479
2837.12134 -974.18201 228.29341 490
2656.59424 -928.03223 -46.43029 493
2825.65674 -989.20337 180.22624 337
2821.30273 -987.91760 227.77002 411
2654.42896 -945.21924 -46.41308 493
2790.18726 -995.68347 179.29587 401
2650.01904 -961.32556 -46.85773 492
2647.46045 -978.55615 -46.73538 492
2648.53345 -997.26007 -47.01678 491
7851.37549 -3026.38647 -3.22528 1000
2646.18823 -1013.99866 -47.29560 491
2928.37817 -1125.93616 -17.49992 491
2642.03931 -1031.14551 -47.61377 489
2898.03027 -1134.15771 -16.15230 315
2638.54297 -1047.71167 -47.98684 488
2794.27905 -1111.29968 -11.46441 313
2803.90747 -1115.57922 36.67755 473
2636.57935 -1065.23108 -48.30770 487
2761.62061 -1117.86145 -9.45443 344
2634.05396 -1082.65417 -48.86412 487
2677.76904 -1101.33447 -5.99596 302
2632.02856 -1099.81152 -48.90234 486
2658.94751 -1111.31958 -5.15721 312
2629.70093 -1117.54077 -49.23516 486
2655.30225 -1128.65491 -4.81419 312
2627.51880 -1135.31116 -49.81518 485
2652.36035 -1146.52356 -5.42932 312
2625.74268 -1152.86169 -50.16172 485
2648.89771 -1163.75000 -5.94512 312
2829.65796 -1246.19617 34.43752 373
2623.34839 -1171.14294 -50.72172 484
2645.21899 -1180.86536 -5.55002 312
2817.81738 -1261.22095 34.06883 499
2621.26489 -1189.39954 -50.49179 484
2641.64697 -1198.34875 -6.10594 390
2728.98633 -1239.88574 37.07045 496
2619.74121 -1206.77722 -51.07711 483
2638.97412 -1216.21777 -6.24866 390
2721.11377 -1255.97754 37.20210 499
2616.89160 -1225.31116 -51.28358 483
2710.69141 -1270.53784 -10.30491 499
2713.14160 -1271.37683 36.71468 499
2721.20361 -1295.28479 -59.58254 467
2702.42334 -1286.29504 -10.76744 499
2705.00732 -1287.55981 37.18597 499
2890.76587 -1379.29358 81.11536 468
2719.96899 -1315.18274 -59.80773 444
2662.65918 -1286.59058 -8.65951 485
2699.38330 -1304.57458 37.09237 473
2696.20703 -1323.65125 -11.37096 459
2699.13477 -1324.66919 36.99266 466
1387.10938 -1574.19348 -35.00136 349
1372.74927 -1576.19165 -34.39588 498
1375.05408 -1578.83594 -1.38724 497
1376.86682 -1581.22241 31.89431 480
1366.46436 -1588.18909 -34.70573 438
21223.26367 -28365.73047 -7507.54199 1000
10295.60449 -16484.80469 -502.44598 1000
9385.63574 -27333.94727 -3671.10815 1000
531.59241 -1646.63196 -7.64092 470
520.71814 -1645.73889 -7.53129 472
510.04126 -1645.15381 -7.06933 473
509.33179 -1643.50562 21.23240 431
499.21011 -1644.75879 -6.84017 473
497.84525 -1641.14429 21.61331 488
488.25912 -1644.35425 -6.50993 473
487.04605 -1640.75549 21.57857 489
476.51398 -1639.19275 -5.72814 400
476.73157 -1639.95300 21.74641 489
466.56219 -1641.46545 -5.83902 469
465.86002 -1639.69653 21.97527 490
455.41193 -1641.35071 -5.45724 471
455.04477 -1639.02966 22.24874 490
463.18707 -1674.23987 47.88356 287
445.00018 -1640.64270 -5.25841 471
444.34467 -1638.35999 22.34238 491
456.58392 -1693.66077 47.27087 299
434.25113 -1640.14209 -5.20959 470
433.88620 -1638.14246 22.47715 491
452.44601 -1724.09021 45.90089 295
423.70297 -1639.67053 -5.16825 470
423.57016 -1637.30396 22.44555 491
459.08798 -1810.13623 41.51571 484
413.42383 -1639.05933 -4.78340 470
413.01453 -1637.22888 23.00253 492
447.78461 -1809.53406 41.68131 494
402.72488 -1638.06116 -4.48625 471
402.11218 -1636.50830 23.01554 492
444.38351 -1850.98999 39.79169 312
392.01450 -1637.66553 -4.54138 471
392.08691 -1635.76562 23.15818 492
393.91071 -1646.33997 49.93941 312
381.62329 -1636.99512 -4.15404 471
381.17529 -1635.53357 23.11771 493
383.05060 -1645.32483 49.95253 314
371.13788 -1636.56140 -3.91650 472
371.10516 -1635.05994 23.28720 493
372.76974 -1644.54907 50.35329 314
360.88391 -1635.94373 -4.00792 472
360.40051 -1634.48657 23.46443 494
362.09671 -1644.12585 50.35630 400
350.44357 -1635.23608 -3.62579 472
350.39902 -1633.79211 23.64479 494
351.71603 -1643.25684 50.30590 400
340.03690 -1634.66443 -3.38877 473
340.10214 -1633.21716 23.70120 494
341.62344 -1642.99524 50.34084 400
329.97217 -1634.10071 -3.27401 473
329.90933 -1632.65381 24.08902 494
331.27411 -1642.14905 50.82712 400
319.49606 -1633.67603 -2.98269 473
319.60928 -1632.22461 23.98173 495
354.91010 -1878.71265 39.09643 391
309.31039 -1633.35291 -3.14184 474
309.07275 -1631.92273 24.11422 495
343.34235 -1878.23328 39.09851 391
298.89709 -1632.64111 -2.63800 474
299.13275 -1631.07800 24.20296 495
331.61490 -1877.44800 39.29992 469
288.79489 -1632.04138 -2.71056 474
288.83582 -1630.94946 24.29955 496
319.63602 -1876.97717 39.05202 469
278.52420 -1631.44812 -2.27108 474
278.33276 -1630.35779 24.51927 496
308.15375 -1876.02490 39.21738 470
268.44400 -1630.76477 -2.28347 475
268.28336 -1629.89124 24.67231 496
296.53625 -1875.49011 39.53797 470
258.25613 -1630.70801 -2.09692 454
258.23743 -1629.20996 25.03618 496
284.43948 -1875.07422 39.51102 470
248.38223 -1630.40796 -1.97700 455
247.94759 -1628.80273 24.93310 497
272.85071 -1874.30359 39.44502 470
238.22624 -1630.35657 -2.10923 455
237.94608 -1628.08569 25.12397 497
262.06921 -1878.47144 39.32310 497
228.31622 -1630.54236 -2.04669 452
227.98695 -1627.53418 24.98084 497
250.14342 -1877.48486 39.83662 497
218.18683 -1629.62524 -1.93682 452
217.82307 -1626.92200 25.31190 497
238.62550 -1876.64050 39.79029 497
208.14172 -1629.10181 -1.67389 453
207.85794 -1626.46497 25.22980 497
208.19991 -1630.95435 52.08706 498
198.09496 -1628.74524 -1.58876 453
198.06172 -1626.35645 25.38447 498
198.14972 -1631.60962 51.84934 498
188.20847 -1628.33704 -1.52543 453
187.87868 -1625.41772 25.58652 498
188.18900 -1631.15796 52.02162 498
178.11652 -1627.88965 -1.48623 453
177.81775 -1625.23108 25.67004 498
178.39471 -1630.69971 51.87027 498
167.92574 -1627.28589 -1.62738 453
167.74089 -1624.72974 25.53580 498
168.31071 -1630.44177 52.11435 498
158.06700 -1626.80029 -1.46319 453
157.73199 -1624.17017 25.83423 498
157.99211 -1629.92578 52.08349 499
148.13950 -1626.45190 -1.48557 441
148.08237 -1623.70557 25.85965 498
147.98239 -1629.75903 51.93402 499
157.94322 -1882.57178 70.49398 497
138.09976 -1626.73462 -1.41990 442
138.20438 -1623.30164 25.66987 498
138.28018 -1629.48352 52.03735 499
146.87321 -1882.34851 70.31441 497
128.06456 -1626.80176 -1.44842 442
128.00238 -1623.00146 25.99147 499
128.04221 -1628.95947 52.03734 499
128.40082 -1628.58337 78.78839 499
118.14819 -1626.70325 -1.21951 442
118.25554 -1622.94739 25.65744 499
118.09521 -1628.29553 51.94880 499
118.05350 -1629.35107 78.71867 499
108.39210 -1627.34949 -1.13250 444
108.34730 -1623.82117 25.59226 499
108.17377 -1629.94653 52.22520 497
108.18111 -1630.83240 78.76561 498
98.61293 -1628.45703 -1.34657 444
98.21394 -1625.08203 25.70313 498
98.56290 -1631.41968 51.86155 497
98.22414 -1631.94043 78.67886 498
88.44436 -1629.73730 -1.64900 443
88.58987 -1626.54163 25.35315 497
88.35476 -1632.80762 51.75887 497
88.52002 -1633.93909 78.74899 434
78.47548 -1631.22961 -1.44514 439
78.51441 -1628.14087 25.54314 496
78.40203 -1633.93884 51.96032 497
78.36102 -1644.54309 78.41618 422
68.65858 -1633.12854 -1.81400 439
68.40293 -1629.56213 25.25547 494
68.32211 -1642.28772 51.27172 433
68.17971 -1653.06750 78.07064 427
58.63157 -1635.57166 -2.12384 435
58.53503 -1631.80042 24.97385 492
58.37540 -1650.65125 50.83568 432
55.37667 -1816.32812 72.57162 263
48.68816 -1637.68298 -2.22678 432
48.30617 -1634.28491 24.89869 491
47.07390 -1708.02466 48.44369 287
38.29519 -1640.42175 -2.48198 432
38.47659 -1636.88586 24.87901 489
33.88725 -1806.76282 43.41570 347
28.47073 -1643.46545 -2.55567 429
28.20954 -1639.10388 24.60653 489
22.40474 -1821.62952 42.54774 342
18.16792 -1646.50220 -3.15651 429
18.42663 -1641.73401 24.44201 485
10.70463 -1831.47498 42.24171 494
8.07387 -1649.72571 -3.32813 427
8.09085 -1644.30725 24.23571 483
-0.28169 -1828.37524 42.02628 495
-2.35230 -1653.47888 -3.61804 427
-2.25593 -1647.54773 23.94675 483
-11.48072 -1825.40479 42.35196 491
-12.73940 -1656.82690 -4.11882 425
-12.58767 -1650.31335 23.89635 479
-22.41619 -1821.86597 42.26132 492
-23.35055 -1660.90686 -4.50519 424
-22.74026 -1653.78931 23.32504 478
-33.34562 -1817.51526 42.81206 478
-33.89055 -1664.99268 -4.60134 423
-33.26500 -1657.31909 23.35800 471
-43.98936 -1812.14233 42.66846 478
-44.40014 -1669.61389 -4.97400 419
-43.44190 -1661.50549 22.98920 467
-54.92700 -1806.41333 42.84642 453
-54.84189 -1674.97498 -5.75639 418
-54.22576 -1665.37537 22.66814 462
-65.58956 -1800.30835 43.41603 452
-65.61463 -1680.07031 -6.23571 415
-64.67782 -1670.42175 22.01406 461
-75.92445 -1793.90747 43.79287 381
-76.54717 -1685.87390 -6.62728 410
-75.60279 -1674.62537 21.68290 459
-86.51251 -1788.13159 43.81833 381
-87.54404 -1691.74988 -7.18616 409
-86.65056 -1679.30566 21.31461 458
-97.13877 -1782.87134 44.02943 268
-98.58678 -1697.55786 -8.04899 409
-97.33804 -1683.94556 20.99564 457
-107.31351 -1778.74890 44.37381 470
-110.01989 -1703.02979 -8.27566 421
-108.24900 -1688.31433 20.88563 456
-117.62324 -1771.11096 44.45111 458
-120.86984 -1708.16284 -9.14733 420
-119.26109 -1693.19458 20.14913 450
-122.90176 -1721.62317 47.00029 271
-132.51566 -1713.74707 -9.77423 415
-130.21635 -1697.84656 19.76094 449
-133.40903 -1720.96509 46.70245 336
-141.43933 -1702.31238 19.51993 273
-144.62526 -1727.44409 46.70332 327
-152.39555 -1705.29565 19.24422 403
-156.49893 -1732.42212 45.97677 377
-163.70558 -1710.73218 18.67359 449
-167.90463 -1738.05029 45.76955 488
-175.61279 -1717.25256 17.98578 445
-179.08504 -1740.00281 45.84164 456
-187.46188 -1723.96960 17.80241 444
-199.57686 -1731.20752 17.24769 364
-1399.08545 -3214.38989 15.36099 430
-1400.00623 -3216.64941 73.38145 368
-20042.76172 -34742.01953 -1190.43481 1000
-4469.81299 -6507.02734 1176.73193 1000
-1844.46875 -2654.37866 23.94993 488
-1844.57739 -2654.01196 77.59306 488
-1844.14087 -2654.43677 131.19566 453
-1843.76953 -2654.20508 185.58710 453
-1844.03821 -2654.41821 239.54747 398
-2294.04932 -2093.17822 79.40753 499
-2293.24487 -2092.47583 132.13152 493
-2293.59692 -2092.37964 183.48102 493
-2292.47388 -2091.86353 235.82921 493
-5363.61133 -2846.71558 130.67786 408
-4812.29785 -2370.88599 132.27637 497
-4275.78662 -1916.54309 132.12593 483
-42842.89062 -17899.51367 -8336.62207 1000
-257.31274 -75.20911 35.32967 321
-255.34097 -72.52065 35.97388 321
-253.28680 -69.89578 36.62446 322
-273.62421 -73.92372 37.68839 318
-253.04736 -67.55645 36.79455 352
-271.36429 -71.17689 38.33440 319
-254.89110 -65.71487 36.40830 351
-269.50400 -68.50117 38.96118 322
-256.76038 -63.81528 36.01291 351
-271.16379 -66.42426 38.58828 345
-289.13428 -69.77047 40.74714 318
-4534.18408 -842.87323 1310.64526 1000
-258.59720 -61.97998 35.55881 350
-273.08569 -64.48639 38.21512 347
-289.27963 -67.34566 40.80982 341
-260.47430 -60.00439 35.11280 350
-275.18143 -62.51044 37.73260 346
-291.14539 -65.25813 40.53652 341
-265.82297 -58.68290 33.82970 320
-279.99103 -61.01342 36.62087 323
-296.47733 -63.71658 39.36219 313
-272.02914 -57.33004 32.19802 319
-196.31564 -11.08660 53.36678 324
-196.32617 -9.33056 53.31741 324
-49368.58984 -1624.28491 8302.75000 1000
-196.38806 -7.45530 53.35346 324
-196.38382 -5.70145 53.31483 324
-28904.49805 -595.87677 4920.99268 1000
-196.33357 -3.90010 53.30930 324
-196.29837 -2.05291 53.36060 324
-196.23495 -0.31135 53.29506 324
-18586.73828 -40.74487 743.54474 452
