# .PCD v.7 - Point Cloud Data file format
VERSION .7
FIELDS x y z rgb
SIZE 4 4 4 4
TYPE F F F U
COUNT 1 1 1 1
WIDTH 1258
HEIGHT 1
VIEWPOINT 7222.284668 -342.572632 128.346146 -0.679163 -0.098136 -0.093633 0.721346
POINTS 1258
DATA ascii
-18806.16211 73.58642 449.07214 466
-18758.55078 190.04930 448.92480 467
-18709.00586 305.96075 450.49582 467
-18714.14648 306.54550 758.76794 392
-18661.81836 418.07776 446.03149 468
-18661.90625 422.19305 753.30731 393
-18615.08984 535.27954 448.84650 468
-18605.85742 536.19086 751.46375 393
-18564.39844 645.91797 448.99493 469
-18554.52734 644.78406 754.41992 409
-18519.93945 760.62622 446.97736 469
-18509.94531 760.86505 752.50134 423
-18471.44922 872.83636 446.53806 470
-18463.57227 871.19556 747.92200 423
-18422.26172 984.81500 446.69479 470
-18420.00391 983.94580 749.59283 423
-18378.16211 1092.71497 441.16336 471
-18373.88281 1092.50745 746.75806 423
-18330.89453 1206.43469 440.25098 471
-18286.46875 1318.18140 442.90106 472
-18237.91797 1424.34839 441.36154 472
-18195.22266 1535.72620 438.43384 472
-18147.94922 1643.81458 437.38013 473
-18103.27344 1754.42712 438.56235 473
-18061.12305 1860.30750 439.25708 474
-18014.03906 1968.75366 437.57812 474
-17968.20898 2075.76953 434.55573 475
-17921.62109 2181.30542 437.21872 475
-17881.09570 2287.14258 432.82593 475
-17837.11328 2396.32959 435.30109 476
-17792.81836 2502.29980 433.44968 476
-18501.71289 2598.29883 754.43860 476
-18496.86719 2602.61475 1063.10132 476
-17747.04492 2606.52979 434.87924 476
-18432.65430 2708.11499 749.94043 477
-18430.73633 2709.54980 1058.33826 477
-17703.19727 2713.56519 434.17188 477
-18365.10352 2815.15137 748.46234 478
-18363.99805 2812.83154 1055.19739 478
-17660.76367 2818.95215 432.89346 477
-18297.92578 2919.62451 750.18896 478
-18293.66406 2918.06006 1055.21704 478
-17612.56250 2921.65283 429.06546 477
-18228.75195 3020.72485 745.88531 479
-18225.42383 3023.79077 1047.45288 479
-279.36774 63.66368 38.61835 347
-295.51736 66.45011 41.30471 341
-17570.78906 3023.01294 430.12250 478
-18164.62305 3124.66162 744.49011 480
-18158.12695 3129.36865 1045.09082 479
-277.34381 65.65023 39.05694 345
-293.91241 68.58180 41.57885 319
-4510.06494 817.83356 57.28070 498
-4521.10645 818.88403 133.61761 380
-17526.92383 3130.71509 431.23590 478
-18036.51953 3217.48462 740.57715 480
-18095.64062 3231.58765 1042.90173 480
-275.60489 67.66187 39.40100 345
-296.31680 71.54629 40.88728 258
-17482.05469 3233.16992 431.66254 478
-17968.60352 3320.60840 738.32684 481
-18029.01562 3332.21948 1041.01440 481
-275.95947 70.12362 39.20002 321
-17441.98047 3337.18188 428.19461 479
-17918.07617 3425.24146 739.47113 493
-17978.02344 3438.01758 1041.74500 493
-277.86557 72.82626 38.57802 318
-17399.15430 3440.16577 427.77451 479
-17875.61719 3532.46606 738.87720 494
-17932.18750 3544.69019 1042.05920 493
-17354.75195 3542.13721 430.67282 479
-17830.44922 3641.43066 735.08344 494
-17886.66406 3648.51343 1036.33252 494
-17311.93945 3643.67725 427.90341 480
-17302.80273 3645.34351 720.87415 294
-17839.13672 3754.88232 1039.07483 494
-17267.68359 3746.77026 426.61581 480
-17250.93750 3746.64551 716.29358 294
-17790.74219 3861.61133 1036.43665 494
-17227.16992 3849.45898 428.15714 480
-17204.62500 3842.95605 714.02631 300
-17744.93945 3963.82471 1032.54968 495
-17185.19922 3949.40527 424.93680 480
-17153.92383 3946.45386 717.94147 300
-17611.98438 4049.80273 1030.69324 366
-17141.65625 4054.17578 423.42868 481
-17104.54102 4043.59131 714.03473 300
-17554.38086 4149.52344 1025.26233 493
-17098.81055 4156.31445 423.53262 481
-17058.35938 4146.06738 711.36169 300
-17511.82422 4252.71484 1027.27600 494
-17055.70703 4257.04150 424.05695 481
-17011.84766 4244.08691 714.97968 300
-17467.78516 4358.67480 1022.34503 494
-17605.29688 4392.20996 1332.68359 496
-17816.60742 4447.22852 1651.20251 363
-17012.77734 4355.09717 426.14334 481
-16962.04102 4346.08936 711.53491 422
-17421.29688 4460.85400 1024.06006 489
-17563.71680 4500.11035 1331.93787 496
-17711.35742 4535.60156 1644.56580 322
-16972.94531 4460.07178 426.53622 481
-16922.75000 4445.69580 710.95270 422
-17478.92578 4591.30762 1029.80872 496
-17476.41016 4592.08496 1325.41284 434
-16928.86523 4556.40869 426.32114 482
-16877.98242 4543.08350 711.60864 422
-17355.41211 4672.87744 1023.10284 435
-17352.00586 4670.63867 1320.89648 435
-16884.52734 4659.48291 425.29117 482
-16835.21289 4645.51172 708.38403 422
-17228.79688 4755.25049 1017.58234 436
-17226.39844 4755.48096 1314.70349 436
-16845.91211 4759.28516 423.83838 482
-16789.67383 4746.17432 708.35010 422
-17136.25586 4842.33545 1016.72919 497
-17133.18164 4841.12646 1309.36584 497
-17397.53711 4916.87207 1626.51184 452
-16800.92383 4858.71387 422.99890 482
-16747.50977 4843.69971 706.22754 423
-17089.20898 4942.05811 1011.07574 497
-17091.04688 4945.23877 1308.62683 497
-17349.71680 5018.30127 1625.42053 452
-17866.44922 5167.84277 1977.63696 274
-17865.66992 5167.25146 2284.04980 467
-17861.63867 5167.18115 2596.66992 467
-17858.98633 5168.70605 2908.44604 479
-16759.27344 4957.39746 424.55286 490
-16707.98242 4944.61572 708.44440 423
-17019.28320 5034.54492 1012.74811 497
-17014.06641 5035.72168 1306.09155 497
-17305.54883 5123.14062 1619.84216 452
-16718.09180 5061.89893 419.99268 490
-16663.24219 5043.49316 709.00336 463
-16974.75195 5134.63330 1009.00067 498
-16970.74219 5136.97900 1304.92749 497
-17258.81055 5224.03613 1621.73486 452
-17355.88477 5252.20508 1927.33569 484
-16677.15820 5161.44727 421.19858 491
-16623.29883 5143.78662 704.83398 463
-16931.84766 5237.50586 1009.62054 498
-16927.84180 5235.08789 1301.37671 498
-17216.63281 5326.80273 1618.41199 452
-17311.52148 5358.54297 1927.13916 484
-16637.50977 5257.48633 419.72220 491
-16576.87109 5244.14697 706.09711 463
-16884.47656 5339.24414 1010.30542 498
-16886.08203 5336.85303 1299.43787 498
-17169.26367 5426.98730 1619.90222 452
-17267.02539 5461.52100 1926.41003 484
-16592.47266 5359.72363 422.70920 491
-16535.99414 5340.79980 707.93140 447
-16844.06836 5437.51416 1010.42053 498
-16841.35742 5440.87891 1300.98779 498
-17121.01367 5527.46826 1615.35938 470
-16552.88672 5459.05420 418.56311 491
-16495.38477 5441.92969 705.87488 447
-16800.66406 5540.40234 1008.73242 498
-16796.97461 5539.83252 1300.59448 498
-17074.73438 5634.03125 1618.16528 470
-16513.81445 5557.73975 421.10632 491
-16455.75977 5540.04492 706.96545 447
-16782.65234 5652.16455 1007.92456 498
-16782.58984 5650.86572 1299.12024 498
-17028.88672 5731.32812 1617.27771 472
-16469.34961 5655.08447 418.05313 491
-16415.50781 5639.78076 706.22925 447
-16742.00195 5748.16260 1009.50415 498
-16737.60547 5748.41943 1298.40271 498
-16985.22070 5833.68799 1613.10657 468
-16431.05664 5756.59521 419.69284 491
-16375.56836 5740.07568 703.56244 447
-16536.17969 5795.94922 996.57629 481
-16501.84570 5785.72705 1285.70801 392
-16940.00195 5936.18652 1615.05383 468
-16389.66016 5853.62451 422.08600 491
-16336.71094 5835.61963 704.35602 447
-16652.37695 5952.42969 1007.75775 499
-16650.51562 5951.09912 1297.52771 498
-16898.48438 6037.85498 1610.71875 468
-16345.77148 5953.85107 418.76682 491
-16293.82715 5935.34082 704.78253 447
-16610.21875 6050.36035 1008.28601 499
-16610.11328 6049.01367 1299.07996 499
-16740.63477 6100.97998 1599.92139 391
-16303.54980 6056.01172 418.67639 491
-16254.51172 6035.01270 703.17133 447
-16566.04883 6150.30273 1007.95111 499
-16564.55664 6151.74609 1294.85840 499
-16710.06836 6205.36426 1603.60364 367
-16262.78027 6154.12500 419.91385 492
-16214.90723 6135.44092 704.46564 447
-16577.70898 6271.02002 1009.45844 467
-16576.13672 6271.54980 1298.80872 467
-16788.44727 6354.09473 1611.55103 454
-16223.00781 6252.10498 420.59683 492
-16172.47852 6234.02148 705.74316 447
-16588.98047 6393.01904 1008.65808 482
-16596.39453 6395.69971 1306.14441 466
-16778.61719 6464.99365 1613.58740 453
-16179.02637 6350.77930 420.95273 492
-16136.53418 6334.41602 703.41132 447
-16576.31055 6509.47510 1011.53717 482
-16614.95703 6521.18750 1306.71521 466
-16137.19922 6451.82959 420.73193 492
-16091.91504 6430.11035 704.67596 376
-16572.32031 6620.47656 1015.71167 481
-16624.39844 6642.34277 1311.30151 480
-16096.35645 6549.27783 416.52502 492
-16052.35254 6530.08105 702.21082 376
-16560.59375 6734.68115 1017.75189 481
-16057.49316 6647.25732 419.32007 492
-16010.21582 6627.71484 703.80023 376
-16016.32617 6747.57178 418.35260 492
-15969.20996 6729.07861 702.05182 376
-1693.35022 760.46619 37.31084 472
-1698.14795 762.69415 68.69231 425
-1704.78857 765.16949 100.41890 364
-15975.31543 6844.09570 416.77347 492
-15928.63477 6827.74365 700.96002 376
-1687.65051 770.91547 37.10022 495
-1691.13184 772.61340 68.59127 495
-1695.64771 774.55212 100.36059 471
-15934.90234 6942.31445 420.40335 492
-15885.13184 6927.06543 701.57904 376
-1691.33533 785.30658 36.62244 360
-15892.98242 7044.43164 418.57172 492
-15845.99316 7024.35156 701.55023 376
-15850.95703 7144.66211 417.59610 492
-15805.13379 7122.66943 701.35266 376
-15808.74707 7241.50928 419.07034 492
-15761.64746 7219.51221 703.98120 376
-15765.93164 7339.82910 419.37405 491
-15722.85645 7318.60107 704.63171 376
-15728.28418 7438.41699 418.42627 491
-15678.62695 7418.83496 702.73224 376
-15685.35059 7539.46973 417.83350 491
-15640.92871 7515.65869 704.96075 376
-15643.57227 7636.47559 419.18869 491
-15597.79492 7617.79492 702.54822 376
-15600.31543 7736.23828 418.48477 491
-15557.73340 7715.49414 702.49121 376
-15561.25391 7838.46680 418.55298 491
-15515.74902 7813.82959 702.54584 376
-15520.13574 7935.44434 418.44016 491
-15473.16309 7910.84375 701.83917 376
-15479.76953 8034.33594 417.09299 491
-15433.73047 8012.66650 704.24823 376
-15434.25684 8136.74414 417.13058 491
-15393.53223 8114.08447 704.49689 376
-15394.71484 8234.94434 417.11273 491
-15350.54883 8212.28320 701.62036 376
-15355.07520 8332.28125 420.24960 490
-15308.50098 8311.78711 705.18921 376
-15313.25195 8435.07031 417.26059 490
-15266.21387 8413.09180 703.32397 376
-15268.96777 8534.45117 419.90375 490
-15224.59082 8512.32227 701.97272 375
-15227.88477 8632.27051 419.28137 490
-15186.44336 8609.96582 703.45392 375
-15185.96680 8734.23047 419.82932 490
-15144.56250 8711.97852 706.03497 375
-15141.15918 8836.03613 420.27652 490
-15100.55762 8812.68066 703.84442 375
-15103.03418 8935.00000 416.89078 489
-15062.84668 8911.36035 704.61328 375
-15057.85352 9035.65723 416.54187 489
-15019.94434 9012.21777 706.08655 375
-2944.93921 1835.51501 73.31316 315
-15018.33398 9137.25293 418.33487 489
-14977.11133 9115.50977 708.40070 375
-2868.53491 1814.19373 74.66727 337
-3106.05371 1960.09753 131.94052 311
-14974.33496 9240.86133 421.77417 489
-14937.97168 9213.30078 708.81482 375
-2811.05713 1804.84241 76.17430 350
-3108.34033 1988.53577 131.49879 363
-14930.94238 9340.16504 421.58673 489
-14893.97949 9316.10742 710.21991 375
-2762.26489 1798.16919 76.52893 360
-3100.12524 2011.99744 131.75249 314
-14888.44141 9441.59668 421.62357 488
-14851.56250 9418.73145 706.48077 374
-2716.55103 1793.89966 77.50190 361
-2877.34424 1896.63684 131.69244 363
-14850.75488 9546.65527 421.23123 471
-14810.87793 9520.03320 708.23279 374
-2672.89941 1789.55237 77.60517 363
-2839.97778 1897.57764 131.80310 421
-14823.00684 9657.88184 420.06433 471
-14771.63086 9623.35352 709.56989 374
-2629.43799 1785.79163 78.40900 364
-2823.35229 1912.78979 131.49194 426
-14796.00586 9767.62012 422.05756 471
-14726.06543 9724.65430 707.49548 374
-2588.18701 1781.41003 79.02866 351
-2736.62085 1881.35120 132.04031 367
-14764.64941 9882.35742 423.56769 471
-14685.02246 9828.89648 710.56580 492
-2547.28979 1777.99829 79.57520 352
-2715.68530 1891.85913 131.70932 470
-14736.04883 9991.62109 422.65915 471
-14647.77734 9934.70117 712.25922 492
-2507.48853 1774.83411 80.44786 353
-2604.34009 1841.20215 131.97171 465
-14707.89844 10105.48926 420.30750 470
-14616.92676 10046.70605 712.31830 479
-2469.25049 1771.42578 80.81647 354
-2603.23169 1864.40869 131.43309 464
-2708.34888 1937.36096 187.37292 371
-2690.27124 1925.21423 242.64073 422
-2431.08545 1768.47034 81.34111 355
-2601.08130 1888.02417 131.41164 467
-14649.20801 10335.53223 423.29236 432
-2682.45532 1945.20825 242.25273 376
-2393.76709 1764.86304 81.65703 356
-2598.99023 1910.59668 131.49730 467
-2522.34497 1856.76721 184.46049 499
-2666.79761 1959.23779 241.91675 499
-2667.36255 1960.05261 298.27963 373
-2356.85083 1762.07935 82.69879 357
-2596.23560 1933.61023 131.32477 466
-14640.12305 10599.62012 425.27948 430
-2510.38232 1872.13745 236.61601 466
-2516.05127 1876.00647 289.48785 375
-2321.24146 1758.64355 82.87883 358
-2594.47778 1957.79797 131.70470 465
-14633.28223 10734.14453 425.44196 409
-14495.75781 10634.85352 718.11401 476
-2338.01196 1793.95776 32.74887 456
-2292.75757 1760.18750 83.40154 415
-2591.60815 1980.54846 131.70485 468
-14636.68848 10876.83008 429.81711 408
-14469.77246 10752.03711 722.16467 475
-2336.20361 1815.07666 32.18863 455
-2272.31519 1767.47253 83.76323 378
-2588.67700 2004.73743 131.76385 467
-14651.36133 11025.12500 432.26270 383
-14444.62305 10871.30859 723.71985 475
-2333.54639 1836.99597 32.17843 454
-2557.06177 2005.80261 77.50753 337
-14675.77539 11188.49902 429.65262 382
-14435.61035 11004.08887 723.61456 424
-2290.82617 1827.05005 33.15429 368
-2511.37988 1997.14209 78.08050 499
-2510.97070 1996.19055 132.03636 377
-14750.96777 11390.44531 434.25012 287
-14449.08105 11154.50391 730.21460 421
-2502.60449 2015.67786 77.73625 365
-14463.78906 11310.34668 731.33307 420
-2322.55273 1899.24658 81.45627 499
-2322.86572 1899.75684 131.40373 499
-14475.27832 11460.66504 736.45294 419
-2429.35352 2009.01733 79.02756 367
-14487.06543 11617.20996 738.29309 418
-2316.68994 1943.10388 81.00416 494
-14593.85938 11850.15527 747.07690 355
-2360.04736 2002.41931 79.91559 370
-2325.74634 1999.82507 80.60990 371
-2292.42139 1996.42139 80.36900 372
-2266.58545 1999.71619 80.58505 376
-2248.42627 2009.11218 81.31018 345
-41372.13672 54935.52734 -11255.61621 1000
-7813.87158 14295.24121 4217.34912 1000
1035.67712 4496.74365 736.18359 1000
186.65373 430.55051 14.38036 378
187.47047 433.96292 21.18939 307
188.41023 425.76157 15.57726 437
188.82050 427.61285 22.65294 379
189.22673 429.46408 29.85360 379
189.61932 431.26059 36.93689 379
190.40001 434.50391 43.82199 308
2594.09546 11246.88672 1839.04846 1000
190.49493 422.93164 16.17915 438
190.84512 424.26016 23.37508 438
191.20580 425.60025 30.61774 439
191.50240 426.98148 37.78120 439
191.84827 428.35287 45.00511 439
192.43492 431.00000 51.94999 374
192.88931 433.25159 59.03472 369
193.28252 434.79770 66.17795 308
192.75102 420.69080 16.64741 479
193.04152 421.91476 23.85021 479
193.33960 423.00827 31.06938 480
193.63887 424.25348 38.29200 480
193.89807 425.55237 45.42691 440
194.33061 427.41962 52.41767 445
194.73828 428.98782 59.63431 450
194.92018 429.63132 66.82919 433
195.19728 431.04129 74.09506 434
195.51120 432.50571 81.26171 350
196.09468 434.65411 88.39631 370
195.09648 419.01245 16.86334 480
195.35042 420.16431 24.15172 480
195.70642 421.38281 31.35740 480
195.95190 422.52991 38.48312 480
196.29132 423.64383 45.71277 481
196.53499 424.85294 52.89547 499
196.86655 426.42743 59.88186 451
197.08136 427.10675 67.14787 481
197.39886 428.34741 74.37692 481
197.57440 429.47101 81.45792 455
197.91794 430.86801 88.67333 455
198.29720 432.51086 95.79186 420
197.61252 417.94125 17.00821 498
197.87279 419.07919 24.21262 498
198.09541 420.17392 31.41357 498
198.38319 421.33060 38.70163 498
198.70981 422.42221 45.85846 499
199.08537 423.99146 52.91182 499
199.40178 425.20129 60.07141 499
199.54759 425.69513 67.29443 497
200.17168 428.20529 74.25904 494
200.08916 427.93042 81.59837 499
200.34721 428.98792 88.72517 499
200.65791 430.47281 95.91094 449
200.13370 417.08820 17.08196 498
200.37122 418.24307 24.31576 498
200.62013 419.35049 31.46561 498
200.98892 420.48749 38.71994 499
201.22459 421.51584 45.82038 499
201.71837 423.20276 52.89591 499
201.92690 424.52234 60.10541 499
202.15123 425.05826 67.24432 494
202.48128 426.24396 74.37860 492
202.71852 427.38284 81.53873 492
203.06166 428.59094 88.75381 497
203.45239 430.00168 95.85932 449
202.76349 416.76678 17.05301 491
203.09285 418.01254 24.16236 491
203.41855 419.20355 31.44320 491
203.63959 420.39554 38.58098 491
204.02092 421.46262 45.78616 492
204.40746 422.94635 52.79887 473
204.73433 424.54443 59.89147 468
204.94572 425.03415 67.16007 461
205.23000 426.42545 74.32948 460
205.65671 427.74338 81.51535 460
206.00670 429.19427 88.63757 460
206.59322 431.30557 95.81013 371
205.49463 416.75543 16.84798 490
205.81538 417.95047 24.02935 491
206.22627 419.26727 31.17829 460
206.55508 420.55170 38.35097 460
206.92787 421.93808 45.49975 460
207.30443 423.54065 52.65172 472
207.82812 425.20297 59.63194 472
208.04187 426.13031 66.88818 452
208.52045 427.89709 73.96795 408
209.05638 429.92441 81.17183 346
208.44310 417.42627 16.40708 459
208.76208 418.74713 23.61088 459
209.18991 420.21301 30.87463 459
209.56566 421.49274 38.00299 460
210.02487 423.24069 45.11849 410
210.66689 425.41040 52.08255 392
211.27710 427.84601 59.12188 396
211.84076 429.86163 66.21769 341
211.44412 418.33752 16.06096 408
211.96344 420.19101 23.05562 408
212.51588 421.98068 30.16862 409
212.95227 423.73581 37.30503 409
213.79498 426.38675 44.34241 341
215.36928 432.30023 50.62830 265
214.91876 420.68414 15.15027 408
215.55748 422.81866 22.20864 340
216.39374 425.93005 29.11989 340
219.18709 425.38275 13.59416 339
1146.23035 1504.90710 40.34805 470
1154.57678 1497.44727 40.24828 470
1160.74536 1506.29456 69.90950 434
1163.61060 1490.50439 40.27216 470
1169.33875 1498.96118 70.07663 434
1172.36658 1483.67639 40.27649 470
1178.08850 1491.48291 70.07092 448
1181.37048 1476.33655 40.14104 457
1186.60510 1483.57068 69.97764 453
1190.14429 1469.82654 40.08557 457
1195.42468 1476.36011 70.15353 453
1199.42456 1463.09265 40.42834 455
1203.87708 1468.86108 70.35446 465
1265.33875 1530.63159 4.14701 268
1208.74084 1457.00513 40.46070 454
1212.50635 1461.77405 70.27972 474
1255.11853 1498.47534 6.28673 269
1217.83228 1450.69971 40.09410 454
1221.52698 1455.15906 70.15456 480
1245.62000 1467.33728 7.92524 269
1227.37708 1444.25098 40.42617 454
1230.19067 1448.37341 69.93349 480
1249.25513 1454.00903 8.55003 446
1236.57397 1438.08435 40.12517 454
1239.50549 1441.29358 70.03819 486
1258.80920 1447.88464 8.35319 445
1245.82788 1431.60376 40.10743 453
1248.84863 1435.19043 70.18650 486
1268.40820 1441.36511 8.49558 443
1255.55493 1425.34448 40.02909 453
1257.96765 1428.54517 69.98533 493
1278.46570 1435.24695 8.53795 443
1264.86377 1418.67749 39.85543 453
1267.11633 1421.56604 69.87848 493
1288.54529 1429.56665 8.11843 442
1274.52539 1412.45703 40.00833 451
1276.66321 1415.26355 69.97771 492
1404.87659 1568.65234 96.96510 372
1298.68591 1423.70667 8.31317 437
1284.08374 1406.76404 40.14924 451
1286.22791 1409.02612 70.12904 495
1402.09216 1545.53308 97.42822 373
1308.99609 1418.51953 8.08921 436
1293.84705 1400.84583 39.76663 446
1295.45044 1402.58325 69.73011 494
1399.29797 1523.55054 97.21938 374
1319.52808 1412.81543 7.61417 432
1304.52148 1395.56873 39.80169 446
1305.75610 1397.00952 70.00587 492
1396.26428 1501.52417 97.66690 375
1330.48779 1407.82141 7.64814 432
1314.59656 1389.91907 39.57637 443
1315.47107 1391.00378 70.06400 492
1393.90991 1480.08557 98.37579 376
1341.22437 1402.53271 7.25814 431
1325.13367 1385.13916 39.25024 443
1325.94470 1386.09033 69.68333 489
1391.31482 1458.54431 98.52905 378
1351.97571 1397.28003 7.11699 431
1336.25415 1379.59253 39.15341 442
1336.48315 1380.45728 69.71304 490
1388.53748 1437.91882 98.60569 379
1362.60156 1392.22839 6.90124 433
1347.08838 1375.16150 38.79541 438
1347.23315 1375.65552 69.66998 487
1386.06470 1417.36829 98.96200 380
1374.03809 1387.37878 6.86436 432
1358.53015 1370.49902 39.00198 437
1358.56653 1370.60840 69.14445 483
1383.61353 1397.66968 99.39244 381
1386.26355 1383.26794 6.40015 425
1369.49097 1365.64832 38.59544 436
1369.61609 1365.99011 69.24600 483
1384.20410 1381.57361 99.46558 484
1397.58252 1378.66602 5.83747 424
1381.38184 1360.99817 38.48026 436
1380.82935 1360.67761 68.87831 481
1391.87415 1372.26721 99.55143 485
1410.23926 1374.52466 5.61232 420
1393.05688 1357.17468 38.23005 434
1392.18359 1356.33569 68.99183 476
1398.30078 1362.44775 99.77061 484
1422.91089 1370.99878 5.32416 410
1405.81238 1353.11206 37.66640 433
1404.35645 1352.05688 68.98845 475
1410.25452 1357.79749 99.66113 474
1436.79236 1368.53809 4.89786 407
1418.18579 1350.15295 37.38754 422
1416.43506 1348.28650 68.73729 468
1422.39258 1354.23401 99.57895 470
1450.55652 1365.60437 4.19494 405
1431.62109 1346.77979 36.93773 423
1429.06775 1344.31799 68.54103 467
1434.98779 1349.92773 99.34795 463
1464.49426 1363.24878 3.54743 409
1445.85754 1344.63000 36.73049 415
1442.76062 1341.55371 68.14134 453
1449.57275 1347.95300 99.29234 448
1478.57239 1360.20044 3.25745 409
1460.32703 1342.34241 36.27633 412
1457.14722 1339.24756 67.69199 445
1464.02075 1346.11011 99.06303 447
1493.31958 1357.99707 2.58833 414
1475.30042 1340.28662 35.63049 412
1472.03833 1337.37756 67.39866 444
1479.11731 1343.89209 98.77926 446
1508.79126 1355.66516 1.75813 413
1490.48486 1338.29675 35.36950 414
1487.46204 1335.28601 67.09151 443
1493.86938 1341.72888 98.54441 445
1523.84814 1353.74109 1.37009 413
1506.17810 1336.66772 34.75017 413
1502.62036 1333.71057 66.98800 442
1508.15454 1339.08948 98.87872 444
1539.45996 1351.67432 0.61942 419
1521.63538 1335.22034 34.67028 412
1518.06763 1331.96741 66.87989 441
1553.94580 1349.00183 0.16189 418
1537.55225 1333.43970 33.96931 412
1533.64392 1329.85925 66.28963 440
1569.15039 1346.13318 -0.78918 417
1553.53027 1331.32263 33.56192 417
1549.04224 1327.84998 66.01847 437
1584.33447 1342.81921 -0.97746 416
1568.95801 1329.37683 32.77825 417
1565.28955 1326.01794 65.84894 438
1599.41187 1339.95166 -1.54695 416
1584.57886 1327.00671 32.14127 416
1581.12585 1323.93958 65.13758 437
1614.99878 1337.02893 -2.40595 415
1600.53223 1324.86890 31.72248 415
1597.65869 1321.72253 64.93647 436
1631.06177 1334.65259 -3.26457 428
1616.95154 1322.46094 31.50143 414
1614.08081 1319.93774 64.31005 435
1647.70740 1332.19409 -4.02155 427
1633.71240 1320.29333 30.50920 422
1630.16650 1317.92676 64.12972 434
1663.86780 1329.91138 -4.68125 426
1650.31799 1318.32751 30.32460 421
1647.18799 1315.63684 64.09016 433
1681.15161 1327.63696 -5.53581 425
1667.71753 1316.42627 29.43300 420
1663.98730 1313.37146 63.21715 432
1697.76233 1324.81506 -5.75638 424
1685.39990 1314.75745 29.08915 419
1681.06616 1311.45020 63.08525 431
1715.33972 1322.48828 -6.69911 423
1703.10791 1312.98730 28.49278 418
1698.56970 1309.10876 62.84484 430
1732.80859 1319.85413 -7.30816 422
1720.59937 1310.54932 27.65552 417
1716.24182 1306.96570 61.98101 429
1738.71082 1308.50928 27.31662 416
1733.98242 1304.87537 61.94073 428
1757.43103 1306.68628 26.62755 417
1751.82397 1302.73694 61.36112 426
1775.50781 1304.74060 26.06450 415
1770.41541 1300.48560 60.85876 425
1794.53931 1302.53833 25.04729 415
1788.43140 1298.06323 60.63982 424
1812.77356 1299.77051 24.54393 415
1807.22192 1295.51245 59.95676 423
1830.16638 1295.99731 23.74941 415
1827.94031 1294.26257 59.48887 334
1852.53308 1296.09924 22.98784 413
22100.25391 10302.89551 -3488.92261 1000
34724.21875 9668.41211 4846.71973 1000
1263.24512 24.49302 -3.28011 373
1272.31213 24.80716 15.33750 300
1257.54126 17.50109 -2.42313 477
1260.71045 17.32133 16.40506 477
1265.07312 17.55212 35.54483 378
1272.59888 17.55381 54.45943 485
1255.92871 10.34298 -2.29376 498
1258.76514 10.07813 16.63258 498
1262.09888 10.36423 35.67687 498
1264.82288 10.36880 54.97264 326
1267.52930 10.26820 74.10823 476
1257.66467 3.15498 -2.55382 466
1260.70264 3.17107 16.54063 466
1263.85596 2.91723 35.78049 469
1266.61865 3.16360 54.76006 422
1270.13464 3.20584 74.03663 396
1263.66394 -4.20594 -3.12004 416
1268.84692 -4.15576 15.86720 350
2295.19824 -184.76279 22.77131 356
2289.22925 -184.04451 59.50615 378
2271.49878 -195.79973 23.84796 366
2266.08252 -195.48042 60.33024 380
2254.33545 -207.79315 24.70415 440
2251.98755 -207.56110 60.52560 487
2247.79053 -220.58607 25.24432 480
2245.52930 -220.17740 60.99747 483
2325.74292 -242.71729 -15.44698 372
2240.87354 -233.28613 25.73960 473
2240.54004 -233.11684 60.98207 455
2311.03345 -254.78676 -14.53290 398
2235.43774 -245.93338 25.75044 483
2236.70312 -246.20215 60.78566 467
2391.31250 -263.92935 93.98557 479
2298.83960 -267.11096 -14.36164 413
2229.52124 -258.54111 25.62434 487
2232.13354 -258.90475 60.93357 469
2329.31543 -270.71518 94.54407 452
2289.97266 -279.60306 -13.52765 423
2223.99487 -271.12915 26.07808 487
2228.04224 -272.02802 61.04748 470
2281.17969 -292.41711 -13.40443 428
2219.08228 -284.10394 26.45912 488
2224.30347 -284.87570 61.17102 432
2273.01636 -304.92337 -12.73106 432
2213.06592 -296.65845 26.48291 488
2220.81396 -297.59079 61.32359 437
67623.19531 -9442.74023 4585.94971 1000
2265.75708 -317.44095 -12.41639 436
2208.59985 -309.04376 26.80967 492
2217.70630 -310.60452 61.11971 442
2258.92065 -330.22430 -12.24141 419
2203.43872 -321.69559 26.54104 492
2214.56958 -323.04205 61.52914 408
2244.76245 -341.24637 -11.48291 265
2200.04150 -334.20755 26.94797 495
2211.65234 -335.96857 61.28267 408
2222.03589 -351.48969 -9.92375 294
2195.39893 -346.79099 26.84674 495
2208.72070 -348.75839 61.75336 415
2209.41797 -362.67300 -9.34021 294
2194.47534 -359.72247 26.70351 495
2205.73901 -361.83618 61.48780 415
2202.15039 -374.52283 -8.75296 365
2189.64282 -372.24884 27.05931 497
2203.40259 -374.90829 61.75281 419
2195.56738 -386.59131 -8.26555 365
2186.00171 -385.20349 27.00552 497
2201.52686 -387.97171 61.37634 364
2188.87769 -399.06128 -8.37984 370
2181.95068 -397.87564 27.46686 497
2199.82446 -401.26346 61.69207 364
2182.81641 -410.84384 -8.00322 426
2175.62842 -409.91776 27.54164 498
2198.55518 -414.20984 61.36921 364
2177.91724 -423.24887 -7.83591 430
2171.36597 -422.13907 27.29918 498
2197.00000 -427.39255 61.41539 364
2273.70459 -442.86609 95.20959 305
2299.97168 -448.38614 168.75862 346
2173.53882 -435.83823 -7.74452 430
2170.33618 -435.16971 27.48213 498
2211.75635 -443.57437 60.79332 262
2315.47314 -465.43796 132.05692 345
2270.19629 -456.19617 168.31178 347
2293.53906 -460.78723 205.69009 347
2168.47119 -447.93600 -7.26288 431
2163.59253 -446.84402 27.67523 498
2209.10449 -456.85388 61.17128 497
2285.16016 -473.26297 131.64839 346
2241.10596 -463.60825 167.95352 348
2263.71021 -468.47787 204.97675 306
2164.41260 -460.49509 -7.36362 432
2159.88599 -459.88217 27.81760 498
2204.30103 -469.62128 61.25863 497
2300.41675 -490.83743 94.79930 345
2255.92529 -480.75345 132.13339 348
2212.05859 -471.44681 167.58687 349
2231.70703 -475.43442 203.71057 306
2160.73584 -473.07126 -7.37820 472
2157.16797 -472.49466 27.72553 498
2200.14990 -482.15045 60.86453 498
2270.65015 -498.26672 95.43051 347
2209.03516 -484.27390 132.11157 484
2188.58813 -479.59521 167.15416 497
2200.83472 -482.30524 203.02049 422
2157.13257 -486.07227 -7.06650 472
2154.28320 -484.78116 27.95926 498
2195.80029 -494.86761 60.86562 498
2241.27026 -505.28165 95.48034 348
2198.01245 -495.34796 131.99001 350
2187.22974 -492.48264 166.95897 275
2199.16357 -495.66910 202.58084 418
2154.52832 -498.19550 -7.20665 472
2151.75781 -497.75497 27.52619 498
2191.23584 -507.55121 60.95963 498
2212.45972 -512.71796 95.97225 349
2186.06665 -505.83798 131.99516 498
2185.86304 -505.72318 166.87242 496
2199.09595 -508.94458 202.78596 421
2151.45703 -511.15695 -7.61436 472
2149.42847 -510.34576 27.39575 498
2186.41870 -519.74316 61.36578 498
2185.98315 -519.70813 96.47337 496
2185.68799 -519.89148 131.62749 496
2184.26929 -519.24084 167.35268 496
2197.77930 -522.66956 202.98280 421
2148.70703 -523.90326 -7.28286 472
2146.82837 -523.69446 27.84090 498
2184.66333 -533.07489 61.00732 496
2183.52124 -533.06073 96.40472 496
2184.55835 -533.34326 131.64944 496
2183.32031 -532.87598 167.27907 495
2197.11255 -536.44141 202.82246 421
2145.88623 -536.59558 -7.57726 472
2144.54639 -536.38025 27.33574 498
2184.12866 -546.29956 61.27318 495
2182.72656 -546.52039 96.68900 495
2183.78052 -546.73462 132.18015 496
2182.26562 -546.37537 167.24644 495
2195.79614 -549.45386 203.20380 421
2143.28467 -549.43036 -7.22155 472
2142.00586 -549.31146 27.53395 498
2182.56421 -560.27118 61.00465 495
2181.67310 -559.68427 96.55692 495
2182.32422 -559.66534 131.85658 495
2181.23047 -559.32330 167.21771 495
2194.62891 -563.10065 203.22430 421
2141.01465 -562.71777 -7.55370 471
2139.52075 -561.82526 27.22351 497
2181.94702 -573.78143 61.08163 495
2180.39844 -573.07611 96.19924 494
2181.14551 -573.35992 132.19806 495
2180.39893 -573.24164 167.68536 495
2193.86084 -576.48407 203.14825 420
2139.27002 -575.42316 -7.62244 471
2137.81250 -575.14673 27.70506 497
2180.44775 -587.01135 60.90071 495
2180.01953 -586.99225 96.68343 495
2180.18896 -586.73541 132.22270 495
2180.05078 -586.74731 167.72594 495
2191.81763 -590.41791 203.28677 421
2137.07983 -588.57513 -7.79208 470
2135.89282 -588.18250 27.46446 496
2173.25073 -598.91339 61.23761 494
2172.88770 -598.44617 96.41653 494
2172.85913 -598.80212 132.21909 495
2172.78101 -598.84149 167.28262 495
2191.13623 -603.94836 203.67120 420
2135.25000 -601.62054 -7.72963 469
2134.21094 -601.10175 27.09104 495
2172.09229 -612.66870 61.00473 494
2172.35254 -612.31427 96.38799 495
2172.86670 -612.48755 132.20523 494
2171.42578 -612.01611 167.26642 495
2190.05664 -617.30548 203.51639 420
2133.98438 -614.70306 -7.90406 469
2132.77246 -614.16669 27.29834 495
2170.98828 -625.72174 60.54929 494
2170.87476 -625.72449 96.09106 493
2172.02441 -626.28406 131.67209 494
2170.42529 -625.59454 167.78786 493
2188.62061 -631.47565 203.77422 420
2132.38257 -628.24194 -8.34251 469
2130.99829 -627.52002 27.30134 494
2170.08105 -639.32581 60.94114 493
2169.84424 -639.74408 96.30508 493
2170.70923 -639.53149 132.01140 494
2169.20923 -639.24017 167.75110 493
2187.86548 -645.01477 203.97153 420
2130.92529 -641.44434 -8.30100 468
2129.69165 -640.77948 27.21352 494
2168.76147 -653.33405 60.45690 493
2168.70337 -653.42261 96.44233 492
2169.82886 -653.66345 132.04668 493
2168.06470 -653.25629 167.56793 493
2186.31836 -658.53717 204.12642 419
2129.44336 -654.67987 -8.14242 466
2128.31226 -654.05792 26.49944 492
2168.09497 -666.65033 60.66923 493
2167.69141 -666.82111 95.97011 492
2168.32593 -666.88239 131.90987 493
2167.56641 -666.84827 167.89915 491
2185.70361 -672.65125 204.33444 419
2128.66748 -668.42261 -8.39054 466
2127.04297 -667.53546 26.58569 492
2166.73682 -680.78180 60.59606 492
2166.78638 -681.04669 96.36742 492
2167.04614 -680.87067 132.12019 493
2166.75610 -680.88641 167.53690 493
2184.30566 -686.53033 204.16801 419
2337.01172 -736.56287 248.30972 308
2127.92114 -681.68573 -9.01185 466
2126.15625 -680.97650 26.32469 491
2165.27271 -694.32208 60.07050 492
2170.92944 -695.90607 95.76681 494
2170.08350 -696.24957 132.11302 495
2170.41797 -695.75244 168.07906 494
2183.29346 -700.61060 204.45834 378
2304.35571 -740.57422 246.95949 354
2126.60547 -695.53827 -9.13536 465
2124.78442 -694.68195 26.40289 491
2164.65576 -708.39740 59.96681 492
2169.40845 -709.70355 96.03979 491
2170.38647 -709.94208 131.84425 492
2168.84448 -709.88159 167.85078 491
2182.45630 -714.21869 204.24512 418
2125.68506 -708.85150 -9.50663 465
2123.39575 -708.07086 26.05935 491
2163.24780 -722.05664 60.23384 491
2168.66309 -724.16431 95.69359 491
2169.46582 -724.17664 132.16400 491
2168.00488 -723.80359 167.89156 491
2181.25708 -728.13043 204.73804 418
2125.14502 -722.66095 -9.30764 465
2122.60498 -722.20856 26.23349 490
2162.21631 -736.19495 60.19673 491
2167.10352 -738.12897 95.92060 490
2167.51367 -738.04572 132.13013 438
2166.93750 -737.78943 168.14180 491
2179.96240 -742.06628 204.83902 418
2295.78271 -783.37146 247.31842 287
2285.29834 -779.40881 284.78241 333
2123.92041 -736.55542 -10.09789 464
2121.42065 -735.89990 26.02515 490
2161.10156 -749.98474 59.72544 490
2166.09912 -751.59479 95.93464 490
2166.93140 -751.97064 132.14723 491
2165.62549 -751.77130 168.27519 490
2179.35229 -756.72064 204.74536 417
2268.20483 -788.77942 245.87485 487
2268.41333 -788.84729 283.61844 460
2122.84985 -750.42908 -9.96966 464
2120.33740 -749.28839 25.43558 489
2159.90381 -763.75323 59.62274 490
2165.36865 -765.62573 95.79581 489
2166.10229 -765.99384 132.31242 490
2164.76904 -765.50195 168.16113 490
2178.02075 -770.62372 204.94191 417
2248.95923 -796.61487 245.01302 457
2262.35449 -801.83185 283.63361 475
2121.69092 -764.20697 -10.23271 463
2119.03662 -762.77271 25.35861 489
2165.07080 -780.35742 59.53618 490
2163.88062 -779.86334 95.70956 487
2163.87476 -779.88062 131.72974 318
2163.45898 -779.97443 168.45113 488
2175.84937 -784.13928 204.98695 406
2266.25244 -818.53894 246.03372 486
2264.41919 -817.79669 284.35675 426
2120.76733 -777.76794 -10.30030 463
2118.07788 -776.62225 25.52085 489
2163.99951 -794.66736 59.39782 489
2163.35791 -794.38928 95.98138 489
2163.27539 -794.43573 132.31422 489
2163.14258 -794.35388 168.53210 489
2174.58276 -798.62543 204.96970 417
2174.20874 -798.59106 241.48538 499
2174.13623 -798.12683 278.05173 499
2120.00635 -791.95532 -11.10929 463
2116.84521 -790.46320 25.19483 488
2162.57227 -808.79303 59.13485 489
2162.27051 -808.50226 95.54572 489
2162.43091 -808.32410 132.29881 489
2161.75977 -808.07953 168.51312 489
2174.56274 -813.46436 205.36676 416
2245.83594 -841.16266 245.49440 318
2119.08960 -805.76544 -11.35247 462
2115.58179 -804.54761 24.70764 488
2403.28687 -919.30774 50.57348 488
2238.87964 -853.68683 245.61797 493
2285.10571 -872.16089 286.91525 456
2118.33203 -819.93872 -11.26264 462
2114.50024 -818.86481 24.72792 487
2237.77515 -868.62854 246.10301 467
2289.77222 -889.51276 287.74261 471
2280.46851 -885.98682 326.01303 493
2117.06177 -834.51038 -11.90181 462
2113.18701 -832.66748 24.77751 487
2291.30396 -905.68781 249.08563 426
2282.79199 -902.62335 287.23727 466
2116.05688 -848.46460 -11.71935 461
2111.95386 -846.40424 24.20911 486
2266.32324 -910.99103 248.22984 363
2115.07861 -862.66858 -12.33501 424
2110.67188 -860.99371 24.34343 486
2240.93677 -916.23450 246.62018 356
2114.62402 -877.00519 -12.55904 423
2109.42896 -874.96216 23.92109 485
2113.55835 -891.39154 -13.15628 423
2108.57202 -889.14532 23.44938 485
2112.98682 -905.92944 -13.37501 422
2107.41772 -903.36688 23.21186 484
2412.93579 -1040.70154 48.87418 311
2112.17114 -920.71600 -13.43655 422
2105.84180 -918.13824 23.18284 484
2392.87549 -1048.82727 49.37884 484
2111.27637 -935.10724 -13.72144 426
2104.50244 -932.39301 23.08956 483
2362.49194 -1051.87683 50.27136 336
2110.39893 -949.75366 -14.42730 426
2107.05762 -948.72925 22.36898 483
2292.81226 -1036.00403 52.12990 335
2398.34668 -1085.05847 90.23453 488
2109.84229 -965.11249 -14.55939 425
2103.80566 -961.82123 22.27664 483
2256.09497 -1035.21631 53.30629 294
2108.71021 -979.87531 -14.74566 425
2102.07153 -976.87494 22.21442 482
2235.74390 -1041.07581 54.30531 340
2107.80859 -994.81787 -15.37576 424
2104.06885 -992.92505 21.96401 481
2195.88354 -1037.80164 55.56732 342
2106.97998 -1009.38739 -15.56385 424
2102.91284 -1007.13782 21.24514 481
2157.67529 -1034.99963 56.66847 343
2106.36597 -1025.08606 -16.29516 423
2101.17749 -1022.19012 21.45248 480
2136.34985 -1040.30579 56.67365 317
2105.65259 -1039.84204 -16.77293 369
2098.22754 -1036.08435 21.23345 495
2146.69849 -1061.50769 56.45592 264
2134.48193 -1054.98535 94.33732 446
2105.23022 -1055.54761 -16.82554 368
2096.74219 -1051.20117 20.66262 479
2141.52734 -1074.34229 56.00405 265
2134.51758 -1071.12256 94.39723 417
2104.40552 -1071.33777 -17.43057 368
2096.11475 -1066.75989 20.47693 389
2130.41333 -1084.79883 56.72573 479
2132.14868 -1085.90332 94.48210 470
2096.74048 -1082.68433 20.35324 478
2130.52344 -1100.73132 55.95845 265
2130.63379 -1100.90613 93.94349 469
5225.92676 -2771.09644 997.75055 1000
2095.60181 -1097.95288 19.54275 477
2125.48193 -1114.54907 55.94696 265
2129.46777 -1116.63843 93.96666 468
2093.42383 -1112.99792 19.83490 497
2120.85669 -1128.15845 56.25644 310
2128.41699 -1132.37573 94.32341 468
2090.26318 -1127.29468 19.53141 476
2118.57959 -1143.30554 55.62601 309
2126.97632 -1147.73486 93.75365 462
2369.69409 -1284.50464 132.38426 488
2089.31055 -1142.60889 18.77092 476
2126.69507 -1164.65979 55.56299 469
2182.32471 -1196.07800 92.60155 498
2093.39941 -1161.94165 18.31732 450
2174.87305 -1209.17065 53.27765 498
2176.21899 -1209.96057 92.51800 498
2329.82495 -1298.65161 174.39874 458
2184.13062 -1231.63660 12.70458 391
2168.64160 -1222.71521 53.22515 498
2170.12964 -1223.71362 92.76289 498
2167.67407 -1238.93591 52.71917 443
2169.35107 -1240.37915 92.23449 449
16533.85352 -9807.67676 758.44348 1000
2170.39478 -1257.97986 52.67598 443
2171.70093 -1258.90503 92.24701 442
2129.69727 -1267.93811 132.34663 465
53893.50781 -43414.87109 -998.93408 1000
37144.40234 -33853.33984 6740.67627 1000
4539.64209 -4116.15283 330.81512 1000
10033.45312 -13179.39453 -2871.66577 1000
4511.31934 -6857.50000 1755.56006 1000
862.26044 -1533.80945 19.87052 452
865.69855 -1541.06311 47.85972 322
851.01904 -1535.36267 20.24086 499
852.29095 -1537.00256 48.49558 472
853.06989 -1539.11816 76.30262 499
843.62848 -1543.76038 20.08488 396
91.04045 -11.23651 131.54825 1000
27539.20898 -62591.20312 1272.40735 1000
20689.73438 -54037.63281 2045.96228 1000
948.25311 -11358.49414 -2517.89771 1000
58.12660 -1797.57312 15.13434 257
49.81229 -1670.99341 23.45551 270
39.92280 -1656.74170 24.34428 494
32.97365 -1896.58130 40.02594 455
29.83737 -1656.16577 24.35508 489
29.42777 -1664.60571 51.01802 492
19.63999 -1656.14490 24.58966 489
19.82087 -1654.23975 51.54822 393
9.40227 -1652.23669 24.88226 492
9.59624 -1650.07776 52.05433 495
-0.62494 -1655.50879 24.63256 471
-0.16560 -1649.84509 52.14398 490
-13.28862 -1897.28284 71.09341 490
-11.08537 -1655.52319 24.26547 484
-10.69186 -1649.61340 52.05883 490
-10.84441 -1652.71887 78.76580 384
-21.21456 -1655.64978 24.44380 484
-20.88459 -1649.25708 51.67961 490
-20.59214 -1650.65186 78.83340 494
-31.13566 -1655.34705 24.53483 484
-30.76110 -1649.30835 51.90968 490
-30.96873 -1650.82129 79.06988 493
-41.36462 -1655.50623 24.04883 484
-40.85177 -1649.33325 51.94333 489
-41.20002 -1650.70361 78.71603 493
-51.67488 -1655.26392 24.18362 484
-50.97373 -1644.87817 52.07401 499
-51.40636 -1650.45911 78.64659 493
-61.65490 -1655.39124 24.35218 484
-61.33014 -1646.83618 52.09578 343
-61.16370 -1650.20312 79.04070 493
-72.13687 -1655.09412 24.25743 484
-71.31076 -1646.63965 51.72902 343
-71.41923 -1650.05261 78.61524 493
-82.17375 -1655.22070 24.17125 484
-81.23888 -1646.41064 51.84352 343
-81.91148 -1649.96472 78.80532 493
-92.34653 -1655.00781 24.12225 483
-91.41422 -1646.52441 51.72339 343
-91.80124 -1649.86023 78.84395 493
-102.67258 -1654.62158 23.90021 483
-101.61747 -1646.40271 51.60098 343
-102.17725 -1649.72009 78.71795 492
-113.13486 -1654.77515 23.66507 483
-112.00820 -1646.64417 51.43801 342
-112.27797 -1649.35144 78.92182 492
-123.39017 -1654.32776 23.81619 483
-122.12303 -1646.30945 51.65438 485
-122.87714 -1649.33057 78.68233 492
-133.78998 -1654.48254 23.88590 483
-132.40076 -1646.20996 51.64662 485
-132.76939 -1649.46521 78.72442 490
-143.89778 -1654.51184 23.61944 462
-142.94142 -1645.93188 51.30366 485
-143.19058 -1649.00928 78.63956 490
-154.46092 -1654.71057 23.30594 462
-152.85600 -1645.81665 51.49149 484
-153.54250 -1649.10962 78.66177 490
-164.69330 -1655.26013 23.46869 462
-163.24533 -1645.85034 51.14162 484
-163.64717 -1648.79712 78.37012 490
-175.13692 -1655.67358 23.05433 461
-173.52107 -1645.57361 51.28758 484
-173.89565 -1648.61047 78.56289 489
-185.75139 -1655.67700 22.94181 461
-184.02515 -1645.36877 51.20245 484
-184.65434 -1648.48364 78.24724 489
-196.14313 -1656.10205 22.77972 461
-194.58096 -1645.51562 51.07446 483
-194.83824 -1648.22791 78.23557 489
-206.68259 -1656.43567 22.75759 461
-204.88966 -1645.24365 51.08439 483
-205.27663 -1647.94128 78.39584 489
-217.11075 -1656.86865 22.90143 460
-214.94005 -1644.90015 50.76656 482
-215.40797 -1647.86841 78.25922 489
-227.67255 -1657.19238 22.46054 460
-225.29373 -1645.06799 50.81733 482
-225.97249 -1647.80420 78.43407 488
-238.39377 -1657.29846 22.34619 460
-235.79063 -1644.81030 50.85860 482
-236.35910 -1647.81360 77.92869 488
-248.93518 -1657.86047 22.09825 460
-246.14793 -1644.68579 50.77887 482
-246.86736 -1647.44678 78.18806 488
-259.52359 -1658.43750 21.95952 459
-256.68015 -1644.65918 50.64984 481
-257.60269 -1647.46143 77.90121 487
-270.41098 -1658.61182 22.16188 459
-267.39487 -1644.58923 50.51886 481
-267.84085 -1647.36536 77.79753 485
-280.91812 -1658.89392 21.51632 459
-277.78284 -1644.62000 50.18390 461
-278.22723 -1646.77600 78.06511 494
-335.90582 -1905.68286 101.26451 494
-291.69531 -1659.03589 21.68620 459
-288.58173 -1644.29211 50.09694 461
-288.98291 -1646.57715 77.64690 494
-348.12656 -1906.05835 101.40614 494
-302.62067 -1659.23132 21.26302 445
-299.30688 -1644.38489 49.92221 461
-299.68460 -1646.54053 77.74323 493
-360.72430 -1905.34521 101.05805 494
-313.32703 -1659.73291 21.28719 445
-309.80804 -1644.42578 50.17558 460
-310.24649 -1646.33691 77.68642 493
-372.85471 -1905.60388 101.17953 494
-324.31729 -1660.02246 20.84406 445
-320.27246 -1644.34924 50.13863 460
-320.83380 -1646.00183 77.42042 493
-385.29462 -1905.29517 101.05115 493
-335.49603 -1660.83972 20.94543 444
-330.86606 -1644.11060 49.97049 460
-331.41055 -1645.84155 77.43277 492
-333.31277 -1653.04663 105.09958 491
-346.12833 -1661.02844 20.68839 444
-341.77835 -1644.02771 49.45387 459
-342.27417 -1645.79700 77.35827 492
-344.04623 -1653.14941 105.03493 491
-355.57306 -1655.60938 21.13071 440
-352.67450 -1643.97510 49.32953 459
-353.07111 -1645.43689 77.41815 491
-354.80823 -1653.16846 105.00826 491
-368.30548 -1661.81604 20.24998 449
-363.19406 -1643.94617 49.36168 459
-363.92899 -1645.48645 77.31173 491
-365.89203 -1652.74243 105.16507 490
-379.60233 -1662.36304 19.89851 433
-374.36188 -1644.02466 49.38186 445
-374.49646 -1645.23718 77.20097 491
-376.60919 -1653.04907 105.30000 490
-390.63013 -1663.30542 19.86751 432
-385.06332 -1644.67493 48.94567 444
-385.62500 -1645.41772 77.16573 487
-387.60095 -1653.03259 105.25735 489
-402.05319 -1664.21484 19.46743 426
-396.66583 -1645.40369 49.08276 441
-396.44223 -1646.18506 77.03593 478
-398.77759 -1653.69629 104.79127 476
-413.62750 -1665.57117 19.39394 419
-407.94055 -1646.21252 48.65093 441
-408.28149 -1647.64307 77.01559 476
-410.48340 -1655.67419 104.92799 472
-425.50677 -1668.08472 18.76438 415
-419.49371 -1647.86853 48.55249 435
-419.80463 -1649.57593 76.77319 467
-422.46808 -1657.67822 104.85892 471
-437.80878 -1670.90039 18.36394 411
-430.83752 -1650.14832 48.28242 434
-431.79535 -1652.10693 76.46545 467
-434.89789 -1662.66504 104.72583 351
-450.03717 -1674.53442 17.98254 410
-442.95023 -1652.66492 47.64727 429
-443.83435 -1654.64612 76.44522 459
-451.36282 -1678.12134 104.30789 472
-462.20200 -1677.93408 17.18435 409
-455.25146 -1655.13269 47.61475 422
-455.69720 -1657.66394 75.80082 454
-475.16394 -1682.11011 16.73170 408
-467.61752 -1658.87622 47.25258 417
-468.25800 -1661.54065 75.88370 454
-488.31866 -1686.61194 16.30863 398
-479.79520 -1662.50879 46.81968 416
-480.97739 -1664.59839 75.80357 453
-501.45676 -1691.37183 15.95838 397
-492.50983 -1666.19092 46.58329 413
-493.76550 -1668.69031 75.38901 446
-514.80341 -1696.32043 15.24156 399
-505.68460 -1670.66492 45.83363 407
-506.71756 -1672.87122 75.27999 446
-528.46906 -1701.62769 14.80499 393
-519.38873 -1675.81665 45.71935 406
-519.64276 -1677.81873 75.02153 436
-542.42468 -1707.26855 14.00438 395
-532.86102 -1680.75500 44.92077 402
-533.35199 -1682.94043 74.68380 437
-557.18671 -1713.97205 13.25043 388
-546.43213 -1686.54480 44.47591 401
-547.33167 -1688.87952 74.17786 419
-571.78406 -1720.95837 12.63693 387
-560.81604 -1693.34485 44.26983 392
-562.10730 -1695.44653 73.97906 420
-587.05054 -1728.89844 11.38244 382
-575.89362 -1700.63440 43.44543 386
-577.18549 -1703.68250 73.22564 407
-590.72308 -1708.63782 42.92751 385
-591.87860 -1710.88452 73.11856 406
-606.18884 -1716.80603 42.22612 384
-607.34711 -1718.57117 72.66920 405
-621.85223 -1724.98889 41.37869 383
-622.96411 -1727.27966 71.90887 392
-637.93958 -1733.21741 40.96946 382
-638.75116 -1735.67590 71.71587 391
-654.31659 -1741.97900 40.39263 382
-655.47498 -1745.44421 71.26676 379
-670.90057 -1750.93164 39.24915 384
-672.78748 -1755.91748 70.54303 371
-687.73901 -1760.48523 38.55903 366
-690.49805 -1767.05542 70.04699 370
-13049.06836 -25456.01562 -790.98328 1000
-15537.71680 -25837.42188 -2328.83936 1000
-17060.38086 -21522.66797 -305.98215 1000
-2316.80347 -2732.08105 74.49816 498
-2317.33960 -2733.13330 134.29189 478
-2319.70605 -2735.96509 193.49791 375
-15012.50684 -13578.34375 804.51318 1000
-14988.06836 -13556.36523 1468.64441 1000
-4779.66992 -2064.52979 133.74759 493
-9214.90723 -2657.81030 1569.15857 1000
-277.32877 -73.57090 38.23763 318
-275.23752 -70.81361 38.93356 321
-273.83136 -68.21822 39.38246 345
-275.58591 -66.26311 38.96856 345
-293.11154 -69.49630 41.33146 318
-277.51431 -64.29688 38.62614 347
-293.67688 -67.07873 41.30470 341
-43632.91797 -7682.90967 135.69753 1000
-280.22055 -62.42207 38.01579 324
-296.31985 -65.09011 40.73268 315
-32378.47656 -3066.49097 1735.90967 1000
-19126.73047 -630.00604 447.94150 457
-19070.01367 -511.64282 447.62546 463
-19035.39062 -511.32736 758.80249 434
-19019.59766 -389.67868 447.52197 464
-18968.62109 -272.85349 446.70816 464
-18922.97070 -155.66074 444.09927 465
-18869.96289 -38.05458 440.96240 465
