# .PCD v.7 - Point Cloud Data file format
VERSION .7
FIELDS x y z rgb
SIZE 4 4 4 4
TYPE F F F U
COUNT 1 1 1 1
WIDTH 700
HEIGHT 1
VIEWPOINT 4162.433105 -4099.759766 130.001862 -0.000553 -0.136201 -0.008641 0.990643
POINTS 700
DATA ascii
-7945.02100 1022.16486 2039.30640 1000
-276.63782 58.19446 33.24892 319
-270.28580 59.41961 34.84670 320
-284.70499 61.80546 37.53318 323
-265.41986 60.91606 36.05085 350
-280.02890 63.37944 38.61370 346
-296.21661 66.15887 41.36134 341
-263.57468 62.80771 36.45431 350
-278.06430 65.30999 38.99379 344
-294.27249 68.20906 41.72544 340
-261.66299 64.66414 36.90533 351
-276.21237 67.39216 39.37482 345
-295.90015 70.97380 41.16526 318
-259.76770 66.47873 37.22816 351
-276.02930 69.59515 39.28875 321
-257.94727 68.44901 37.63372 349
-277.92310 72.28629 38.77682 318
-259.74368 70.95052 37.02015 321
-261.74332 73.62238 36.36132 321
-263.71310 76.32487 35.70971 320
-25947.26172 5788.15283 1063.96216 1000
-50060.55078 24726.44336 -8985.00195 1000
-30015.52539 15305.12891 4646.00684 1000
-29867.74219 15229.99609 5748.57129 1000
-6563.67871 4366.14941 -375.13718 1000
-27574.77930 21225.39648 4204.18311 1000
-13583.30566 11173.68750 3375.34473 1000
-28852.18555 26117.16016 -3001.64429 1000
-32699.97852 30330.79492 1664.92810 1000
-9201.27930 14403.77246 -1819.73999 1000
-10200.47949 20959.64258 -5288.62207 1000
-16727.69336 41046.49219 -8652.24414 1000
-263.29257 1932.73767 36.60207 486
-263.66650 1937.14539 68.54623 486
-264.74951 1942.53418 100.79878 445
-251.23659 1935.58545 36.41977 486
-252.12962 1939.62415 68.72923 486
-252.66928 1943.77747 100.92344 481
-253.38043 1948.01111 132.80634 396
1186.50732 15355.40039 637.45917 473
1290.47046 15423.06641 389.02542 469
1278.79871 15317.90527 638.11163 473
1382.52637 15379.95410 387.87784 472
1370.95068 15280.21973 635.80255 477
1472.11096 15350.43848 385.23480 476
1463.59949 15245.52930 634.54388 477
1565.49207 15315.38184 388.71298 476
1556.15625 15216.32520 635.14075 478
236.80655 1443.42969 37.33947 439
237.28183 1448.06567 60.79394 441
1653.82544 15284.27734 387.46790 477
1644.21509 15183.46191 634.04462 478
245.02078 1439.77661 37.57017 498
245.37732 1443.28076 61.30176 498
246.11366 1446.73914 84.77959 498
246.25275 1449.84631 108.70274 479
1745.52100 15251.52441 385.60699 477
1736.26855 15152.71191 635.05823 478
254.15385 1440.82800 37.39141 460
254.68878 1444.36230 61.08387 459
255.05531 1448.95190 84.85618 413
255.35802 1452.35266 108.39916 415
1839.70203 15219.36035 384.81622 477
1825.55383 15121.95508 634.01465 479
264.37933 1451.26904 36.64089 340
1931.34253 15189.92969 383.45010 478
1916.00537 15087.67871 633.87708 479
2020.15808 15158.03223 383.14929 478
2007.26160 15057.53320 629.77069 479
2110.88477 15127.26953 386.48996 478
2094.85498 15025.06250 631.44025 487
2870.62988 20798.38672 5391.76270 1000
2199.38940 15095.62988 385.85889 478
2185.56128 14993.82422 632.23944 488
2289.57617 15063.07422 382.88123 479
2273.85889 14964.64648 627.95679 488
2378.85352 15030.31348 385.21588 479
2366.84644 14932.58301 627.16913 488
2026.79651 12707.91211 2691.01172 1000
2470.29736 15000.56738 381.49472 479
2456.08618 14900.24609 629.41681 488
2556.40308 14966.67676 383.56140 480
2543.24927 14870.21289 626.69263 489
2649.29834 14934.73047 381.37943 480
2631.04712 14842.82129 625.33215 489
2737.63477 14903.97852 383.06775 480
2718.97705 14809.22852 624.50757 489
2823.60669 14875.76562 382.78717 480
2808.49390 14780.22168 627.11633 489
2915.79150 14843.99707 382.56390 480
2896.37256 14750.95410 624.62646 490
3001.29028 14812.73633 379.81140 481
2985.03613 14719.71484 624.45197 490
4719.36133 22810.71094 -3708.09082 1000
3088.25562 14780.43945 381.90045 481
3072.52612 14688.46191 622.98120 490
3178.33960 14749.82715 378.18042 481
3160.25195 14657.24316 623.00647 490
3266.19775 14717.02734 380.08032 481
3248.19678 14627.03613 623.84973 490
3352.48975 14689.82129 379.33014 481
3332.97681 14597.63574 621.17383 491
3441.63940 14657.48730 379.58368 482
3419.30786 14565.82031 623.89209 491
3529.51245 14626.73047 380.97119 482
3509.22900 14537.61719 622.17322 494
3616.08643 14595.43945 377.15054 482
3596.81714 14506.27051 620.82349 494
3704.25342 14563.35547 380.08435 482
3680.36255 14476.22656 623.49628 494
3792.88306 14532.38477 379.95483 482
3769.26636 14448.34082 623.47089 494
3877.27417 14501.43457 376.97849 482
3855.51978 14415.72852 619.66962 495
11721.98047 43445.10156 -10351.36230 1000
3966.89575 14472.82910 378.26709 482
3940.07153 14387.00684 622.10840 495
4053.71826 14443.22168 379.88522 482
4026.89526 14354.51953 620.28564 495
4138.04248 14412.67773 376.71982 483
4116.14990 14326.49219 621.61481 495
4226.95361 14378.64258 375.77228 483
4202.78418 14295.39062 620.09161 495
4313.45117 14350.22949 376.56393 483
4289.22949 14268.24707 620.78540 495
4396.96777 14317.63184 377.10004 483
4374.01416 14235.16504 618.28088 495
4582.05127 14931.56738 899.62488 494
4595.46191 14963.89844 1159.26990 413
4484.31592 14288.81836 379.62369 483
4461.11328 14204.81250 620.61420 495
4671.48926 14887.48730 896.08893 494
4680.34912 14917.76172 1154.95020 413
4572.95215 14257.43945 379.22839 483
4548.36523 14175.15625 618.76019 495
4755.41211 14839.98535 898.47577 494
4765.20068 14868.74316 1156.53394 413
4658.16113 14228.36328 376.34216 483
4632.04785 14146.77539 619.46967 495
4838.80566 14791.44727 895.83362 495
4849.01660 14823.89062 1152.85339 414
4744.95117 14197.01270 375.43762 483
4719.65576 14118.51562 618.56097 495
4926.94043 14743.17480 894.85034 495
4936.70898 14776.25977 1150.02869 414
4832.24463 14166.10254 378.36478 483
4806.87256 14087.03613 619.01440 495
5011.12646 14697.44629 895.23108 495
5021.37354 14728.10156 1152.75952 414
4917.98193 14137.26758 378.52139 483
4891.89600 14058.43359 618.33032 495
5094.50244 14649.44824 893.67297 495
5102.74121 14680.29688 1147.60315 414
5002.78271 14106.69238 376.63174 483
4978.66016 14028.64941 619.09070 495
5177.98535 14605.41797 892.71912 496
5188.28564 14634.89062 1149.37061 414
5092.09473 14073.23535 377.38885 483
5062.48096 13997.69531 617.50562 495
5262.20215 14558.40430 893.83844 496
5271.56787 14587.50098 1148.80042 414
5175.55469 14043.54980 375.99854 483
5149.81738 13968.86035 620.30603 495
5346.15918 14508.89746 892.80731 496
5355.47314 14543.26074 1145.56616 415
5263.85791 14012.47168 379.00964 483
5235.58154 13937.42090 619.12756 495
5436.55420 14478.10059 890.13031 499
5444.48877 14509.87891 1144.81567 417
5351.07666 13982.66504 376.82352 483
5322.20312 13909.28516 620.42273 495
5523.07812 14445.22168 889.82111 499
5536.83984 14475.82227 1145.30872 417
5438.43750 13951.37793 375.76721 483
5407.93555 13879.59180 620.47620 495
5614.43164 14412.57129 889.00128 499
5624.07275 14448.29785 1144.86719 417
5523.57373 13924.32617 378.59891 483
5492.99316 13848.20410 619.40216 495
5703.51074 14383.59473 889.32202 499
5715.38721 14415.60449 1145.57214 417
5609.61914 13892.92969 376.70285 483
5578.94189 13816.29492 620.03540 495
5792.22461 14350.02344 889.06909 499
5804.85938 14382.26367 1148.58582 417
5698.03857 13861.60645 376.67316 483
5666.55615 13787.97168 619.12115 495
5882.01416 14316.57812 892.28870 499
5894.25879 14354.88770 1148.21594 417
5783.40479 13832.67090 376.32498 483
5752.84473 13759.79004 619.04279 495
5971.14990 14285.03809 891.02576 499
5987.37695 14324.36523 1149.72180 417
5870.03613 13799.08105 375.78619 483
5838.98486 13726.27051 618.53247 495
6058.80566 14252.20410 891.05414 499
6075.69824 14292.41699 1146.20886 417
5956.91699 13768.42676 376.72900 483
5926.21631 13698.52148 618.45410 495
6109.45605 14130.34961 885.62000 395
6165.28320 14256.97559 1147.59741 499
6044.23145 13740.21094 378.22665 483
6014.06543 13667.73633 620.76886 495
6197.27246 14096.06250 886.57159 395
6253.77393 14225.11621 1146.92896 499
6127.89453 13707.31738 377.51663 482
6097.29688 13639.93164 621.45398 495
6285.10010 14061.85840 887.93042 395
6345.71631 14194.51953 1146.79663 499
6418.87744 14365.25488 1420.26025 444
6217.36963 13678.95703 377.48981 482
6186.59766 13609.83984 620.29999 494
6376.04443 14028.31836 885.51764 395
6432.06396 14162.88086 1149.69043 498
6492.11377 14296.54980 1417.70337 352
6505.97119 14322.10742 1676.01746 382
6302.44336 13646.84473 378.48520 482
6270.88379 13578.46484 619.49689 494
6462.38916 13997.04102 886.83264 391
6523.60254 14127.01270 1151.26123 498
6591.16113 14277.05957 1420.72095 422
6389.80127 13617.33105 379.17767 482
6358.97168 13546.39062 622.26483 494
6598.87598 14059.14746 893.19135 498
6603.15479 14071.94824 1150.21973 469
6600.27393 14069.37402 1401.67102 469
6497.76562 13623.38770 132.40094 480
6479.54785 13583.77051 377.17319 482
6446.97070 13518.90527 619.86151 494
6668.49658 13988.48828 890.56262 470
6666.23730 13984.64160 1146.71777 470
6664.22461 13984.64062 1399.88367 470
6565.24316 13552.58398 378.79462 482
6535.01123 13487.20020 623.40802 494
6730.91846 13899.74902 889.42395 471
6730.05225 13901.43262 1141.57312 471
6732.35986 13900.12305 1395.47620 470
6653.88916 13520.76660 377.60162 482
6619.37109 13457.61035 621.60303 494
6796.91748 13817.87500 887.74786 471
6795.59570 13817.01758 1140.70764 471
6796.21436 13813.30176 1391.25537 471
6741.49561 13491.70801 376.70804 481
6706.08105 13426.19238 622.14496 493
6860.31543 13739.34473 884.42896 498
6860.72900 13733.34766 1135.14929 498
6859.24072 13730.30762 1386.97607 497
6987.50293 13988.92969 1669.62500 451
6827.08838 13460.25391 378.67926 481
6795.04395 13397.60156 621.80566 493
6950.62109 13708.34375 885.24701 498
6948.75000 13704.81445 1136.16919 497
6946.66211 13701.84473 1389.34253 497
7078.23096 13959.16113 1671.99170 451
7309.09717 14420.99707 1989.04114 469
6917.82422 13428.09277 379.88480 481
6884.10107 13363.19043 623.89050 493
7040.87939 13676.65723 886.07227 497
7025.32959 13644.06934 1136.08826 497
7036.20410 13669.18652 1387.58423 497
7127.99658 13844.74805 1660.71875 474
7123.81396 13840.88281 1919.38867 473
7121.35742 13837.97559 2176.05762 473
7120.38184 13833.30957 2434.92749 495
7003.78613 13398.54004 380.31168 481
6972.66602 13334.31738 622.54980 493
7127.74902 13640.36914 886.73029 497
7115.20264 13610.12500 1136.45166 497
7127.95801 13637.99902 1388.85193 497
7258.76514 13892.37793 1673.42603 469
7294.36865 13963.48145 1941.87695 483
7091.50098 13365.62988 379.67725 481
7060.02979 13304.90918 622.45538 493
7218.19434 13608.55469 886.88922 497
7204.06348 13580.51270 1136.73462 497
7215.58789 13602.47168 1392.98450 497
7352.18457 13860.92969 1673.17603 469
7181.92432 13334.25195 378.99484 481
7144.57764 13274.93262 624.69366 492
7309.70166 13576.34277 888.62195 497
7291.75732 13549.80176 1136.66370 497
7306.85547 13571.55664 1392.97729 496
7441.01172 13826.14648 1672.47729 468
7270.11182 13302.63086 381.23273 480
7234.53613 13242.32422 623.83154 495
7398.79639 13545.02344 887.72815 497
7380.83203 13516.84082 1139.53101 496
7397.05371 13540.19629 1392.18079 496
7532.70947 13795.97168 1674.37244 468
7356.70605 13273.34570 378.49896 480
7322.42578 13211.57520 624.37946 494
7490.76953 13511.67773 889.97296 496
7470.59521 13482.81934 1139.78027 496
7485.32568 13506.72070 1394.48730 496
7623.64307 13759.67676 1676.99731 468
7443.97217 13243.28320 381.71405 480
7411.25000 13183.11914 626.69989 494
7579.76221 13479.62988 889.63641 496
7563.14111 13451.18750 1143.02258 496
7575.60840 13474.68359 1394.49561 496
7717.86621 13725.65527 1679.37427 468
7532.49316 13212.26953 378.62073 480
7499.23730 13150.31934 624.59265 494
7666.90088 13449.09961 889.05688 496
7651.46924 13418.81152 1142.75684 496
7611.55322 13345.39062 1386.61279 389
7809.11230 13696.93652 1680.12354 468
7623.39111 13179.00098 379.00430 479
7590.97168 13120.85645 628.91095 494
7760.05225 13416.31348 891.78674 496
7757.68018 13411.32324 1146.67102 495
7622.64551 13177.61719 1376.85510 391
7898.77197 13664.69336 1681.27844 468
7710.90479 13146.73047 381.95535 479
7677.87793 13090.93848 628.97729 493
7848.99219 13385.62402 891.01526 495
7850.24365 13379.23145 1145.45081 495
7674.58057 13084.03906 1373.16504 495
7995.98730 13633.96484 1685.49939 468
7802.56055 13113.37793 371.13788 479
7769.10205 13057.60156 615.64349 493
7944.79883 13350.63867 879.61780 495
7829.09863 13158.95801 1120.12524 491
7769.87158 13049.83105 1362.75781 495
8090.17334 13599.36035 1673.16443 467
7891.47510 13081.83008 371.86600 479
7857.95703 13028.10254 617.46405 493
8034.61133 13317.84961 883.09137 495
7940.41406 13157.39746 1126.46875 352
7855.28125 13020.54004 1363.72546 494
8186.47607 13566.84277 1675.02051 467
7981.35596 13050.63965 369.35941 478
7951.11865 12996.98730 620.18774 492
8127.42822 13286.02832 881.44159 494
8125.74756 13284.33594 1136.52588 494
7946.19971 12987.40723 1365.20862 494
8277.65527 13538.28125 1677.64038 467
8072.01709 13017.89453 371.26974 478
8039.30176 12962.85254 618.47516 492
8218.59863 13251.90723 882.54065 494
8215.62793 13251.59473 1140.39734 494
8036.89258 12955.19141 1366.68359 494
8373.97559 13508.40527 1681.25146 438
8162.10449 12989.39160 369.45374 485
8130.01709 12934.83984 619.95154 492
8337.80176 13263.12695 885.14539 428
8330.98828 13255.36621 1141.15173 428
8354.33691 13291.06445 1402.83813 424
8494.53320 13514.16406 1689.21838 437
8254.05566 12955.16504 370.86182 485
8220.33398 12902.35352 618.31781 491
8450.67285 13265.97656 888.10010 456
8462.92383 13287.72363 1151.31079 427
8487.56543 13325.37109 1413.10681 423
8346.25000 12924.20605 371.67508 485
8312.25195 12868.92871 622.08002 491
8562.15137 13263.96094 892.17975 456
8596.38281 13308.75781 1156.27637 455
8622.11719 13356.48828 1417.99915 422
8438.18652 12893.16895 370.62335 484
8404.45020 12839.46973 621.34552 491
8677.35547 13261.24023 895.79144 455
8709.43164 13308.72168 1160.77002 454
8530.48535 12860.65234 371.59338 484
8494.34668 12805.53516 620.99280 490
8795.84473 13263.72559 899.17310 454
8825.75000 13309.62988 1162.39832 453
727.80603 961.52081 17.79874 363
8622.93164 12827.09473 373.17563 484
8584.88770 12774.10254 620.81366 490
8908.81641 13263.65039 901.67877 453
728.84845 950.55829 18.63624 472
731.28650 953.56396 37.25441 426
733.96387 957.42047 55.79805 363
8713.11328 12796.59961 369.99969 483
8679.72754 12742.94141 622.09808 489
9053.62500 13297.02832 906.80298 438
733.34503 944.53339 19.00696 496
735.16998 946.89471 37.59879 496
736.72839 949.36298 56.28139 496
738.62231 952.02112 75.13966 478
740.74457 954.69244 93.60741 426
8804.11621 12763.77832 372.94916 483
8769.73145 12710.69531 621.81262 489
739.38129 940.60406 18.80771 496
740.97028 942.95703 37.70961 496
742.59351 945.21265 56.15352 495
744.35498 947.68054 74.86671 481
745.88275 950.03528 93.63979 471
8897.33398 12731.49902 372.02942 482
8861.60547 12681.33301 623.61731 489
747.20959 939.42102 18.45933 424
749.15228 942.35382 37.08421 424
751.23535 945.35333 55.82048 360
754.58575 950.05798 74.62482 301
8992.85938 12698.42188 372.95422 482
8958.55469 12646.74609 624.94885 488
9083.77734 12664.04199 371.16556 482
9052.12695 12616.06836 627.47095 488
9178.35254 12631.42578 375.12189 481
9142.36621 12582.26367 628.11670 487
9271.48438 12600.40723 374.69434 481
9235.80566 12550.38281 628.95300 487
9366.04688 12564.18164 373.40930 480
9332.66895 12517.35645 629.15302 487
9462.25586 12533.31250 373.96628 480
9427.91211 12484.44043 628.21704 486
9557.88477 12500.70703 376.13574 479
9523.22266 12451.26953 631.00012 486
9653.11816 12464.25293 377.09683 479
9619.22168 12417.68164 631.77618 485
9751.05078 12433.84668 373.64471 479
9714.23340 12386.77051 632.17505 485
9847.28809 12397.28223 375.20407 478
9808.89160 12351.99023 629.89606 484
9943.99902 12364.98633 378.09207 478
9906.50684 12319.66016 633.81305 484
10038.00293 12329.54492 377.87735 477
10001.44727 12286.19434 632.31085 483
10136.21582 12295.11719 377.11896 477
10098.97949 12250.82715 633.23444 483
10236.20312 12264.02734 377.98987 476
10201.72754 12220.65137 634.71924 368
10334.19922 12228.54102 376.09940 476
10300.86523 12190.90430 638.42944 368
10431.06543 12193.60742 377.84323 475
10403.86328 12159.34473 636.60010 368
10598.62695 12234.97461 117.32532 465
10532.14648 12156.54297 378.07434 474
10507.96484 12130.72461 638.59033 367
10697.97559 12199.31641 115.34779 464
10633.95898 12123.80469 379.03482 474
10608.59570 12095.36719 641.40088 432
10796.26562 12162.41699 116.84786 463
10731.72559 12089.47852 377.80328 473
10709.18848 12058.77148 643.21332 432
10901.54102 12129.83398 113.88697 463
10834.90918 12051.54297 380.92355 473
10809.73438 12021.95605 645.36554 431
11000.09961 12090.67871 116.21202 462
10932.48340 12016.10840 381.67987 472
10907.62891 11989.68555 645.49335 431
11102.31641 12056.18848 114.39728 462
11035.20410 11979.73047 382.91562 472
11009.17871 11951.01562 645.91846 431
11208.35547 12020.55469 117.52222 461
11139.76562 11943.84375 383.13199 471
11112.43457 11915.46680 648.83075 430
11309.43945 11981.77441 113.50224 461
11242.13477 11908.75977 384.62894 470
11213.85352 11879.38281 648.44458 430
11412.16113 11947.37988 115.58222 460
11346.90918 11874.84668 383.12399 470
11313.50488 11842.45898 649.34131 429
11516.59570 11907.83008 114.38995 460
11449.97949 11837.10254 381.18628 469
11418.83398 11804.17285 648.51917 396
11629.72363 11877.29492 114.63207 443
11555.86621 11802.07715 382.54028 469
11535.18555 11782.55566 653.15125 312
11747.42285 11852.68750 113.45329 442
11660.55176 11763.28809 385.60864 468
11654.38770 11759.41016 656.13293 312
11861.82910 11824.64844 114.60017 442
11771.62207 11731.27637 387.81189 443
11772.98926 11735.58984 655.35718 284
11982.37988 11799.44727 115.72924 442
11887.70996 11708.28613 387.67944 442
12139.12207 11953.39551 671.73932 405
12105.81055 11774.52148 114.98196 441
12009.34570 11684.62305 389.65759 441
12253.02539 11917.29102 669.01178 404
12226.71875 11749.48730 112.16256 441
12131.63379 11656.98438 388.24088 441
12143.85840 11665.90430 664.41699 367
12364.44141 11737.19922 113.63436 394
12253.14941 11631.34375 388.36597 440
12210.16113 11587.03906 663.80878 462
12525.60254 11749.82812 113.73608 371
12378.26270 11607.39160 390.11893 440
13375.99219 12544.97363 708.67633 405
12696.05566 11764.53613 115.58564 370
12505.22168 11580.20801 389.25623 440
13463.24805 12478.70801 712.76422 370
12872.67871 11779.48828 110.50020 369
12645.99902 11568.77051 395.06461 393
13560.52930 12410.17383 709.50946 370
13107.27832 11848.27930 113.69804 277
12802.30273 11569.20020 393.81491 392
13651.47070 12343.32129 710.72675 369
12958.55859 11574.02246 395.10123 391
13125.90625 11578.34570 398.88156 369
13318.31250 11603.68066 400.37964 341
13538.74805 11650.84277 401.28241 340
13335.30371 11474.81543 684.82935 376
13515.04297 11490.95605 691.86060 350
13732.33105 11531.63574 695.37610 341
46672.65234 38879.77734 62.06745 1000
34642.69141 22597.36133 -8837.57324 1000
28095.30469 18050.97656 7858.31787 1000
63550.80078 16864.28906 13110.12793 1000
3653.42041 877.65717 7.68655 463
3664.67725 880.39014 67.94697 349
60852.31641 11444.61914 7170.70117 1000
40847.59766 -664.45538 8891.43945 1000
4975.06445 -410.55850 -32.64151 288
4945.42871 -436.94241 -31.74797 433
4922.02686 -465.54749 -31.43707 413
4896.11768 -492.51410 -30.12376 321
4871.06104 -519.77667 -30.03155 437
4858.42627 -547.96613 -29.91665 437
4846.69385 -576.38556 -28.81733 438
4836.28125 -604.53369 -28.51995 496
4829.24561 -632.91730 -29.14555 497
4822.16309 -661.82062 -28.21026 497
4901.19043 -673.16632 47.64074 499
4816.58301 -691.27618 -28.32882 498
4812.85156 -719.64655 -28.33191 498
4808.40137 -748.22668 -29.24652 496
4805.53662 -777.89990 -29.06555 495
4803.53711 -807.42676 -29.20300 495
4964.05518 -834.43024 47.22681 498
4925.23975 -827.59070 127.99310 482
4802.60254 -836.77118 -29.24696 494
4968.69238 -866.61548 126.93858 498
4970.72998 -866.78931 208.99644 498
4799.71973 -865.98468 -28.52374 494
4797.98975 -895.96338 -28.79409 494
5037.66797 -941.13745 45.27106 337
4796.38477 -924.97394 -29.16367 494
4794.92041 -955.04437 -29.80812 494
4792.66650 -985.22632 -29.21255 494
4967.05176 -1021.86877 128.11972 491
4790.18701 -1015.30377 -29.77665 493
4788.59326 -1045.03271 -30.18491 493
4787.37744 -1074.33130 -29.64734 493
4784.92432 -1104.91980 -30.36109 493
4782.53613 -1134.75537 -30.10230 492
4780.81934 -1164.62183 -30.01870 492
4778.57812 -1195.14502 -30.18164 492
2332.63721 -585.96637 -98.27707 1000
4776.75244 -1224.79700 -30.50518 492
4782.02539 -1257.26624 -31.55219 467
4789.71436 -1290.41907 -31.50168 437
50086.85938 -21667.17188 12800.42285 1000
3784.65771 -1935.34778 -6.52958 479
10994.70898 -10087.60742 -115.24050 1000
4672.60254 -4735.57080 -84.42827 405
4650.95605 -4771.55420 -85.62997 485
4632.66016 -4811.13379 -86.78814 399
4613.75928 -4850.23584 -86.13226 398
4596.15820 -4891.92627 -87.10431 390
4581.04541 -4935.83984 -88.06833 457
3563.09009 -3865.00049 -38.75517 440
4565.58691 -5041.18799 -90.69093 388
33656.41016 -38269.89062 -2377.50464 1000
4567.03418 -5106.52930 -91.84462 383
4569.11621 -5171.17432 -93.08213 397
4572.16504 -5238.68506 -94.84996 396
4574.97217 -5307.88770 -95.92645 394
4575.87988 -5376.36621 -98.03735 396
36431.17188 -44091.67578 -4561.28662 1000
4579.93408 -5448.75293 -99.46337 380
12098.42188 -15916.57227 -2828.00952 1000
766.08502 -1036.18066 -10.72605 434
766.10223 -1036.48340 9.68733 477
766.41278 -1036.71326 30.14758 477
766.72412 -1036.94348 50.56182 477
766.66089 -1037.16699 70.86824 477
766.98358 -1037.39465 91.01335 477
766.91730 -1037.45728 111.53387 478
767.08356 -1037.85925 131.69745 478
767.34576 -1038.27344 152.09047 498
767.78699 -1038.35217 172.21925 498
767.77826 -1038.70569 192.66125 497
767.94702 -1039.28735 213.15701 497
759.84961 -1040.49133 -10.85336 416
760.31372 -1041.12488 9.79671 416
760.54114 -1041.82776 29.95449 416
760.94812 -1042.40759 50.23995 416
761.36755 -1043.12219 70.74069 416
762.03784 -1043.69275 90.88239 351
762.58472 -1044.67395 111.22182 351
762.98169 -1045.40442 131.72354 351
764.25653 -1047.25220 151.97263 275
3241.22412 -4955.50439 -61.18722 437
3071.43750 -5893.04199 -86.84762 402
3015.73511 -5873.96143 -86.11929 435
2963.92847 -5860.00879 -85.28539 436
2914.76440 -5849.72412 -82.94596 447
2867.82373 -5843.20508 -81.53770 451
2819.47021 -5834.64355 -80.43204 499
2772.15576 -5827.39258 -80.90849 463
2792.49341 -5870.12744 23.39143 477
2728.51929 -5823.32471 -80.28143 469
2749.95972 -5871.34277 24.18279 478
2684.34399 -5822.45117 -78.05913 473
2703.61499 -5866.30029 24.55189 478
2642.25049 -5821.94678 -78.02338 477
2661.34595 -5865.02637 25.38433 479
2600.03418 -5823.65918 -77.34101 478
2621.47925 -5870.66895 24.67561 479
2556.94653 -5822.82910 -77.06873 479
2577.94873 -5871.69482 25.26900 480
2515.72583 -5822.53516 -77.17626 479
2535.86890 -5871.82373 26.27029 481
2594.48828 -6010.47314 129.51155 491
1355.74963 -3094.30469 -33.29607 292
1442.34265 -3305.65649 13.71246 465
2516.66602 -5926.24902 25.38290 344
2527.23242 -5953.58008 129.98785 481
1323.88708 -3068.84302 -31.87285 433
1419.96790 -3306.68872 14.82232 464
2515.01904 -6031.81982 24.00771 342
2484.96362 -5954.23486 130.22156 459
1311.07776 -3092.65674 -32.52046 422
1396.58044 -3307.59741 15.02346 464
2505.80933 -6115.48486 22.28672 499
2446.01758 -5961.61328 131.28671 343
1299.32166 -3118.74146 -33.54084 403
1373.08630 -3308.62500 15.26143 464
1287.78857 -3145.24170 -34.11693 395
1351.00854 -3310.09741 15.45961 465
1275.73694 -3173.31274 -35.18171 394
1327.56079 -3311.29907 15.60921 465
1263.98572 -3200.68921 -36.11135 387
1305.18872 -3312.20630 15.52025 466
1252.80432 -3232.09668 -37.22543 373
1282.82068 -3313.31421 16.36523 466
1242.63171 -3267.00977 -38.55982 366
1259.43726 -3314.33618 15.88569 467
1233.68372 -3305.53809 -40.94162 358
1239.71570 -3322.67505 15.94698 458
1226.77905 -3350.33984 -42.30905 338
1226.65686 -3350.62378 16.06530 361
1226.64722 -3419.44995 -45.70446 308
1224.52087 -3411.86157 13.78917 318
1231.55200 -3504.00024 -49.36767 311
1225.08521 -3485.79199 10.92043 311
1234.27161 -3588.11792 -54.08660 309
1273.69849 -3714.26685 3.54617 450
1238.83582 -3683.07568 -58.28007 305
1254.79810 -3731.87036 3.18722 311
1244.93188 -3782.35107 -62.76373 306
5538.56299 -43344.00391 5891.80273 1000
253.10619 -1537.63342 -20.18278 338
253.05586 -1537.30432 5.29609 406
253.03510 -1536.79785 30.90944 406
252.93233 -1536.43921 56.19342 459
252.94730 -1536.55701 81.43671 459
252.97621 -1536.56787 106.90819 459
253.21556 -1536.67578 132.10934 459
253.16553 -1536.62341 157.66026 491
253.22771 -1536.64819 182.73172 491
253.48915 -1536.94824 208.03723 490
243.27481 -1536.83374 -19.77983 443
243.62888 -1537.58862 5.53673 443
243.57507 -1538.34705 30.69371 385
243.67645 -1539.56042 56.27242 385
243.96890 -1540.97168 81.66547 313
412.22156 -3434.26733 -612.38751 1000
417.31625 -3466.01733 707.59338 1000
-248.49142 -2044.95422 99.09342 398
-248.58669 -2043.47278 132.94933 453
-248.27208 -2043.08130 166.66176 453
-248.39061 -2043.05444 200.72043 488
-261.14383 -2041.05762 -2.88575 450
-261.14090 -2042.54224 30.77948 394
-6821.62061 -20622.12891 -5681.05225 1000
-4832.35889 -3666.10059 1148.27136 1000
-47364.86328 -30599.50977 -13002.81543 1000
-2757.91602 -1165.48901 -584.67059 1000
-263.09473 -77.24094 34.85415 260
-259.69293 -74.25906 35.90774 321
-257.70322 -71.63401 36.57518 321
-255.78719 -69.02357 37.17749 324
-275.66522 -73.06525 38.27987 318
-256.69809 -66.97430 37.05787 352
-273.66840 -70.32927 38.88030 321
-258.50912 -65.16586 36.68776 351
-272.97382 -67.89170 39.17695 345
-293.27731 -71.69761 40.66904 318
-260.44437 -63.32024 36.27725 351
-274.70227 -65.84732 38.79570 345
-291.45581 -68.92961 41.27490 319
-262.28329 -61.38582 35.83485 350
-276.70111 -63.95844 38.45525 347
-292.54031 -66.74094 41.11491 341
-265.57565 -59.72291 35.07690 326
-279.63214 -62.17471 37.74203 324
-295.48022 -64.80100 40.48452 315
-271.39633 -58.42816 33.53055 320
-285.25455 -60.75651 36.40513 323
-205.94891 -11.24299 52.27528 260
-206.23639 -9.47063 52.20184 260
-206.44193 -7.64653 52.14327 260
-206.62894 -5.77758 52.05116 260
-206.68257 -3.99174 52.10155 260
-206.75034 -2.22554 52.09046 260
-206.69868 -0.36578 52.09655 260
