# .PCD v.7 - Point Cloud Data file format
VERSION .7
FIELDS x y z rgb
SIZE 4 4 4 4
TYPE F F F U
COUNT 1 1 1 1
WIDTH 1001
HEIGHT 1
VIEWPOINT 7088.573242 -1636.531982 134.360443 -0.649787 -0.110389 -0.093984 0.746162
POINTS 1001
DATA ascii
-17787.22266 832.16534 733.29260 457
-17723.55273 940.98163 731.63605 463
-17693.43164 937.77441 1021.17157 434
-17670.18164 1048.26636 732.10876 463
-17614.92773 1153.78394 730.59686 464
-17560.03125 1258.99524 726.52863 464
-17503.46094 1360.52234 728.22137 465
-17452.49609 1465.60205 722.81567 465
-17399.30078 1569.71899 720.57788 466
-19258.39062 1737.67432 1102.46289 443
-17343.17773 1673.47546 721.38794 467
-17289.11328 1777.58411 720.58502 467
-17238.37891 1879.66150 716.42633 468
-17182.11719 1981.02332 717.41614 468
-17131.66211 2080.49683 714.88300 469
-17081.89844 2180.92773 717.17236 469
-17026.55469 2280.63110 714.49689 470
-18858.48828 2525.49414 1088.20630 295
-16976.84180 2383.24390 710.16589 470
-18792.89453 2635.01489 1085.56067 405
-16922.37305 2480.37061 708.41425 471
-18728.12305 2742.89380 1085.45166 405
-16871.21484 2578.26318 708.01715 471
-18668.19141 2850.81372 1082.65833 405
-16820.49414 2677.60815 709.86334 471
-18610.24805 2958.73706 1079.76917 406
-283.98642 61.95006 37.69304 323
-16772.62500 2776.10596 709.13342 472
-18553.42383 3068.52417 1078.12292 417
-279.68692 63.61221 38.67459 346
-295.85519 66.37138 41.28795 341
-16719.72656 2873.80420 706.50183 472
-18495.83203 3177.63696 1075.38135 417
-263.17688 62.97350 36.47068 350
-277.57523 65.59090 39.09534 345
-294.00717 68.45622 41.65218 319
-16667.17383 2972.80933 704.26678 473
-18435.03320 3284.33838 1073.97620 417
-261.14072 64.85829 36.86517 351
-275.79141 67.51888 39.42266 345
-295.83453 71.26109 41.11508 318
-16620.28125 3066.88477 704.86652 473
-18377.76953 3393.25024 1070.50366 418
-259.25189 66.74759 37.29623 351
-275.99219 69.91934 39.23050 321
-16569.90234 3163.80908 702.20538 474
-18321.18555 3499.11328 1072.25684 418
-257.87006 68.69952 37.56040 324
-277.84900 72.68037 38.58414 318
-16519.81055 3262.93311 700.49628 474
-18264.70312 3602.79614 1067.49011 418
-259.64819 71.37273 36.87612 321
-16467.60742 3356.78076 700.99670 474
-18208.66016 3706.93042 1067.01526 419
-16417.57031 3451.10205 698.25757 475
-18149.61914 3815.57275 1063.08911 419
-16368.40723 3546.90234 697.65808 475
-18094.59570 3918.58911 1065.95129 433
-16319.70508 3642.55469 696.99609 476
-18035.47852 4024.56519 1060.38647 433
-16269.78906 3737.28613 695.15375 476
-17983.42188 4129.98926 1060.46460 434
-16219.95996 3828.75220 697.09979 476
-16856.66797 3980.48413 1004.21594 478
-16912.17969 3993.93701 1294.55200 478
-16173.52344 3926.46997 693.26306 477
-16787.52734 4074.71118 998.88873 478
-16836.94531 4087.88623 1290.24341 478
-16120.99023 4016.97998 693.98499 477
-16716.15234 4167.44287 997.60901 479
-16770.02539 4179.34473 1285.59595 479
-16074.16699 4111.98389 694.66101 477
-16646.21875 4255.28467 998.47980 480
-16698.13672 4269.32275 1284.74683 479
-16026.87109 4204.00635 690.49579 478
-16576.70703 4349.64502 996.51416 480
-16629.67969 4361.33008 1282.59558 480
-15974.14746 4299.96094 692.10950 478
-16504.79883 4438.62158 989.83307 481
-16559.29688 4454.37354 1280.02515 481
-15926.28027 4390.57031 691.50739 478
-16435.28320 4530.58936 990.77551 481
-16491.48828 4543.87012 1274.26135 481
-15992.22266 4512.52100 422.52023 476
-15878.05273 4482.38721 690.24908 479
-16369.23730 4619.38721 989.54449 482
-16419.68359 4633.78271 1272.58862 482
-15944.70312 4608.03857 419.31686 476
-15833.56055 4574.05615 690.15112 479
-16304.47363 4711.80029 987.98260 494
-16355.35547 4723.69971 1271.08154 482
-15892.28027 4699.14355 420.36942 476
-15781.95508 4666.49609 686.75238 479
-16250.75293 4802.24023 985.91107 494
-16300.29590 4819.60205 1265.88464 494
-15846.00586 4792.74219 420.10553 477
-15738.44043 4758.26123 687.78229 480
-16202.16992 4900.97754 983.22375 495
-16249.99023 4915.21533 1267.14880 494
-15799.14160 4886.05811 421.17566 477
-15689.96094 4848.98291 689.22064 480
-16152.99023 4994.28369 980.81097 495
-16199.81934 5007.26172 1262.92444 495
-15750.40723 4977.29053 419.13358 477
-15639.79199 4941.18311 686.41077 480
-16104.61914 5086.86084 982.88153 495
-16150.85156 5102.08057 1264.26245 495
-15702.23926 5068.73291 418.56601 477
-15595.55078 5032.87891 686.91650 488
-16052.62012 5181.17432 978.27954 457
-16103.06055 5196.17334 1262.99011 495
-15651.18945 5157.95410 418.96667 478
-15545.42480 5123.66748 686.92621 488
-15954.05859 5259.08594 979.43353 458
-16049.91797 5288.53760 1259.85254 496
-15603.11035 5251.49951 416.41776 478
-15498.58008 5211.79541 687.35242 489
-15858.37988 5332.27344 973.83673 459
-16001.17578 5383.74756 1259.04236 496
-15556.03027 5341.01318 417.67273 478
-15451.70996 5304.80225 684.34381 489
-15763.10938 5409.27295 968.37054 460
-15854.65137 5441.09912 1252.16260 494
-15510.12695 5434.03711 416.26770 478
-15407.28906 5395.27686 684.93903 489
-15663.55273 5485.98535 966.98407 461
-15808.06250 5532.60498 1251.01489 495
-3113.72046 1138.77197 135.53221 488
-15462.27051 5520.79297 415.49152 478
-15357.80371 5484.33105 684.19379 489
-15613.27637 5577.38477 966.71710 497
-15757.59473 5624.56934 1252.06104 495
-15888.06738 5673.28760 1538.60156 496
-15415.16797 5614.20996 418.41818 479
-15312.99707 5577.34912 681.87219 490
-15564.15039 5667.65967 963.44214 497
-15705.99414 5719.87207 1247.36890 490
-15839.26074 5767.95020 1535.70508 497
-15979.77246 5817.80176 1833.77393 459
-15368.56055 5702.95654 418.46927 479
-15266.23145 5664.13525 682.33685 490
-15512.71094 5754.88525 965.73486 497
-15673.60449 5815.24951 1247.58508 399
-15792.47852 5858.60693 1533.46777 497
-15947.58301 5917.85400 1832.01331 395
-15318.81641 5794.46729 414.26303 479
-15220.69043 5754.55029 683.12946 490
-15465.73633 5846.70166 961.51654 497
-15690.82227 5932.28271 1251.69458 438
-15684.55371 5929.57080 1530.67615 438
-15274.08691 5882.20801 416.60632 479
-15170.76562 5843.48096 682.32770 490
-15416.73730 5939.52002 964.34857 498
-15571.65820 5997.08887 1248.66187 439
-15564.74316 5996.94092 1520.52637 439
-15717.72266 6053.15674 1814.21729 354
-15227.51855 5975.27588 415.68652 479
-15123.91895 5933.65332 680.83142 490
-15369.46289 6032.03271 963.32373 498
-15451.65332 6059.86816 1240.97205 440
-15447.62109 6060.94971 1515.39429 440
-15590.07129 6113.47412 1807.22620 354
-15179.74512 6061.79150 414.59259 480
-15081.60352 6024.47217 680.68896 490
-15320.84570 6118.50146 964.28827 498
-15358.75781 6137.17822 1236.12280 498
-15353.85840 6134.81006 1509.48047 498
-15461.32812 6176.78711 1794.20520 355
-15131.47461 6151.08887 413.97098 480
-15035.08496 6111.62500 683.16113 491
-15275.96777 6210.03662 963.14270 498
-15311.91504 6227.18311 1237.32544 498
-15304.68262 6221.29248 1509.17334 498
-15405.42383 6263.80078 1792.70496 390
-15082.27051 6242.35938 413.93787 480
-14986.41797 6201.11670 678.93848 491
-15224.37598 6299.98047 958.63159 498
-15235.56348 6306.23633 1234.51501 498
-15228.36035 6302.57275 1505.83716 498
-15355.88477 6352.88867 1794.24329 391
-15431.34375 6386.24854 2079.24609 492
-15423.23145 6381.65869 2355.43164 492
-15418.56934 6378.69531 2633.66309 491
-15034.95508 6333.28516 414.75406 480
-14939.74121 6291.69287 678.20264 491
-15176.76758 6391.89307 958.54321 498
-15188.97949 6397.57568 1233.79749 498
-15183.24219 6393.88916 1506.37573 498
-15309.13086 6444.17871 1793.69946 391
-15528.23438 6539.35254 2096.23608 485
-14990.62207 6419.68555 415.13718 480
-14896.55664 6379.03809 679.19604 491
-15128.60352 6480.11719 962.07520 499
-15139.85742 6483.04785 1230.26367 498
-15133.00684 6483.89795 1502.08777 498
-15258.05566 6535.66943 1790.54810 391
-15480.08691 6629.97070 2095.53809 485
-14945.14355 6511.28955 412.73758 480
-14849.46387 6472.23047 681.98157 491
-15081.60840 6569.80957 958.71326 499
-15093.00293 6576.00098 1232.52698 499
-15088.75293 6571.14893 1501.28259 498
-15210.09082 6624.97705 1791.55188 391
-15429.76660 6722.39355 2093.46704 485
-14898.08789 6602.16211 414.83942 480
-14802.21289 6557.97803 679.26941 491
-15034.48535 6660.38281 956.70630 499
-15042.78125 6666.70605 1231.19409 499
-15039.74805 6661.60645 1504.79028 498
-15161.85352 6715.01367 1787.91370 391
-15384.09766 6814.31445 2091.43726 485
-14849.83984 6691.11865 413.43124 480
-14756.03418 6649.85156 677.58752 491
-14986.12793 6749.87793 956.98181 499
-14996.19043 6754.55029 1229.65344 499
-14991.62695 6754.08838 1501.64478 499
-15116.08105 6807.47363 1789.36536 391
-14800.90723 6777.91211 414.94580 480
-14708.13477 6734.83691 678.56714 491
-14940.60840 6839.37207 957.23871 499
-14949.22070 6845.88281 1231.47131 499
-14945.11816 6842.44580 1503.35620 499
-15068.20117 6898.39453 1788.52148 391
-14757.18555 6865.82666 415.12933 481
-14665.28418 6827.23535 680.22943 491
-14890.93066 6928.05078 958.33325 499
-14927.10254 6946.17529 1232.64832 499
-14924.44824 6943.07959 1504.83716 499
-15021.18848 6988.89600 1785.29004 391
-14709.32324 6954.82910 415.59097 481
-14619.75293 6913.39941 679.07245 491
-14843.84668 7018.75586 956.90326 499
-14880.95020 7037.44287 1229.31360 499
-14874.65332 7036.09131 1502.26196 499
-14973.09766 7079.41064 1786.26355 391
-14660.40332 7044.88428 413.80551 481
-14570.11816 7002.83984 678.09607 491
-14795.06445 7110.39111 955.80090 499
-14686.66113 7057.72998 1220.36121 479
-14645.16406 7035.42773 1487.01807 392
-14928.88184 7169.82617 1788.30298 391
-14614.91602 7136.30664 414.10971 481
-14525.20410 7089.58936 679.21149 492
-14748.13477 7196.95752 958.47040 499
-14784.11328 7216.35986 1230.32483 499
-14779.10156 7215.47314 1499.95813 499
-14877.00977 7263.72803 1787.26575 391
-14568.43848 7223.75195 414.85074 481
-14480.58789 7181.12500 676.65137 492
-14699.48926 7288.21387 958.14893 499
-14738.23047 7304.40869 1231.44421 499
-14731.30859 7302.10498 1503.57043 499
-14830.95605 7352.16455 1787.84277 382
-14524.05957 7311.21484 416.18546 481
-14433.84082 7266.37842 676.98126 492
-14653.81250 7379.04297 956.11157 499
-14692.07227 7395.31396 1228.48877 499
-14684.61230 7391.27686 1499.62305 499
-14789.99805 7447.50586 1784.56458 365
-14475.52832 7399.63525 412.76694 481
-14386.49316 7357.74268 679.42957 492
-14603.48926 7467.36133 955.38666 499
-14689.11523 7511.15479 1232.58325 464
-14683.12695 7507.00537 1505.38440 463
-14813.27832 7571.16992 1795.35693 365
-14427.11621 7488.23828 415.53653 481
-14339.06055 7445.01758 680.08685 492
-14557.04590 7555.25488 956.83466 499
-14697.29297 7627.09668 1237.00354 480
-14690.64941 7622.68262 1511.95312 463
-14833.05176 7698.78857 1802.55078 364
-14384.33398 7579.31201 412.70316 481
-14294.39355 7533.90918 676.34735 492
-14511.38086 7645.29053 955.01996 499
-14681.32617 7734.70068 1240.75171 479
-14700.11328 7746.01465 1513.84424 462
-14335.42383 7666.59033 413.75735 481
-14249.06445 7623.44482 675.92078 492
-14466.31445 7738.29492 956.34375 424
-14663.28613 7841.39307 1240.37195 479
-14705.85840 7865.04395 1522.22998 461
-14288.64160 7758.09717 413.25522 481
-14201.97754 7707.85254 678.01880 492
-14471.43359 7851.72803 957.71326 424
-14648.44629 7950.58545 1246.89270 479
-14241.44531 7846.48438 413.78729 481
-14158.31152 7800.04688 679.45966 492
-14476.55176 7970.88916 961.87775 423
-14631.26172 8060.35889 1248.52722 478
-14195.37891 7932.86816 415.79547 481
-14109.77930 7889.10840 679.61548 492
-14477.39941 8091.74951 967.63055 422
-14148.09668 8023.53662 415.57037 481
-14064.12109 7974.77686 678.36993 491
-14469.97070 8204.26172 966.40668 405
-14101.06836 8112.58740 414.36963 481
-14018.12988 8064.14844 679.04401 491
-14450.04102 8309.03906 970.84180 404
-14056.18848 8200.55469 412.30078 481
-13971.36426 8152.60498 676.25543 491
-14428.15723 8415.33594 972.78851 404
-14006.29688 8290.80078 414.28278 481
-13924.44336 8243.07422 679.93994 491
-47833.76953 28570.00391 -5314.94092 1000
-13959.94336 8378.02539 413.29004 480
-13879.63867 8330.01270 680.64435 491
-13912.52051 8468.08984 412.29742 480
-13835.57617 8416.77246 681.14789 491
-13865.37695 8556.99512 414.31549 480
-13789.00684 8508.13965 680.53473 491
-13821.45117 8644.08984 415.13400 480
-13744.37793 8596.20410 679.09033 491
-13774.85938 8735.11914 416.32321 480
-13694.74219 8686.74023 680.60303 491
-13725.99512 8823.26172 415.59753 480
-13646.82812 8775.85254 679.67920 491
-13661.41992 8781.40625 945.39813 430
-13679.36914 8911.71484 412.90515 480
-13603.20605 8861.96191 678.64429 491
-13614.53125 8868.55957 946.94690 430
-13633.20801 9000.69727 416.46759 480
-13557.88379 8955.30273 681.49390 490
-13563.17090 8959.62305 946.68323 430
-13583.87695 9092.83789 416.45584 480
-13507.73535 9043.25195 681.72235 490
-13517.44238 9048.85352 949.60492 430
-13538.36816 9183.34766 415.89429 479
-13464.20605 9129.87500 680.32086 490
-13467.16699 9136.77441 946.79321 430
-13489.27930 9269.62500 414.11331 479
-13415.70898 9219.18750 681.87891 490
-13420.25781 9224.36328 947.44702 430
-13443.56348 9362.34863 413.63312 479
-13368.28613 9308.73828 683.11523 490
-13376.06836 9316.40137 950.42023 437
-13394.93164 9454.26465 417.14288 479
-13321.11426 9402.90625 681.70416 490
-13330.03320 9404.75586 949.24622 437
-13350.36426 9542.42383 413.74091 479
-13276.87891 9488.96484 680.20557 489
-13283.46973 9497.89453 949.83624 437
-13298.67090 9632.03613 416.21683 479
-13229.99805 9580.37891 683.91718 489
-13240.60254 9590.17578 951.80554 436
-13254.08496 9722.64062 414.66492 478
-13182.08984 9672.64648 685.00916 489
-13194.84570 9679.31641 951.21838 398
-13203.33887 9813.73242 417.82794 478
-13133.94531 9762.71484 684.08478 489
-13157.20703 9903.41602 417.96777 478
-13085.04883 9851.03125 685.83453 488
-13106.68945 9997.35742 416.79730 478
-13038.45312 9941.82715 686.06635 488
-13059.70215 10085.25098 416.60461 478
-12991.09473 10033.79102 685.93781 488
-13013.86328 10177.74414 417.71283 477
-12944.80664 10126.49023 683.84644 488
-12965.23047 10272.39258 416.57806 477
-12896.10742 10216.28613 685.81647 487
-12915.42578 10363.70996 416.60541 477
-12850.57422 10310.17285 685.77362 487
-12869.44824 10456.13086 416.66315 476
-12803.55566 10398.53613 688.79590 487
-12822.09570 10548.65332 418.40634 466
-12755.39844 10491.07910 686.61829 490
-12783.82422 10651.68359 419.20944 468
-12704.43750 10586.31445 690.95227 492
-12747.22461 10752.33105 420.15167 468
-12657.97461 10676.70898 689.36279 492
-12711.78711 10855.66504 419.53857 467
-12616.59570 10779.12402 688.38068 474
-12672.75293 10959.03320 419.76682 467
-12580.44922 10883.18750 693.27545 473
-12633.10059 11065.19238 423.21201 466
-12543.52832 10984.10059 695.40906 473
-12597.06543 11169.81250 423.58859 466
-12505.27246 11086.25195 694.06439 472
-12561.46777 11274.99023 423.90707 465
-12470.19922 11192.28906 697.46222 472
-12542.94141 11399.15527 423.09958 425
-12430.59961 11299.90234 695.05298 471
-12527.01660 11524.13867 422.54263 403
-12391.12793 11405.57617 699.60602 471
-12519.31152 11659.02246 426.25531 402
-12357.65723 11512.08887 699.75354 472
-26019.60156 24442.70508 -1011.98541 1000
-12509.67676 11799.15234 426.00595 401
-12332.21387 11632.91602 704.44397 425
-12501.79395 11934.99805 429.32837 375
-12316.30273 11762.62207 702.75812 424
-12510.81055 12096.55273 432.64163 375
-12296.35254 11889.02246 706.03662 423
-12280.30371 12018.98730 711.19299 423
-12261.82031 12150.94727 711.36786 401
-12268.79297 12304.60352 715.44806 375
-12276.03027 12467.91113 718.34259 374
-12288.05762 12633.65625 722.30151 374
-3648.24097 4484.39404 -633.10278 1000
-1577.09973 2081.22119 90.05634 325
-1624.04456 2139.44873 133.96686 313
-1536.95032 2056.87207 90.95795 363
-1605.76929 2144.19580 133.99030 284
-1550.51160 2099.91040 46.18815 315
-1505.06750 2042.73560 91.38796 364
-1615.74536 2183.37134 133.97435 328
-1511.59180 2076.33618 47.56826 355
-1475.02344 2029.70483 91.34307 371
-1608.33740 2201.15356 133.38158 365
-1478.26636 2060.06665 48.61827 361
-1448.94348 2021.40039 91.64296 372
-1596.92444 2215.26221 133.30592 312
-1448.85083 2047.25232 49.27897 371
-1423.21021 2013.57324 92.20403 373
-1401.30469 2010.23572 51.10646 276
-1398.28186 2005.97644 92.30955 374
-1372.17041 1995.81030 52.11521 354
-1375.78589 2000.73157 92.81047 343
-1346.14514 1986.37500 53.33582 362
-1353.84888 1997.59912 93.05320 343
-1321.40662 1978.04321 54.07506 363
-1333.40784 1994.61829 93.39072 350
-1393.03638 2078.24097 133.79652 420
-1297.73950 1970.74756 54.26050 377
-1313.19189 1992.58191 93.57696 350
-1370.61768 2073.74927 133.33401 421
-1276.65723 1966.14954 54.92519 421
-1295.64307 1993.68665 93.75995 283
-1360.14685 2085.61572 133.78326 391
-1255.62720 1961.83887 55.22525 422
-1276.54285 1992.07227 93.93928 305
-1355.82202 2107.26221 133.18005 390
-1234.62061 1957.30579 56.05679 423
-1332.18555 2100.69116 91.65008 428
-1351.71423 2129.58154 133.74324 389
-1214.72900 1952.78418 56.19279 424
-1286.21301 2060.18506 93.10017 425
-1347.77026 2151.33960 133.56728 388
-9318.71680 14021.38672 2930.73047 1000
-1194.21680 1948.99951 56.78699 425
-1260.65198 2049.14453 93.25873 427
-1343.81592 2173.91479 133.19275 388
-1174.59827 1944.77454 57.04610 426
-1240.24854 2045.48389 93.06818 425
-1240.50696 2046.01013 133.19676 428
-1155.12708 1941.00854 57.82483 427
-1235.57983 2066.48608 92.86124 424
-1234.62341 2064.05444 132.98405 424
-1135.43835 1936.71594 57.76010 428
-1228.05420 2082.07739 92.59230 430
-1116.36133 1933.00500 58.56241 429
-1154.57178 1994.01013 94.67373 431
-1225.58655 2106.55005 133.24713 488
-1223.44153 2102.85352 173.69206 488
-1218.46399 2095.27271 213.92033 338
-1097.76086 1929.13708 59.02709 430
-1135.22363 1989.49097 95.05830 432
-1135.65979 1990.62036 133.06126 432
-1187.18774 2073.67139 212.87546 483
-1189.21875 2077.52344 253.44693 431
-1078.58215 1925.36951 59.17879 431
-1127.66943 2005.33606 95.07574 349
-1125.65674 2001.37939 133.26643 490
-1060.05347 1921.14819 59.98425 432
-1123.69495 2026.10828 94.51960 349
-1124.99731 2029.13330 133.17310 413
-1179.33875 2119.34497 214.20935 488
-1178.87756 2118.92090 254.92676 434
-1179.93640 2119.61523 295.23245 433
-1066.07129 1958.53748 21.14111 403
-1042.09985 1917.84595 59.96738 433
-1119.09644 2047.26587 94.02884 348
-1120.97949 2050.65479 133.50549 417
-1047.58899 1954.28931 21.74857 404
-1024.04956 1914.48914 60.26083 434
-1114.87415 2068.79810 93.69748 347
-1116.63953 2072.29785 132.99524 416
-1028.81665 1949.42981 22.21910 405
-1006.68555 1911.19958 60.92845 435
-1052.90808 1991.90686 95.69466 483
-1112.12463 2094.43701 133.46710 415
-1010.48212 1945.44373 23.18922 406
-988.69556 1907.74939 61.28730 436
-1106.10144 2113.02051 93.10526 346
-1108.06726 2116.64941 133.39204 414
-1043.78918 2003.89526 208.79132 483
-991.76617 1940.85596 23.48616 407
-971.68927 1904.19910 61.33519 437
-1101.25415 2135.74268 93.28809 345
-1102.85889 2138.89502 133.13887 418
-1039.97327 2026.60242 208.92346 413
-1036.44214 2020.34460 284.64890 486
-16142.90332 28927.38086 6186.83008 1000
-974.11865 1936.40991 24.29952 408
-954.25427 1900.95837 61.98635 438
-1096.98645 2158.64600 93.15887 345
-1097.91785 2160.54468 133.24478 417
-956.20111 1932.62024 24.96336 409
-937.18097 1898.06958 62.47690 439
-1034.71692 2075.74512 132.80580 389
-938.44525 1928.30225 25.42894 410
-920.46765 1894.80225 62.61162 440
-1029.97815 2098.48364 133.16972 388
-920.98096 1924.30627 26.30851 411
-903.62854 1891.53052 62.87881 441
-1024.94519 2120.56079 133.40533 387
-1021.88507 2113.94312 211.61079 268
-901.94781 1916.79504 26.79828 311
-887.58777 1888.54602 63.01163 442
-883.52771 1909.84607 27.47489 312
-871.08063 1885.11951 63.38609 443
-865.78821 1903.70789 28.43000 312
-855.03668 1881.88293 63.89453 421
-320.35007 839.48529 8.86297 430
-322.19492 843.13306 24.11441 368
-847.63239 1897.42212 28.99021 312
-839.34808 1880.48535 63.90165 458
-313.53452 838.51410 9.33622 475
-314.63007 840.75592 24.73448 475
-315.93436 843.10120 39.96981 431
-317.77533 846.85205 55.11894 376
-320.09070 852.13611 70.15060 295
-833.30676 1897.65698 29.21236 353
-825.95044 1882.35559 64.22025 458
-307.91861 839.79053 9.45547 497
-308.68427 841.86523 24.79979 497
-309.51129 843.58575 40.17347 497
-310.75119 845.76935 55.43525 498
-311.53763 847.65845 70.75764 475
-312.50433 849.88470 85.91972 474
-813.00958 1885.05603 64.39886 459
-302.90189 842.98096 9.60043 495
-303.57928 844.69196 24.74967 495
-304.62289 846.35876 40.08383 495
-305.41290 848.35767 55.29625 474
-306.23358 849.84369 70.69107 496
-306.87625 851.69061 85.84747 469
-799.78497 1887.26709 64.71796 402
-298.82935 847.94812 9.08210 468
-299.64359 849.88733 24.49031 421
-300.69345 852.10211 39.54146 421
-301.93112 854.64856 55.00586 413
-304.08414 859.34833 70.11417 489
-817.21777 1954.99170 26.75691 391
-787.30078 1891.57629 64.20417 402
-849.88074 2024.69385 96.27206 450
-296.82800 857.66949 8.05940 356
-816.41943 1984.41333 25.46368 397
-840.59949 2037.74866 59.78652 393
-841.63110 2072.84277 21.08256 386
-836.31281 2060.73633 59.08950 391
-837.03705 2097.04468 20.31898 384
-831.56543 2084.58008 58.03066 390
-831.93274 2121.38696 19.22097 383
-826.64301 2109.07593 57.78017 389
-19419.80273 45239.39453 -7978.69727 1000
-797.52271 2076.18994 22.10561 455
-814.66968 2116.93652 57.50801 451
-798.17657 2113.96460 57.48435 452
-782.90509 2114.38818 57.71257 484
-768.20526 2116.31494 58.11395 464
-754.36591 2118.39185 58.01037 464
-740.01129 2121.10522 58.45864 394
-727.56378 2128.00366 57.85406 264
-11276.17188 29830.84570 3290.37329 1000
-1793.11511 5684.81592 922.93408 1000
-7989.52246 30400.93750 -8285.03906 1000
-12164.00879 47274.97266 7394.38281 1000
-4926.59424 66120.64062 -3109.90454 1000
852.42780 828.39935 260.72452 1000
7781.77393 5513.34912 -25.38739 1000
49941.41016 35747.27344 3128.91455 1000
41881.84766 29583.42578 118.06313 1000
2602.71021 1369.17737 -56.55722 301
2599.71973 1346.77405 -55.54814 301
2603.83740 1349.38818 -8.89758 382
2607.31445 1331.25525 -55.13314 451
2615.78198 1335.87817 -9.07370 400
2622.78662 1320.34656 -56.12170 443
2627.94873 1322.78418 -9.55329 409
2638.38208 1308.58398 -56.79160 436
2640.69580 1309.86121 -10.03162 431
2654.56372 1296.96411 -57.24019 431
2655.00317 1296.84644 -10.29825 462
2670.50195 1285.22351 -57.78447 431
2668.86255 1284.14856 -10.70729 472
2686.61938 1273.66504 -58.37516 430
2683.59717 1272.11829 -10.48207 471
2703.44824 1262.21802 -59.43234 424
2698.92529 1259.52856 -11.23890 470
2833.85181 1325.44202 31.31471 431
2721.24487 1250.91248 -59.87108 413
2714.44824 1247.79163 -11.55915 468
2830.03296 1302.26062 31.53834 432
25961.71094 12309.53906 2470.12524 1000
2739.69434 1239.51465 -60.17552 414
2731.58887 1235.83093 -11.94799 458
2825.01562 1279.32532 32.07458 431
2759.62866 1228.93701 -61.65228 413
2749.89160 1224.51941 -12.90609 453
2821.48560 1257.46582 32.16586 434
2780.49561 1218.96411 -62.38860 407
2769.46362 1213.56836 -13.26713 441
2816.93286 1235.30310 33.10405 434
2802.69409 1209.12842 -63.42945 401
2790.26343 1203.11194 -13.81163 441
2817.97607 1216.02283 33.50758 486
2826.04858 1199.37683 -64.58305 396
2811.50562 1192.68347 -14.83764 434
2827.80176 1199.59302 33.43621 486
2853.04541 1191.17090 -66.01315 377
2835.20435 1183.30542 -16.15274 426
2849.10669 1188.71533 32.25444 419
2884.82397 1184.22729 -68.21718 366
2862.19116 1174.82385 -16.65902 397
2917.62158 1177.85535 -69.45969 365
2894.42358 1168.42249 -18.23925 385
2951.25781 1171.36914 -71.17538 364
2928.75952 1162.42725 -19.68904 384
2985.59253 1165.00903 -73.68836 381
2962.60059 1155.89648 -21.41532 382
3019.98975 1157.61536 -75.75000 380
2998.38159 1149.09094 -22.59511 381
3054.61011 1150.63086 -77.65815 379
3033.96411 1142.42932 -24.28602 380
3090.80127 1143.44226 -79.69935 377
3070.88452 1135.81775 -25.79223 378
3126.83911 1136.35437 -81.84155 376
3107.97607 1129.54272 -27.15453 377
3164.87549 1128.63342 -83.48667 370
3146.90283 1121.81128 -29.21485 376
3204.73022 1121.92798 -86.00932 368
3185.68457 1114.73242 -31.03110 375
3245.49878 1114.99475 -88.85750 368
3225.09668 1107.56653 -32.89404 373
1544.56396 386.87396 -41.38301 322
1535.20117 374.58493 -39.94784 485
1539.98279 375.89792 -15.99356 448
1545.02576 377.45117 8.21640 450
1551.77612 379.18604 32.47515 250
1535.40503 365.29068 -39.65225 499
1539.72986 366.27249 -15.42887 499
1544.10193 367.53268 8.78137 498
1548.11877 368.32828 33.22230 489
1540.71155 357.10193 -40.28032 453
1545.62769 358.44885 -15.88607 453
1554.71777 360.72153 8.17159 267
2567.98877 -130.78470 -72.18755 495
2571.36523 -130.80240 -31.64078 495
2574.29224 -131.09451 8.94958 494
2571.63721 -145.78169 -72.45311 433
3579.85352 -399.17590 -42.28098 367
3541.02148 -416.82089 -39.71613 441
3529.63135 -437.16290 -39.16443 478
3518.50732 -456.27316 -39.24648 480
3576.60107 -485.85718 -99.73317 419
3508.60962 -477.05981 -39.14539 485
3612.51440 -490.91699 14.21973 393
3560.43921 -505.98154 -99.49448 426
3497.70288 -496.62216 -38.47121 486
3546.69751 -525.11377 -98.49820 435
3488.15991 -516.56140 -38.14743 490
3533.88965 -545.35907 -98.17534 419
3479.84302 -536.18292 -38.01639 490
3516.22314 -563.60565 -96.41634 260
3470.88965 -556.59857 -37.46654 472
3485.96948 -579.92358 -94.93923 298
3463.39453 -576.41376 -37.79193 472
3469.40088 -598.47180 -94.66163 368
3456.30786 -596.06830 -36.75705 474
3458.11328 -618.06555 -93.68687 372
3448.35474 -616.05615 -37.40467 474
3447.48877 -636.97186 -92.74275 373
3442.31714 -636.59711 -36.53161 443
3437.75049 -656.97906 -92.77814 375
3436.18359 -656.52875 -36.30914 443
3537.40918 -676.30707 73.02622 328
3428.70605 -676.34949 -92.08104 434
3430.04932 -676.54071 -37.08244 443
3567.86670 -705.01892 14.94676 327
3479.74243 -686.69934 74.36624 329
3421.50903 -696.13348 -92.25296 435
3424.55835 -696.93475 -36.33430 443
3509.39185 -714.98035 16.22732 328
3453.23853 -702.86029 74.56525 499
3414.49316 -716.67340 -92.45950 436
3419.58545 -717.06494 -36.32030 444
3452.76123 -723.95746 18.52774 330
3450.35229 -724.32098 74.11672 499
3409.46216 -736.45239 -91.77943 436
3413.24316 -737.31653 -36.75121 445
3445.08960 -744.71918 18.12491 499
3446.96558 -744.35803 74.74113 499
3403.47144 -756.47968 -92.12846 437
3408.06714 -757.46680 -36.36609 419
3440.87866 -765.18152 18.26355 498
3443.67334 -766.02448 74.46899 499
3464.68018 -770.51434 130.46667 424
3397.77979 -776.32672 -91.99480 437
3403.95435 -777.53705 -36.00666 420
3438.29810 -786.43591 18.59459 498
3439.32031 -785.82904 74.02334 498
3460.84644 -790.96631 130.20900 424
3393.16504 -797.31354 -92.34163 438
3399.14062 -798.36713 -36.33787 420
3429.66309 -805.25757 18.72070 499
3430.33789 -805.88385 74.77459 499
3456.79248 -812.44952 130.46130 424
3389.21265 -817.03094 -91.65525 437
3394.13647 -818.87842 -36.75423 445
3425.83032 -826.01166 17.98789 498
3428.14941 -827.29388 74.91817 499
1227.78662 -304.55759 -0.50784 424
3385.36108 -838.01880 -91.57611 438
3389.76196 -839.33514 -36.06060 445
3422.32837 -846.90839 17.85170 498
3425.16602 -848.47351 74.19231 499
3448.94458 -854.06299 130.60391 424
3382.00024 -858.64343 -91.76393 437
3385.90234 -859.13245 -36.84723 445
3418.84814 -868.18079 18.24895 498
3421.63525 -869.34662 74.88091 498
3444.94531 -875.30139 130.83517 424
3379.53687 -879.56946 -92.26930 437
3381.81226 -879.96234 -36.67409 445
3421.29834 -890.54242 18.21005 498
3422.95703 -890.76624 74.42061 498
3440.99902 -896.17596 130.24792 424
3376.35889 -900.27502 -92.15002 437
3378.25391 -900.45483 -36.35250 445
3417.06641 -911.93427 17.90250 498
3419.81470 -911.83466 74.26549 498
3435.43164 -916.64514 130.26968 410
3373.10449 -920.95032 -93.03015 437
3373.56274 -921.07275 -36.69267 445
3413.87109 -932.94580 18.28778 497
3416.67871 -933.49908 74.09016 498
3432.01221 -937.88373 130.72423 410
3369.87280 -941.57996 -37.22006 445
3411.76929 -953.84174 17.76372 498
3412.59668 -954.25458 73.83988 498
3427.70972 -958.56378 130.78732 410
3526.02783 -986.86365 189.52861 381
3366.14087 -963.03290 -36.60799 445
3408.02271 -974.74670 17.31926 498
3409.74121 -975.95319 73.73982 498
3424.00586 -980.15668 130.32773 410
3504.14746 -1003.27307 188.50159 477
3361.97290 -983.59430 -37.19289 445
3404.68848 -996.09485 17.89888 497
3405.78979 -996.59851 74.51945 497
3418.24048 -1000.66516 130.93214 426
3419.82715 -1000.87781 188.16147 448
3358.45557 -1004.49518 -37.55674 444
3407.18262 -1019.36554 17.67935 470
3480.85498 -1042.20190 130.71013 497
16712.24805 -5111.43750 694.71063 1000
3353.76807 -1025.23779 -37.31367 444
3526.69043 -1079.37610 189.61827 476
3350.17236 -1045.81909 -37.59901 475
3532.97485 -1104.61121 190.22556 489
3346.44995 -1066.74146 -36.98395 473
3511.52588 -1120.47144 189.24214 355
3342.66431 -1087.94592 -37.79998 473
842.83826 -287.80777 -44.08482 473
3616.95752 -1227.45825 -52.84558 496
3613.64331 -1251.07446 -52.67978 495
3373.61108 -1188.49744 -40.37711 258
3343.31494 -1199.82068 -39.05474 286
3616.07251 -1300.50684 7.70875 494
3319.76367 -1213.41980 -38.17419 475
3316.72241 -1235.04041 -38.69702 493
3312.40283 -1256.10938 -38.93699 493
3309.00220 -1278.32703 -38.77405 493
3305.71118 -1299.47278 -39.67036 492
3360.11841 -1321.65295 15.42129 493
3302.12305 -1321.18530 -40.06068 492
3341.53223 -1336.98486 16.14221 466
3298.21753 -1341.98157 -40.35319 492
3337.18140 -1358.80823 15.31410 422
3302.98853 -1367.32019 -40.26524 417
3388.10889 -1403.98975 13.51073 498
3381.16187 -1425.18970 -45.64633 432
3376.65186 -1423.57764 14.20174 498
3381.09985 -1448.79333 -46.17757 409
3372.54834 -1444.99207 14.01159 476
3334.15527 -1475.51733 72.52218 399
2038.05994 -1651.88452 -35.90251 494
2044.43896 -1657.18445 5.50253 460
2031.68713 -1667.25903 -36.25769 430
23807.89844 -28064.01758 4355.69873 1000
1219.87683 -1684.35474 -0.86230 433
1203.98169 -1682.74512 -0.40590 434
1208.21948 -1689.98242 32.47819 407
1186.06018 -1677.68506 0.84686 433
1182.30151 -1672.97131 34.19088 441
1171.94019 -1678.84314 1.49670 433
1166.93689 -1671.47241 34.70995 446
1156.30212 -1677.73975 1.69641 433
1151.33838 -1670.26831 35.20043 447
1140.78589 -1675.62036 2.44797 434
1136.18518 -1668.46997 35.69141 448
1125.65417 -1674.47644 3.19487 435
1121.08545 -1667.15063 35.84258 449
1134.10583 -1688.42297 67.39460 456
1110.44275 -1672.67371 3.79803 436
1106.25525 -1665.85767 36.40552 450
1127.55750 -1701.22864 67.22092 337
1095.27258 -1671.00952 4.39650 435
1091.33179 -1664.56433 37.02018 450
1126.13538 -1722.63354 66.50587 386
1080.35059 -1669.73291 5.18749 436
1076.66956 -1662.92432 37.40379 451
1083.02759 -1673.64783 68.61687 389
1065.56494 -1667.59265 5.34749 437
1062.17371 -1661.87573 37.74688 452
1068.39795 -1672.32788 68.96083 418
1051.04456 -1666.44543 6.29232 438
1047.36633 -1660.33105 38.08794 453
1053.75842 -1670.96655 69.05881 415
1028.44971 -1664.88428 5.55439 438
1025.30261 -1659.15552 37.15621 454
1031.39282 -1669.66260 68.48517 416
1014.33960 -1663.39294 5.88750 439
1011.27002 -1657.58789 38.01648 455
1016.95947 -1668.05774 68.60129 416
999.83057 -1661.66382 6.62472 440
996.95270 -1656.54980 38.25074 456
104.12923 -188.06926 -7.21933 417
986.23505 -1660.48694 7.37646 429
983.44885 -1655.29297 38.34910 457
988.66382 -1665.33484 69.10359 447
972.65881 -1659.49597 7.64102 430
969.60962 -1654.16174 38.75689 458
1100.44836 -1897.44861 60.23057 466
958.64636 -1658.58191 8.28068 430
955.75818 -1652.80835 39.41367 458
945.57764 -1657.67371 8.94086 431
942.20837 -1651.59167 39.52755 459
932.29688 -1656.33850 9.20063 432
928.64813 -1650.30066 39.87799 460
918.94751 -1655.64661 9.79532 432
915.44116 -1648.75037 40.72841 461
905.90704 -1654.34229 10.32503 433
902.10803 -1647.84229 41.08158 462
892.67419 -1653.66602 10.61753 428
889.31403 -1646.30444 41.33199 462
879.25909 -1651.76294 11.08705 429
876.07080 -1645.13281 41.73882 463
878.76233 -1650.49304 71.33411 465
866.33942 -1650.56360 11.66774 429
863.09094 -1643.97339 41.75045 464
866.29944 -1650.55627 71.34838 466
862.65222 -1669.20044 -19.74300 427
853.30945 -1649.16614 11.78322 430
850.25854 -1642.84692 42.33346 465
853.71765 -1649.65308 71.65959 466
849.91406 -1668.26562 -19.29751 428
839.94666 -1647.42578 12.57268 431
837.68933 -1641.82312 42.73579 466
840.50580 -1648.60107 71.90485 467
836.78650 -1666.88403 -18.99186 429
827.71674 -1646.67688 12.65870 425
824.89624 -1640.45178 42.67054 466
828.16620 -1647.53064 72.18866 468
824.64062 -1666.78027 -18.45762 420
815.14331 -1645.42004 13.43856 426
812.20538 -1639.23206 43.09464 467
815.33514 -1646.55298 72.16440 469
812.04193 -1666.48547 -17.95724 420
802.92108 -1644.72400 13.67631 428
799.98804 -1638.51013 43.74041 473
803.27124 -1645.37720 72.31244 469
800.09882 -1666.48926 -17.22871 420
790.33057 -1643.84570 13.96292 428
787.91461 -1637.55188 43.61400 474
790.59650 -1644.68201 72.58290 470
787.61621 -1665.74670 -16.75587 420
778.55060 -1643.87915 14.37816 436
775.93323 -1638.16687 44.17420 484
778.97406 -1644.49536 72.74666 486
779.17181 -1645.62524 102.06322 486
775.60651 -1665.49329 -16.56085 418
766.69348 -1643.93079 14.59529 436
764.27045 -1638.87720 44.39814 489
767.65472 -1645.58325 72.79272 489
767.83417 -1646.58691 102.05163 486
764.07825 -1666.16333 -16.11143 419
754.92688 -1644.28394 15.04187 442
753.07318 -1640.20825 44.27506 490
756.14673 -1646.73145 73.40600 489
757.10803 -1648.97925 102.03357 475
752.63513 -1666.70544 -16.16932 426
743.96112 -1645.85266 14.93730 442
741.96857 -1641.10229 44.62550 490
744.63947 -1647.81433 73.39732 481
748.35767 -1656.60559 102.33526 474
741.11945 -1668.06116 -15.42856 429
732.82220 -1646.72473 15.18069 442
731.14337 -1642.77527 44.69673 492
736.03314 -1655.43970 73.31979 479
739.83044 -1664.38611 102.35129 474
729.81226 -1669.84473 -15.27228 430
721.82935 -1648.44958 15.41585 442
720.07208 -1644.96313 44.81260 494
726.98608 -1662.80798 73.00258 478
734.83905 -1682.31299 101.90778 351
718.71313 -1671.34998 -15.10185 436
710.67743 -1650.62878 15.49408 443
709.40387 -1647.13635 44.84707 496
721.29895 -1677.88452 72.54419 352
732.58386 -1706.66028 101.32946 350
707.74780 -1673.51917 -14.89518 436
700.33813 -1652.29272 15.83134 444
698.71356 -1649.17468 45.05475 496
718.75446 -1701.96387 72.12904 351
729.98132 -1731.83484 101.31265 349
697.14429 -1675.94373 -15.12408 432
689.57440 -1654.80212 15.82715 443
688.11798 -1651.63818 45.21497 497
716.06598 -1727.07983 71.28923 350
727.23230 -1757.60352 100.95786 348
678.73956 -1657.12219 16.17205 445
677.64752 -1653.93530 45.24305 497
713.31750 -1752.49622 70.51698 348
724.51843 -1783.91187 100.25542 347
668.39349 -1659.44800 16.25804 445
667.19733 -1656.44409 45.37955 497
710.64856 -1778.23022 69.55124 347
722.44116 -1811.55212 99.80305 294
657.98322 -1662.08789 15.92655 445
656.81769 -1659.33203 45.40326 497
707.75250 -1805.40918 69.01241 346
719.34949 -1839.54541 99.65044 344
647.73340 -1665.31531 15.96777 447
646.55609 -1662.02075 45.20621 493
704.22821 -1832.00354 67.98308 344
637.43213 -1668.20789 16.24113 447
636.34631 -1665.46411 45.19415 489
700.92786 -1860.09631 67.15414 343
627.08289 -1671.59021 16.03463 449
626.14526 -1669.08972 45.17393 489
616.70221 -1675.15955 16.41232 449
616.20782 -1672.49414 45.04713 489
606.72467 -1678.83960 16.18552 449
606.08807 -1676.58496 45.25920 488
596.87164 -1682.88806 16.16851 449
596.12488 -1680.79688 45.37021 488
586.93280 -1686.88440 16.34370 449
586.18445 -1684.44275 45.20705 488
576.58820 -1691.19067 16.23716 449
576.19141 -1688.81506 45.27024 488
566.76318 -1695.16797 15.76260 449
565.86066 -1692.37292 45.11806 483
556.71820 -1699.57043 15.87685 449
555.89331 -1696.56909 45.18369 479
546.84894 -1703.72864 15.82353 444
545.96216 -1700.72253 45.09867 479
536.67493 -1707.57312 15.55921 454
536.01007 -1705.31653 44.98587 477
526.85004 -1712.03320 15.64089 454
525.89362 -1709.67188 45.01760 471
516.81140 -1716.28601 15.60761 461
516.08624 -1714.74304 44.64698 471
506.37057 -1720.39099 15.42525 460
506.14261 -1719.18494 44.57298 469
496.14941 -1724.91138 15.54411 460
496.41605 -1724.31458 44.58625 465
486.98880 -1732.18335 14.85600 258
486.48700 -1729.40112 44.50000 462
476.50546 -1734.69299 44.21995 462
7028.00049 -55236.71875 -10027.02930 1000
1008.56769 -16017.35742 387.74088 1000
-2838.40991 -18462.25977 2277.48730 1000
-10682.25977 -16200.80762 -504.92728 1000
-1637.34900 -2011.13477 88.65758 407
-1636.43079 -2010.68103 132.49939 407
-1635.45813 -2009.55981 175.81964 460
-1635.33496 -2008.79871 218.82014 460
-1634.46997 -2007.98291 262.04904 460
-41287.53125 -45300.82812 -1873.55664 1000
-11157.14160 -12164.41992 2590.55469 1000
-2604.08130 -2808.44702 906.60498 1000
-4182.15088 -2163.27637 210.23149 442
-3617.48291 -1737.10889 199.86565 496
-43782.42188 -16112.08105 -4467.40771 1000
-35912.83984 -10527.38965 3829.89478 1000
-270.57153 -70.63404 38.39230 321
-269.28424 -68.05405 38.87748 345
-290.36526 -72.01656 40.29126 318
-271.02737 -66.14462 38.51488 345
-288.40018 -69.27053 40.86317 318
-289.05826 -66.93145 40.75701 341
-291.00659 -64.83311 40.34430 341
-195.67690 -12.50688 53.31539 324
-195.73434 -10.71261 53.33487 324
-195.74681 -8.89727 53.31183 324
-195.70929 -7.10185 53.28822 324
-195.66000 -5.33901 53.28107 324
-195.63863 -3.49308 53.26008 324
-195.59660 -1.73525 53.27860 324
-195.58055 0.07853 53.28311 324
