# .PCD v.7 - Point Cloud Data file format
VERSION .7
FIELDS x y z rgb
SIZE 4 4 4 4
TYPE F F F U
COUNT 1 1 1 1
WIDTH 973
HEIGHT 1
VIEWPOINT 7068.701660 -1739.186890 137.037415 -0.648249 -0.110582 -0.090944 0.747847
POINTS 973
DATA ascii
-17693.74805 936.31854 689.86096 452
-17630.50977 1043.94775 687.27979 462
-17528.80078 1038.16602 971.01813 474
-17576.58008 1148.78271 685.51978 463
-17475.99219 1144.16626 969.49353 475
-17518.38867 1256.44531 680.73883 463
-17415.21875 1248.57898 966.01678 475
-17467.51758 1357.81274 679.35303 464
-17363.44727 1350.19849 962.57886 476
-17411.76562 1462.25146 681.16406 464
-17305.72852 1456.50269 960.09351 477
-17356.90820 1568.04614 678.56519 465
-17254.40039 1556.12903 961.44739 477
-17304.37891 1670.24573 675.94489 466
-17196.48633 1661.43225 958.11975 478
-17246.99609 1770.71924 673.23022 466
-17144.70703 1759.97620 957.23871 478
-17196.72852 1873.82080 670.86035 467
-17090.71484 1864.04285 954.14581 479
-17143.75391 1977.05701 673.69916 467
-17041.75781 1964.58936 953.00372 480
-17087.53516 2073.54370 671.41718 468
-16989.88477 2061.95679 948.51337 480
-17038.55859 2174.29321 666.22882 468
-16938.67578 2161.46265 948.51831 481
-16985.91797 2275.33691 665.27710 469
-16886.08594 2265.44238 943.63019 481
-16930.18359 2375.20435 664.75366 469
-16831.12109 2360.61670 944.05975 482
-16877.94922 2475.19531 663.46661 470
-16780.86133 2461.51123 942.22913 482
-16827.96680 2574.91943 665.07990 470
-16728.68164 2558.53833 937.77240 483
-286.94125 60.45507 36.09330 317
-16773.53125 2670.39258 663.01703 471
-16678.96484 2655.12964 936.47052 483
-266.80023 59.49809 34.82463 326
-281.01086 61.89111 37.49664 323
-297.22134 64.60464 40.23640 315
-16725.87695 2766.59546 660.92059 471
-16629.07812 2753.79004 934.65509 484
-262.91333 61.12014 35.78675 350
-277.28177 63.59922 38.40168 347
-293.15732 66.33079 41.08007 341
-16674.42578 2866.19287 661.18317 472
-16577.68359 2850.28320 935.07111 484
-260.95828 63.00650 36.20343 351
-275.19577 65.56261 38.83339 345
-291.31116 68.37962 41.39207 340
-16621.54883 2961.53271 656.73456 472
-16529.85547 2945.75879 930.79053 485
-259.00522 64.90754 36.60818 351
-273.32663 67.58817 39.13117 345
-293.05667 71.11153 40.84226 319
-16568.65820 3057.47705 658.56689 472
-16479.36914 3044.18848 932.15808 485
-257.09271 66.74025 37.01862 352
-273.44553 69.89184 38.97152 322
-16518.56250 3153.98730 654.61456 473
-16429.48438 3138.70337 929.76752 485
-255.58008 68.70118 37.28696 325
-275.42960 72.58951 38.33946 319
-16471.42773 3250.24316 656.83496 473
-16376.59668 3234.93335 926.00482 486
-257.38834 71.33531 36.61898 322
-16420.30859 3346.74707 656.14606 474
-16328.22168 3327.43018 923.61102 486
-259.29730 73.88239 36.00970 322
-16369.65039 3441.90967 651.52704 474
-16281.31543 3424.87549 926.04749 487
-261.30078 76.59437 35.26811 321
-16319.15820 3534.65210 651.88599 474
-16229.25879 3517.20337 921.50275 487
-16265.87598 3632.34277 649.84460 475
-16183.49414 3613.02393 920.24390 487
-16219.21094 3727.24707 651.65802 475
-16132.06348 3704.18042 920.09540 487
-47342.84375 10839.16211 5641.63867 1000
-16169.95117 3820.54077 649.30518 476
-16085.72656 3797.92236 917.28821 488
-16121.73145 3910.25781 647.98236 476
-16032.76367 3893.56470 916.64319 488
-16071.06738 4007.26562 647.66016 476
-15985.46777 3982.68701 917.66962 488
-16718.19141 4168.57910 1236.87708 478
-16023.30859 4098.00439 646.04327 477
-15939.41992 4077.07275 916.60834 491
-16648.74023 4257.00391 1232.37903 479
-15971.33789 4188.85986 646.23572 477
-15890.73047 4170.02100 911.36243 492
-16576.45703 4350.89209 1231.06909 480
-15925.61719 4282.61279 644.28314 477
-15841.81641 4264.29443 913.24530 492
-16504.41406 4441.98389 1226.68152 480
-15874.27051 4374.88379 644.51764 478
-15795.51758 4353.05811 911.92493 492
-16437.86328 4532.03516 1223.28418 481
-15825.87012 4465.54248 643.90674 478
-15746.88086 4444.62354 910.34650 493
-16370.12305 4618.87598 1222.42432 481
-15777.57910 4561.11670 641.92517 478
-15697.33887 4535.40088 910.08398 493
-16298.27051 4709.08838 1221.01587 482
-15730.61719 4651.93848 642.63794 478
-15650.78223 4626.42432 907.01691 493
-16233.43652 4801.74023 1213.58472 482
-15681.90723 4740.87891 642.93048 479
-15602.76855 4721.11328 905.33002 493
-16175.12305 4893.65283 1212.73096 494
-15634.09375 4835.07861 641.71014 479
-15555.89746 4811.12109 906.68457 494
-16125.27246 4985.45996 1210.69226 495
-15583.89551 4921.56006 637.35443 479
-15509.27637 4899.97510 903.55383 494
-16077.63770 5079.43604 1210.95740 495
-15538.09766 5012.96826 637.54346 480
-15464.17383 4988.98926 906.00183 494
-16027.14062 5170.74414 1208.54077 495
-15489.73047 5102.94434 640.75958 480
-15414.17578 5080.68018 904.24011 495
-15976.31641 5267.13721 1210.34607 495
-15443.08887 5196.26318 637.07349 480
-15368.41504 5168.38818 903.05109 495
-15927.71680 5355.81543 1209.35376 496
-15392.34863 5282.24170 638.61566 480
-15323.59570 5258.58154 902.60211 495
-15873.24805 5451.23535 1208.05029 496
-15345.14160 5376.14307 638.29071 481
-15276.44336 5349.33008 899.78815 495
-15738.24121 5509.53857 1199.02832 415
-15296.21875 5462.65674 635.30383 481
-15227.21875 5439.57422 898.40192 496
-15689.70117 5602.96826 1199.08997 416
-15812.15625 5645.51709 1485.21973 496
-15251.81738 5553.23389 636.82611 481
-15180.65625 5528.83301 901.74042 496
-15644.25488 5696.63086 1196.10083 402
-15760.94238 5740.46973 1483.99268 496
-3010.05396 1145.04883 125.77162 396
-15202.05957 5642.10938 637.25763 481
-15136.38672 5615.89941 899.73480 496
-15593.39844 5785.17090 1195.40356 402
-15713.42969 5833.15234 1481.21204 497
-15855.50098 5884.58252 1772.36328 460
-3004.06323 1164.26013 125.94334 396
-15156.12891 5732.37158 636.67169 481
-15091.47266 5706.26465 900.73419 496
-15543.03125 5877.45703 1193.88831 388
-15660.61816 5921.06641 1482.06653 497
-15788.39648 5968.81396 1771.98364 493
-15110.75781 5822.26953 633.42169 481
-15041.58203 5795.03027 895.73895 496
-15577.92676 6000.89502 1201.09094 497
-15577.28906 6002.89600 1478.17383 438
-15060.80078 5907.66748 633.23090 482
-14996.91797 5885.41455 897.84991 497
-15462.95508 6068.53369 1196.53027 439
-15457.35059 6065.24463 1467.80896 439
-15507.45312 6083.27441 1750.10400 355
-15015.64941 5999.64844 632.04352 482
-14948.34668 5973.15723 898.50891 497
-15344.09180 6130.14111 1189.08228 440
-15341.11914 6127.72217 1463.32166 440
-15380.19336 6144.72314 1741.07898 356
-14965.57812 6088.04053 633.58795 482
-14906.13770 6061.87158 898.30621 497
-15230.57715 6195.36816 1182.99170 498
-15226.07227 6191.45020 1456.39624 498
-15252.46582 6204.68701 1730.08984 356
-14921.20996 6177.46875 633.08893 482
-14859.43359 6148.11426 897.13068 497
-15184.73730 6286.71973 1182.66846 498
-15176.85742 6281.22559 1456.31738 498
-15198.57520 6292.45410 1729.34229 392
-15355.18555 6354.72852 2020.55273 445
-15345.96094 6352.24170 2296.10547 445
-15338.20117 6348.45752 2576.49121 444
-15330.41016 6345.24365 2852.37646 444
-15320.57129 6343.48584 3132.87720 443
-14874.77344 6262.80762 633.37915 482
-14811.64062 6238.35645 896.39783 497
-15108.04590 6364.02002 1180.08093 498
-15101.92773 6357.62061 1450.48145 498
-15149.50586 6382.52344 1726.52673 392
-15431.60449 6497.70801 2034.15039 485
-14826.47949 6351.13770 631.88617 482
-14765.42480 6325.94629 896.66119 497
-15059.66113 6453.42627 1180.47388 498
-15054.42090 6447.89307 1448.39819 498
-15103.04492 6470.68408 1725.01917 392
-15382.89648 6591.06250 2036.63196 485
-14777.95117 6439.86475 630.60645 491
-14721.23926 6413.31396 894.41968 497
-15009.83301 6539.30420 1178.56238 498
-15003.09180 6538.47363 1450.86389 498
-15053.59180 6560.47559 1725.57080 392
-15282.59766 6658.52100 2025.47729 453
-14734.90527 6526.67041 631.11243 491
-14675.55762 6502.45020 893.91724 497
-14963.08594 6629.30322 1178.41602 499
-14958.39551 6629.60889 1449.86548 498
-15004.82520 6648.25928 1726.84082 392
-15245.36133 6753.70801 2026.55408 479
-14687.14160 6615.04248 633.11499 491
-14629.24121 6591.35938 893.26801 498
-14915.87012 6717.34521 1178.45386 499
-14906.72559 6715.16748 1449.74414 499
-14960.75000 6740.49219 1723.83655 392
-15234.56836 6862.30469 2032.06482 486
-14642.32520 6705.87744 631.42834 491
-14584.26562 6679.12793 895.76813 498
-14867.24805 6806.19043 1176.08960 499
-14860.71094 6804.10840 1449.11401 499
-14911.65918 6827.41113 1724.51172 392
-15186.42285 6955.58691 2028.99927 486
-14595.22266 6793.74219 633.08240 491
-14535.82910 6765.99609 892.25812 498
-14821.54199 6898.54688 1178.19482 499
-14813.91699 6893.47900 1449.30664 499
-14865.49707 6921.19971 1725.33057 392
-15140.23926 7044.19824 2032.06104 486
-14548.78711 6879.16455 631.68359 491
-14492.20508 6853.19482 892.54443 498
-14797.83691 6999.13965 1177.17615 499
-14791.44434 6998.02930 1451.02905 499
-14818.51758 7006.77051 1722.67505 392
-14503.33105 6966.88281 629.43500 491
-14445.73438 6940.03857 892.14233 498
-14748.29590 7089.81689 1179.45789 499
-14742.04980 7086.33447 1450.50745 499
-14771.67676 7095.94336 1721.12329 383
-14457.32422 7055.51318 631.35504 491
-14398.33887 7029.91992 894.19580 498
-14551.19336 7105.42676 1167.56506 426
-14475.35840 7068.46533 1427.22327 489
-14719.60059 7187.33887 1721.42065 383
-14411.40039 7145.97559 628.77582 491
-14355.27246 7114.91357 890.76990 498
-14654.54492 7264.10596 1180.04004 499
-14646.79883 7264.30225 1448.38855 499
-14671.30078 7276.76025 1722.39294 383
-14362.18457 7230.18750 629.67072 491
-14308.78223 7204.41406 893.53442 378
-14608.32520 7355.56348 1177.32361 499
-14599.41406 7352.22363 1448.68677 499
-14621.79492 7361.34912 1723.08472 384
-14316.24414 7318.59277 629.63263 491
-14268.44238 7294.02002 890.98022 378
-14560.09082 7446.03809 1177.19409 499
-14551.35449 7441.20703 1449.74060 499
-14571.39453 7450.64062 1720.01587 384
-14271.01367 7408.23486 631.73779 491
-14220.85449 7383.78711 893.23602 378
-14537.12109 7546.54492 1178.58398 463
-14527.99609 7540.85547 1450.72168 463
-14565.03125 7560.94971 1726.51562 366
-14225.63281 7493.32910 630.47443 491
-14180.18750 7473.31885 894.18579 446
-14543.85449 7662.04883 1185.38196 480
-14536.80762 7662.18604 1453.94531 463
-14586.66895 7686.90088 1731.67236 367
-14269.74512 7630.55371 365.79117 480
-14176.28223 7583.07471 628.92963 491
-14134.68262 7561.03125 893.70459 446
-14530.14648 7767.58594 1183.54846 480
-14547.25977 7779.64404 1457.97693 462
-14607.66309 7811.39209 1739.23242 366
-14226.31445 7719.59570 369.26801 480
-14131.18555 7671.06494 629.64642 491
-14087.23340 7648.19922 894.49854 446
-14509.50488 7877.40820 1189.60828 479
-14550.85254 7900.06250 1466.53979 461
-14178.83398 7809.81982 366.86960 480
-14085.07910 7759.93262 630.43146 491
-14038.98633 7735.53125 893.59351 446
-14493.67188 7981.06592 1189.78967 479
-14536.52148 8009.10938 1469.92175 478
-14129.98730 7897.42480 365.47778 480
-14038.58496 7846.57617 628.93164 491
-13996.25684 7821.97852 894.35767 446
-14477.95215 8090.10449 1193.30249 478
-14083.94434 7982.94043 368.92529 480
-13994.68359 7933.07324 632.41553 491
-13947.61426 7909.65186 894.56323 446
-14038.09180 8071.73682 365.53973 480
-13944.44434 8022.84277 629.08051 491
-13902.39844 7997.21875 891.26935 446
-13991.06445 8160.50537 368.08597 480
-13901.56152 8111.22070 629.56268 491
-13856.54395 8085.10352 892.35437 446
-13941.48047 8247.07715 367.45905 480
-13852.59961 8195.49316 628.62122 491
-13809.90234 8171.49268 894.33081 446
-13893.09082 8337.78027 368.89352 480
-13806.54883 8286.02246 631.00873 491
-13760.04102 8257.99805 895.86938 446
-13846.43652 8424.35840 367.35916 480
-13761.08398 8374.28711 632.35004 491
-13713.94434 8346.92480 896.00140 446
-13798.54785 8514.20801 369.72034 480
-13715.20117 8463.21680 629.87109 491
-13667.84473 8432.30762 895.90375 464
-13750.87891 8603.41895 365.86752 480
-13667.28418 8550.59863 632.55798 491
-13622.60254 8523.42676 893.85156 464
-13705.47656 8688.83105 366.57565 480
-13620.82812 8639.93750 633.37878 491
-13577.77441 8611.34375 895.17047 424
-13657.60742 8780.42871 369.37088 480
-13573.42578 8727.72559 630.00568 490
-13533.89160 8698.87402 895.27277 424
-13612.73145 8866.36035 367.03909 479
-13527.91406 8816.32324 630.28711 490
-13491.07617 8790.32324 896.22430 302
-13565.41992 8959.20898 369.92630 479
-13482.61621 8902.66797 631.52533 490
-13454.40723 8885.03223 896.39886 297
-13514.82617 9045.65918 366.38300 479
-13433.31543 8991.84082 631.68463 490
-13414.54395 8976.04102 896.06110 297
-13470.01465 9136.58789 369.99832 479
-13385.92285 9081.51562 633.76776 490
-13372.61719 9072.76855 899.42310 297
-13420.25586 9225.67969 370.47968 479
-13338.56055 9169.54199 632.37427 490
-13335.30176 9168.08594 900.82941 297
-13373.41992 9314.95898 370.59680 479
-13294.73047 9260.11035 632.87451 490
-13325.31836 9400.53223 370.34009 479
-13246.10254 9345.69141 632.59692 489
-13278.91016 9492.53906 371.17795 478
-13198.28711 9437.29688 635.31519 489
-13230.48730 9580.67285 371.60883 478
-13150.63379 9523.72949 634.82556 489
-14410.18359 10427.42871 976.15375 423
-13181.68848 9670.88574 369.50861 478
-13103.38086 9615.94531 637.10437 489
-14351.36816 10523.78809 978.90881 423
-13135.85742 9762.91406 368.18811 478
-13057.41309 9702.92578 634.44000 489
-14298.46582 10621.43945 977.52863 423
-13087.96973 9852.23242 369.80643 478
-13008.15723 9795.09180 635.75867 488
-14242.99023 10716.58984 978.16577 423
-13038.64844 9940.57031 370.27814 477
-12962.17578 9884.51855 638.69556 488
-14184.75684 10810.95117 978.20825 419
-12990.27930 10030.84473 372.63150 477
-12914.29199 9974.40039 637.14294 488
-14132.95020 10911.31836 979.53833 419
-12942.36426 10119.75977 372.72287 477
-12867.01367 10066.35254 638.03564 488
-14079.42188 11006.02930 982.17242 419
-12891.61035 10212.63574 371.11865 477
-12818.36035 10154.47852 638.86230 487
-12842.25293 10303.51562 372.12003 476
-12772.80664 10244.08594 639.46735 487
-12793.36230 10394.93652 374.16684 476
-12723.06543 10335.90234 641.46967 487
-12745.30859 10486.95703 370.92230 476
-12675.33691 10429.27246 640.60437 486
-12695.48633 10577.89160 371.09662 476
-12627.95898 10520.55957 642.09967 486
-12657.02734 10674.77441 375.32135 465
-12575.51855 10611.03320 642.95746 486
-12618.09570 10776.92773 375.53137 464
-12530.30762 10702.01270 641.90283 486
-12577.77832 10881.82520 374.83398 467
-12487.90918 10799.92773 642.64746 467
-12543.88867 10984.64844 374.49475 466
-12451.90039 10902.55371 647.17651 466
-12504.70312 11084.97168 376.70132 466
-12412.45117 11007.30273 645.19092 466
-12464.66699 11190.30859 379.02963 465
-12373.71973 11110.03223 650.23206 465
-12397.93750 11128.96191 922.07715 322
-12427.78711 11293.78906 377.94049 465
-12338.10742 11211.32324 648.96686 465
-12302.12402 11181.76953 919.66162 485
-12406.12695 11416.68359 379.79510 424
-12300.52637 11316.44629 651.69006 464
-12393.00879 11545.37988 379.65021 402
-12261.21973 11420.27148 650.69507 464
-12255.13770 11419.63379 928.85669 444
-12385.21973 11681.86035 379.00339 401
-12222.91602 11525.24023 652.83820 465
-12217.35742 11525.61230 930.31573 444
-12377.54688 11818.37988 384.77542 401
-12197.60156 11647.07812 655.93115 424
-12178.19043 11629.59961 930.48254 443
-12365.20117 11954.03320 385.09677 400
-12181.95117 11772.87891 656.30670 423
-12147.02246 11740.81250 937.28711 355
-12380.83789 12113.70996 386.62057 306
-12162.31250 11902.09570 663.09705 423
-12141.20898 12029.21191 662.41058 422
-12050.27930 11935.90527 949.45667 422
-12129.58301 12164.24316 667.15796 400
-12130.29199 12319.56934 669.59955 374
-12137.67188 12479.71680 671.46857 373
-12147.39551 12642.95508 674.78162 372
-39388.26562 46119.99219 7012.65430 1000
-29445.50977 36272.59375 6991.72559 1000
-1473.04529 2105.97217 84.31640 332
-1508.00354 2153.39746 127.30479 314
-1432.77429 2079.08081 85.80920 333
-1478.05896 2140.45825 127.30447 335
-1448.39648 2127.10742 41.34840 322
-1402.48132 2064.44434 85.71709 370
-1494.30835 2190.34106 127.76575 382
-1408.32812 2098.97046 43.53336 361
-1373.60071 2051.31006 86.38853 371
-1489.20190 2212.73535 127.82986 474
-1377.34338 2083.05127 44.39560 362
-1347.19434 2040.60986 87.25014 377
-1477.74890 2225.40552 127.54131 368
-1348.29614 2068.45581 45.49290 376
-1323.43188 2033.42627 87.53500 378
-1467.00012 2238.94727 127.53390 311
-1312.88293 2044.93042 46.74923 278
-1299.35815 2025.89050 87.64320 379
-1275.87512 2017.25391 47.94690 357
-1276.44287 2018.53772 88.31821 389
-36529.10547 54528.68359 -6440.28467 1000
-1251.00879 2007.44238 49.13498 358
-1255.75842 2014.39966 88.65948 347
-1226.99426 1998.09509 49.86707 367
-1235.13904 2010.66260 88.85267 347
-1203.78259 1989.66821 50.23674 368
-1216.11682 2008.47266 88.97202 353
-1270.20898 2091.22754 127.92858 426
-1182.15906 1983.07092 50.67903 425
-1197.06836 2006.33374 89.11406 353
-1244.57739 2080.31006 127.66077 427
-1162.10046 1978.73206 51.21085 426
-1181.02649 2008.49133 89.22232 291
-1241.89905 2103.95190 127.80201 387
-1142.69714 1974.99622 51.86804 427
-1162.60681 2006.24438 89.58972 311
-1225.79150 2107.22095 127.91619 390
-1122.73682 1970.16223 52.15499 428
-1214.57397 2118.12549 87.19836 422
-1232.79590 2147.89282 128.07896 385
-1104.01685 1966.03723 53.14844 430
-1168.71240 2073.13013 88.25341 431
-1228.45227 2169.95435 127.82203 384
-1084.80737 1962.29700 53.09706 431
-1144.85205 2062.14673 88.61531 432
-1223.91162 2193.14697 127.99491 383
-1065.87463 1957.79333 53.90268 432
-1125.28577 2058.50513 88.86816 433
-1125.84998 2059.15332 128.18521 433
-1047.07751 1953.97900 54.63318 433
-1119.00171 2076.88721 89.05907 418
-1117.93933 2074.86719 128.02411 418
-1029.03882 1950.28674 54.89344 434
-1112.99365 2095.21021 88.31288 435
-1010.78650 1946.06165 55.45596 435
-1045.05969 2006.92346 90.64981 436
-1108.88867 2118.27710 128.45166 485
-1106.72729 2115.10522 167.83435 436
-1100.37476 2103.82471 207.46404 344
-992.39252 1942.21484 55.91998 436
-1026.47974 2002.85388 91.01261 437
-1027.35510 2003.90833 128.69667 437
-1070.37671 2080.62964 206.03084 346
-997.56635 1978.72986 17.75556 426
-974.87811 1938.44543 55.97315 437
-1014.85742 2010.89111 91.14382 408
-1014.40271 2009.72754 128.23192 408
-1079.38708 2127.60303 167.93895 475
-978.80347 1974.59961 18.28861 407
-957.71057 1935.38550 56.60340 438
-1000.12439 2013.62244 90.78308 460
-1010.29816 2031.84924 128.30539 407
-1062.64880 2127.22168 207.80054 487
-960.70612 1969.90942 18.61138 408
-940.50879 1931.66309 56.62359 439
-1006.56348 2055.40210 90.15257 411
-1006.19116 2054.19434 128.18170 411
-942.59979 1965.50134 19.13655 409
-923.12439 1928.40601 56.95019 440
-1001.65613 2076.86133 90.19176 410
-1001.29022 2075.54541 128.43985 410
-925.09082 1961.05164 19.87883 410
-906.51453 1924.80737 57.84181 441
-997.36169 2098.90869 89.64684 409
-996.81348 2098.41821 128.73732 409
-907.30609 1956.40088 20.69059 411
-889.21100 1921.69666 57.89577 442
-992.55713 2121.47900 89.16020 407
-933.83179 2007.07471 128.83290 452
-889.91302 1952.33484 21.28336 411
-872.83868 1918.22412 58.41492 443
-987.49176 2144.44678 88.90952 412
-929.46429 2029.70300 128.69725 385
-926.45044 2024.17432 202.84724 332
-872.71130 1947.59070 21.99597 412
-856.18018 1914.43115 58.92216 443
-982.18958 2167.00122 89.11985 411
-924.29962 2051.08228 128.68030 384
-854.46191 1940.54163 22.78716 312
-840.30750 1911.57190 59.30646 444
-965.49902 2166.95825 89.07426 265
-919.84528 2073.62036 128.60838 383
-836.36389 1934.07446 23.58581 312
-824.26367 1908.34839 59.55330 445
-914.49774 2095.32739 128.42526 382
-818.73035 1927.34534 23.78030 313
-808.04016 1904.84058 59.63479 446
-909.27826 2118.61353 128.83733 381
-800.58185 1920.43689 24.56326 313
-792.52271 1901.87195 60.27134 424
-904.18652 2141.09912 128.85875 380
-904.13647 2140.01880 167.51129 449
-899.66064 2131.50562 205.60811 267
-783.47321 1913.64868 25.49783 313
-777.03937 1899.27502 60.38604 425
-766.17468 1906.99805 25.89805 314
-761.44836 1896.77319 60.51905 425
-749.13556 1900.67114 26.72673 314
-745.91089 1893.66504 61.27911 426
-732.74042 1894.68250 27.09632 399
-731.23505 1890.94153 61.47067 427
-719.25885 1895.82507 27.49503 353
-717.53143 1891.88232 61.58751 461
-707.55988 1900.31262 27.58380 353
-704.62189 1893.65100 61.69710 461
-695.36395 1905.20496 27.48057 353
-692.09723 1897.54199 61.57816 403
-714.85028 1986.15784 23.65742 262
-681.00409 1903.54810 61.63633 328
-734.04041 2033.37024 92.67925 456
-705.55450 1997.75000 23.35959 262
-724.20062 2043.49939 56.69597 385
-696.53552 2010.62341 22.97215 387
-718.87250 2068.27319 55.81025 384
-691.45953 2034.93311 21.89398 386
-714.19318 2092.48975 55.58197 382
-686.20984 2058.99854 20.70179 385
-708.61823 2117.94043 54.44978 381
-680.65027 2083.45483 19.86149 384
-696.74280 2125.66260 54.34521 456
-215.75858 856.95831 10.57448 394
-689.28064 2146.31738 16.84627 318
-680.88104 2122.66064 55.18276 436
-208.41475 853.63031 11.31030 450
-209.43706 856.70801 25.99895 450
-210.85358 860.58313 40.47270 394
-672.59467 2142.15503 17.11757 353
-666.15802 2123.76538 54.97124 465
-202.40703 853.40039 11.46454 487
-203.22147 855.81622 26.32371 487
-204.18311 858.35553 41.09573 487
-205.01718 860.99738 55.76978 451
-206.09004 864.22406 70.59280 450
-652.50140 2125.98706 55.27262 466
-197.04970 855.13269 11.67165 487
-197.92104 857.15796 26.19058 499
-198.65327 859.75958 41.11010 412
-199.29024 861.63287 55.91894 498
-200.13884 864.15918 70.78524 498
-201.05956 866.78009 85.53040 447
-638.31793 2128.04248 55.33535 394
-192.29137 858.91400 11.24954 452
-193.31686 861.35852 25.97478 451
-194.22278 863.93567 40.71212 389
-194.87878 865.98297 55.72354 451
-195.61072 868.65521 70.41318 390
-625.83966 2133.86035 55.25811 347
-188.85454 866.02789 10.43468 396
-190.20961 869.82947 25.09967 326
-9651.28125 64695.77734 7600.44824 1000
-3905.44238 28985.06250 4446.30664 1000
76.70111 10708.03711 2254.07056 1000
560.41846 28388.65039 -350.38608 1000
6755.29248 32777.23438 4522.75781 1000
1614.40747 6606.34863 -426.42279 1000
44699.05469 47049.18359 -13908.48828 1000
30501.11133 24485.49219 7887.00439 1000
28564.35547 19383.39258 129.32021 1000
2709.18677 1345.17249 -60.57456 292
2707.52368 1343.94788 -11.94559 427
2711.65234 1325.93213 -60.10007 445
2726.41431 1333.65930 -12.27960 322
2726.88452 1313.94824 -60.63618 438
2738.60229 1319.24890 -12.28595 342
2742.73706 1301.60266 -60.68357 430
2751.94702 1305.61694 -12.74002 366
2759.62915 1289.20850 -61.57448 424
2764.91650 1291.93201 -12.96393 387
2959.73120 1386.37830 28.42621 432
2775.75000 1276.83496 -62.01192 424
2779.17529 1278.46375 -13.17915 383
2791.83325 1264.11914 -63.02221 427
2793.87793 1265.44495 -13.70778 383
2807.91577 1251.72986 -63.23005 422
2808.97632 1252.41235 -13.81262 413
2825.43042 1239.49292 -63.60795 412
2825.12524 1239.41614 -14.88232 426
2844.45337 1228.30664 -64.94669 411
2841.39502 1226.47156 -14.95068 415
2864.77588 1216.82153 -65.71375 406
2859.84546 1214.85278 -15.65353 421
2886.38916 1205.57092 -66.63887 400
2879.55884 1202.49988 -16.01726 424
2908.55957 1195.25488 -67.59866 393
2900.82959 1191.55872 -16.63858 438
4151.40625 1723.94617 786.96454 1000
2932.57471 1184.68579 -68.75412 389
2922.21826 1180.84033 -17.96658 436
2960.95679 1176.00305 -69.93065 370
2945.88550 1169.68994 -18.41133 416
2993.96118 1168.71509 -71.53823 359
2974.77539 1161.18640 -19.78259 394
3028.95190 1161.98315 -73.56577 358
3007.89502 1153.66235 -21.20662 383
3064.98193 1155.18262 -75.46614 356
3043.67188 1147.17346 -22.13171 381
9600.59863 3624.93408 -1715.64551 1000
3101.27759 1148.18091 -78.05431 363
3080.95630 1140.51733 -24.37086 378
3138.83984 1140.56470 -79.70103 362
3118.95605 1133.57727 -25.36848 377
3176.12988 1133.76318 -82.27196 361
3156.12134 1126.16162 -27.30716 376
3214.72266 1125.88245 -84.01854 360
3194.18091 1118.98059 -28.85365 376
18780.22852 6600.84375 -5170.12305 1000
3253.16919 1118.15479 -86.64108 363
3234.42188 1111.16785 -30.67653 375
3294.76538 1110.90125 -88.34483 364
3274.40674 1103.60144 -31.71881 374
3338.32104 1103.42896 -91.60168 364
3315.81348 1096.10962 -33.60237 372
3380.98877 1095.06921 -93.62357 361
1644.90625 373.17477 -24.30038 450
1649.66138 374.59854 1.69611 451
1654.60608 375.52884 27.65362 394
1643.82996 362.95386 -23.94064 499
1648.54224 364.09824 1.79885 498
1652.74060 365.22131 27.66906 489
1649.87878 354.16165 -24.59269 452
2677.45947 -136.09932 -35.71466 469
2680.66016 -135.94377 6.38013 425
2680.99976 -152.15094 -35.75662 371
3692.32251 -412.22195 -43.10881 364
3648.36353 -429.25827 -41.06243 368
3633.41895 -449.30002 -40.40824 477
3621.89404 -470.44073 -40.69193 480
3611.66968 -490.31500 -39.96922 485
3713.98462 -504.54898 14.57823 461
3604.01562 -511.47940 -40.19502 485
3593.31787 -532.42859 -39.72655 490
3582.98584 -552.81006 -38.66451 409
3570.84570 -572.83289 -38.69161 490
3562.00830 -592.98053 -37.93524 493
3554.28638 -613.92596 -37.90874 493
3546.01440 -634.06409 -38.14434 493
3537.59521 -654.04242 -37.81008 495
3641.53906 -674.08740 16.58230 423
3530.88086 -675.10468 -37.38833 475
3635.22876 -695.05560 75.75677 327
3524.29272 -695.96417 -37.36320 476
3667.29175 -724.17889 15.77283 326
3571.21729 -704.71039 76.61395 355
3597.00586 -710.37531 134.86528 293
3518.04883 -716.65479 -37.17755 476
3605.66260 -734.86127 17.17754 327
3554.00269 -724.05286 76.46843 499
3573.43213 -727.87000 134.89935 424
3512.72827 -736.58185 -37.28276 476
3549.28369 -744.54443 19.03846 499
3551.10547 -744.80579 77.12335 499
3569.13550 -749.34174 134.66560 424
3506.28662 -757.97498 -37.16423 477
3545.20215 -766.69739 18.90458 499
3546.47388 -766.87952 76.47189 499
3564.48120 -770.71771 134.83133 424
3501.29297 -778.51971 -37.44394 477
3541.39526 -787.27124 18.98524 499
3543.92065 -787.66516 76.82358 499
3559.90942 -791.63745 134.68533 410
3496.12280 -799.45148 -37.09824 477
3538.03271 -809.38159 18.67719 499
3539.87183 -809.02106 76.86797 499
3556.37817 -813.83710 134.43086 424
3783.19141 -866.56543 197.20929 486
3785.41968 -866.92157 258.65295 330
3491.23291 -820.49408 -36.93878 477
3528.36353 -829.37476 18.46394 499
3529.54370 -829.63751 76.65912 499
3552.02490 -834.62805 134.49744 424
3486.52026 -841.16693 -37.06252 477
3526.28052 -850.55377 18.85669 499
3526.89624 -851.08655 76.95766 499
3548.43359 -856.31805 134.53224 424
3481.83203 -862.04486 -37.39280 477
3521.69751 -872.59784 18.90602 499
3523.21777 -872.94244 76.71843 499
3543.27856 -878.22601 134.71201 424
3478.18335 -883.43451 -37.10682 476
3518.22998 -893.34143 18.64830 499
3519.61328 -894.37958 76.19772 499
3539.33643 -899.42841 134.68907 424
3474.62402 -904.19507 -37.39056 476
3519.97900 -916.61969 18.68104 498
3520.43262 -917.15479 76.40131 499
3535.56982 -920.47211 134.12776 422
3470.11890 -925.92480 -37.79142 474
3516.56738 -938.65710 18.16950 498
3518.39014 -938.46985 76.38482 498
3531.56982 -942.41229 134.11841 423
3466.69458 -947.07025 -37.31898 474
3513.02466 -960.23926 18.52801 498
3513.85352 -959.97986 76.35108 498
3527.48120 -963.66608 134.36359 423
3462.29834 -968.56042 -38.20327 497
3509.29492 -981.45117 18.00394 498
3510.20679 -982.21338 76.77275 498
3522.42969 -985.35046 134.14680 423
3609.09546 -1009.84039 194.66695 443
3458.59448 -989.73584 -37.96963 496
3505.49512 -1003.69531 18.35548 498
3506.27100 -1003.19666 76.84234 496
3517.78345 -1007.45667 134.21681 423
3599.05566 -1030.54858 194.61720 474
3455.05127 -1011.34277 -38.43900 496
3501.51855 -1024.74756 18.09856 498
3502.53101 -1025.77417 76.10676 498
3513.66821 -1028.90515 134.54123 423
3611.37329 -1057.77490 194.32993 334
3451.54541 -1032.61206 -38.41207 496
3584.79663 -1073.92517 134.36514 443
3625.88281 -1086.34985 194.69302 483
3447.73999 -1053.67456 -37.86875 496
3631.31055 -1112.00293 195.60092 457
3443.52563 -1074.90552 -38.19984 496
3623.45898 -1132.57190 195.37804 425
3439.99902 -1096.57690 -39.04602 495
3435.57153 -1118.80164 -38.88490 495
3431.91431 -1139.90601 -39.28241 495
3045.56104 -1028.61096 -703.80353 1000
3428.74829 -1161.70288 -38.87563 495
3424.65234 -1183.43701 -39.66734 495
3424.94263 -1206.74768 -40.08264 495
3584.84253 -1264.36316 12.51521 482
3420.83130 -1228.39014 -39.93796 495
3415.60522 -1249.84509 -39.92297 482
3411.22876 -1271.24426 -40.04219 494
3409.85840 -1294.30908 -40.45795 494
3464.53125 -1315.43542 16.43053 284
3406.66553 -1315.95532 -40.48945 494
3457.37964 -1336.95789 15.76490 494
3400.31860 -1337.16455 -41.01506 494
3454.47754 -1359.51636 15.60602 494
3398.63086 -1360.48206 -41.71675 493
3494.96289 -1400.47754 13.63685 498
3442.88379 -1403.27380 -44.39852 493
3484.34326 -1419.51221 14.09915 498
3485.58301 -1445.31177 -46.27325 432
3473.24072 -1440.01428 14.08262 498
3666.86475 -1522.00745 70.65942 476
3486.37671 -1469.90637 -47.29140 411
3436.22729 -1448.74695 15.66869 295
35846.73047 -26057.26562 -2746.17041 1000
2136.21069 -1650.06665 -39.13867 493
2141.20142 -1654.62573 3.50943 464
2127.37183 -1663.47986 -39.07970 478
2132.89160 -1667.94983 3.58019 436
1313.87244 -1686.95398 -3.94745 427
1293.96619 -1680.66003 -3.07752 425
1291.12598 -1676.89465 30.99803 420
1279.65894 -1682.30115 -2.35655 426
1274.08337 -1674.46252 31.81202 435
1262.99756 -1680.58838 -1.77495 427
1257.19751 -1672.83948 32.26236 430
1246.69714 -1678.88550 -0.93265 427
1241.13867 -1670.78772 32.55126 440
1229.94861 -1677.15430 -0.50269 428
1225.11401 -1669.40515 33.01033 441
1213.65234 -1675.46667 0.26372 430
1208.73669 -1667.94788 33.86759 442
1225.35840 -1692.79126 65.90521 343
1197.85974 -1673.35217 0.65930 429
1193.17285 -1666.41187 34.49199 443
1224.37671 -1713.81580 65.22840 394
1182.01990 -1671.81104 1.71037 430
1177.23535 -1664.71082 34.53204 444
1222.10352 -1733.62195 64.52443 393
1165.78235 -1670.06982 2.21797 431
1161.50684 -1663.27734 35.30782 445
1169.09436 -1674.88318 67.37450 421
1150.06836 -1668.18799 2.81998 432
1146.54138 -1661.84399 35.86144 446
1153.56226 -1673.52368 67.39563 411
1134.61218 -1665.96436 3.30846 433
1131.23938 -1660.58362 36.29283 447
1138.59875 -1671.49622 67.75159 411
1119.41772 -1664.18225 3.87702 434
1116.17395 -1658.91248 36.37087 448
1123.19495 -1669.85388 67.78883 412
1104.15601 -1662.78247 4.71271 424
1101.02820 -1657.17114 36.90913 449
1107.97583 -1668.18799 68.37873 444
1089.47095 -1661.51465 4.99540 425
1086.41260 -1656.05664 37.31051 450
1092.58118 -1666.59302 68.55165 451
1074.94348 -1660.36475 5.74673 425
1071.66125 -1654.85425 37.53400 451
1207.09412 -1882.38452 60.33985 385
1060.83984 -1659.08069 6.24269 426
1056.96936 -1653.26074 37.94856 452
1202.67578 -1901.55017 59.98199 335
1046.15015 -1657.71008 6.99070 427
1042.41980 -1651.97742 38.65890 453
1024.01868 -1656.28345 10.90572 427
1020.36810 -1649.88269 42.39751 453
1010.16840 -1655.34265 11.66983 428
1006.02209 -1648.81458 42.92629 454
995.88159 -1654.39856 12.15394 429
992.23291 -1647.08179 43.55337 455
1142.69177 -1919.40723 64.51792 329
981.72675 -1652.50549 12.69207 424
978.39966 -1646.12634 43.54370 456
968.08112 -1650.71191 12.70832 424
964.38617 -1644.77539 44.05607 457
968.13989 -1651.46021 74.29142 459
954.02991 -1648.92603 13.39800 425
950.65460 -1643.41528 44.28472 458
955.03265 -1650.62146 74.86973 459
940.50513 -1647.29077 13.74597 426
937.55225 -1641.88623 44.77806 459
941.26825 -1649.33557 74.94843 460
926.83301 -1646.00098 14.39667 421
923.99274 -1640.55615 45.20176 459
928.16748 -1648.15906 75.07518 461
913.37433 -1645.00098 14.84816 422
910.76459 -1639.51208 45.54420 460
914.56818 -1647.44104 75.15736 462
900.66248 -1644.01782 15.49970 424
897.80603 -1638.23511 45.82089 467
901.35388 -1646.20605 75.58730 463
887.31586 -1642.86084 15.92113 425
884.93207 -1637.37292 45.93645 468
888.48022 -1644.84985 75.90163 464
874.63409 -1642.54895 16.00361 433
872.78491 -1638.18250 46.43612 479
876.18518 -1645.13733 75.85758 481
862.50519 -1642.44788 16.45083 434
860.79926 -1638.83533 46.25201 485
863.97668 -1645.86414 76.08238 484
850.56409 -1643.37964 16.45965 440
849.22919 -1639.68835 46.73190 485
852.37537 -1647.25903 75.87018 485
838.90045 -1644.37634 16.82689 440
837.61304 -1641.13977 46.90886 488
841.17706 -1648.85986 75.95626 479
827.43420 -1645.36230 17.30603 441
826.28143 -1642.87195 47.00155 489
832.50696 -1657.03406 76.17641 481
815.72449 -1646.87378 17.26826 441
814.71002 -1644.88318 47.24263 491
823.44543 -1664.11877 75.77360 481
804.65692 -1649.09497 17.67169 443
803.89014 -1647.35352 47.19598 491
818.79266 -1681.58118 75.26258 362
793.47833 -1650.78418 17.88257 442
460.07001 -1065.44922 -55.31211 494
816.61578 -1704.26941 74.59936 361
17393.82617 -40111.18359 11144.22754 1000
782.57513 -1652.86438 17.81917 443
781.76050 -1651.62048 47.47961 496
813.92255 -1727.73059 74.03756 359
771.32532 -1655.39746 17.79638 445
771.03717 -1654.23706 47.25593 495
811.48560 -1751.23840 73.46600 358
760.77893 -1657.72888 18.22521 445
760.41309 -1656.94934 47.60694 497
491.53870 -1198.51172 -40.53973 357
749.79547 -1660.73901 18.28376 447
749.86682 -1659.96582 47.68736 496
806.18567 -1800.10486 72.14820 351
739.10010 -1663.62231 18.10044 448
739.20227 -1663.32263 47.68626 496
803.75427 -1826.61694 71.59061 354
728.46118 -1666.28345 18.21574 448
729.04004 -1666.55933 47.71809 497
800.82581 -1852.35571 70.63088 353
718.38367 -1669.72693 18.29023 451
718.42645 -1670.39917 47.64702 495
708.04944 -1673.29150 18.34026 451
708.28082 -1674.48535 47.51870 494
697.92786 -1677.46826 18.40125 452
698.13721 -1678.45679 47.37331 487
687.69305 -1681.00891 17.92676 452
688.25806 -1682.92786 47.47285 487
677.51685 -1685.16431 17.88530 452
678.33514 -1686.88232 47.54927 487
667.31488 -1689.10620 17.91294 452
667.89185 -1690.89185 47.48444 487
657.12653 -1693.08557 18.26391 452
658.03424 -1695.58032 47.35839 480
647.09204 -1697.36133 18.11843 451
647.67004 -1699.59058 47.15774 474
636.59357 -1701.24402 17.80679 451
637.61340 -1704.06055 47.00703 474
626.49048 -1705.47742 18.06696 452
627.92291 -1709.28796 47.31387 453
616.38367 -1709.56799 17.90760 454
617.88397 -1714.04553 47.03178 453
2654.09814 -8398.41602 -1602.37463 1000
16438.31836 -53407.22656 -6218.16602 1000
606.14471 -1714.23010 17.50149 457
607.71698 -1718.71838 46.88872 453
596.38452 -1718.74084 17.53978 475
598.10645 -1724.04578 46.67790 434
586.33575 -1723.06641 17.66569 475
588.07629 -1729.08582 46.77227 434
576.44989 -1727.98792 17.14511 474
578.18085 -1734.49658 46.45919 466
566.50397 -1733.62024 17.08232 380
3313.28882 -16541.70508 -2347.07959 1000
9922.31152 -60173.12500 1199.88916 1000
-69.25158 -1842.73462 -109.41919 1000
-5768.26709 -46028.46484 7050.21533 1000
-14438.99219 -65433.45703 1270.42676 1000
-697.78027 -3161.27124 80.94997 376
-697.62775 -3160.52026 134.49406 437
-697.07483 -3159.27734 187.98380 479
-697.05939 -3159.36035 240.54358 479
-7206.93750 -21359.54297 4250.39941 1000
-1123.09131 -2576.24634 86.94711 462
-1122.10559 -2574.25195 132.98026 462
-1121.70605 -2572.27002 179.63466 493
-1120.37756 -2570.39575 225.97781 493
-1120.13660 -2568.57837 272.92520 493
-17077.27148 -27245.19727 4378.87598 1000
-39290.74609 -23068.33008 9206.86914 1000
-4656.27246 -2589.73315 219.99355 276
-4074.10718 -2141.13574 130.95174 498
-4083.38599 -2145.69141 208.97418 484
-3515.36914 -1715.93372 131.26953 474
-6756.79346 -2093.99048 1193.94360 1000
-258.28992 -77.21527 34.70779 320
-256.23257 -74.53368 35.46077 321
-59229.24609 -12692.40527 12193.96484 1000
-254.21552 -71.90774 36.11910 321
-252.16975 -69.21689 36.78017 322
-272.35471 -73.25249 37.74308 318
-252.79236 -67.12769 36.68656 352
-270.22522 -70.53448 38.42768 321
-254.73636 -65.24297 36.28915 351
-269.12872 -67.97460 38.82275 345
-289.93500 -71.89304 40.28756 318
-256.59912 -63.36115 35.81775 351
-270.91623 -65.98121 38.39266 345
-287.99854 -69.10660 40.87930 318
-258.43872 -61.54082 35.42731 351
-272.87833 -64.10242 38.01402 347
-288.88187 -66.93013 40.68357 341
-260.67911 -59.64307 34.88467 326
-274.96436 -62.11123 37.60314 347
-290.76266 -64.73923 40.33405 341
-280.40601 -60.62170 36.23946 323
-195.51283 -12.40380 53.26789 324
-195.46393 -10.58284 53.25494 324
-195.54445 -8.82710 53.29665 324
-195.45471 -6.99396 53.25426 324
-195.45531 -5.16688 53.25948 324
-195.44493 -3.44215 53.25139 324
-195.41003 -1.56517 53.30684 324
-195.40018 0.22301 53.32617 324
