# .PCD v.7 - Point Cloud Data file format
VERSION .7
FIELDS x y z rgb
SIZE 4 4 4 4
TYPE F F F U
COUNT 1 1 1 1
WIDTH 708
HEIGHT 1
VIEWPOINT 4168.704590 -4093.088867 132.995544 -0.000426 -0.134514 -0.004151 0.990903
POINTS 708
DATA ascii
-47055.63672 5419.45996 -4513.51367 1000
-276.53580 58.37835 33.51198 319
-270.32028 59.67225 35.09748 326
-284.74243 62.06607 37.73784 323
-265.91016 61.23314 36.14893 350
-280.40439 63.66836 38.82317 346
-296.60703 66.44192 41.48352 341
-263.97385 63.10616 36.58355 350
-278.47427 65.71159 39.14824 345
-295.00934 68.59781 41.79160 319
-262.01901 64.98440 37.00537 351
-276.65286 67.65520 39.53658 345
-260.17685 66.84352 37.47110 351
-277.00089 70.01649 39.36890 321
-258.96509 68.79781 37.63488 325
-279.01059 72.74658 38.72427 318
-260.83493 71.43678 37.02679 321
-262.83005 74.06458 36.32454 321
-49308.60156 16546.41602 12303.11426 1000
-9636.67578 11951.08398 3993.37793 1000
-8986.00098 29694.75586 6307.04834 1000
-473.86612 2016.30115 166.92162 1000
-8414.62598 38587.74219 -2460.01562 1000
-192.18893 1353.07263 -213.31369 1000
-290.28259 1946.04419 35.42648 421
-290.85480 1947.40149 67.83992 421
-290.95682 1950.15686 100.02294 465
-276.92670 1941.25269 35.76283 495
-277.51682 1945.10547 67.78838 497
-278.85132 1949.89917 100.41434 440
-265.67258 1945.83264 35.37379 474
-267.51050 1956.11365 67.64690 368
-5763.30811 42392.74219 -11337.79199 1000
-961.99921 39409.59375 4012.07471 1000
1191.62964 15418.85254 384.92535 469
1284.64368 15378.30664 385.74948 472
1378.76111 15342.52344 384.60059 473
1372.84180 15297.77441 634.68506 467
1469.09119 15308.14258 384.41357 476
1464.08167 15262.08105 635.03717 323
229.17703 1459.98523 36.73854 373
1558.44812 15277.95996 384.32913 477
1556.59680 15221.02051 633.23059 323
237.08931 1450.49902 37.10771 477
237.71873 1454.18164 60.99086 476
238.23219 1458.10632 84.85119 433
1651.36206 15242.07129 382.53363 477
1643.72070 15178.83984 632.91443 429
245.90195 1448.89453 37.30751 494
246.50615 1451.78430 60.94036 493
246.66162 1455.00256 84.99102 488
247.19589 1458.25623 108.69319 418
1742.85925 15210.65820 382.89706 477
1734.06262 15147.26660 630.03986 430
255.71198 1453.30981 37.16795 417
256.17093 1459.02942 60.67212 351
1833.75732 15179.48633 382.40625 478
1824.19849 15114.50684 631.35974 430
1926.14050 15146.32422 379.17514 478
1917.44971 15079.26074 627.19238 430
2013.18054 15116.02148 381.94821 478
2007.53931 15044.83301 630.34235 430
2104.12720 15086.50879 382.22427 479
2095.56787 15013.05273 628.26276 431
2192.66577 15052.04785 380.15582 479
2184.34106 14982.50781 625.90625 421
2282.48730 15022.01465 381.00562 479
2273.80444 14952.11426 628.37213 421
2375.23755 14988.54395 377.85507 479
2364.12231 14918.87793 627.60913 422
2460.75635 14959.34082 380.13596 480
2450.78174 14887.37988 623.89508 422
2550.11401 14926.33691 380.47034 480
2538.52026 14856.53711 623.54535 422
9112.47852 54680.17969 9278.08398 1000
2639.08960 14896.42578 377.77051 480
2627.01465 14825.47363 624.44659 462
2727.80591 14865.51953 378.47348 480
2718.78784 14796.51758 622.96851 462
2835.37646 14939.39453 130.29634 459
2816.60913 14832.71191 377.15677 481
2804.18921 14767.69336 622.88794 462
2924.36011 14907.77539 130.39499 459
2906.56201 14803.68262 378.96796 481
2893.42261 14736.54004 621.03131 462
3013.27539 14873.52637 130.82333 459
2995.60791 14772.90039 376.43570 481
2982.30933 14704.98730 624.32141 462
3101.07007 14842.23242 131.08029 459
3083.13623 14740.07910 377.92111 481
3070.41968 14674.90527 621.81116 463
3193.03003 14810.20801 132.45302 460
3171.72705 14710.98340 376.03577 482
3157.13525 14643.00586 621.14624 463
3277.30835 14779.24414 133.05292 460
3257.57764 14679.80078 378.13135 482
3241.99316 14612.72949 621.00433 463
3367.95898 14749.45703 132.83295 460
3345.30762 14650.20410 378.53815 482
3329.13403 14585.64062 621.80682 463
3981.57788 17510.79102 1307.37671 1000
3457.14282 14716.81738 129.94711 460
3433.62183 14617.82422 375.22372 482
3416.23413 14553.13965 619.46509 463
3543.70508 14686.05176 132.05899 460
3520.01050 14588.55566 375.62595 482
3506.44141 14522.44238 619.72858 463
3630.68579 14654.40430 129.95880 460
3605.51270 14555.42871 376.05835 482
3593.41479 14494.16602 619.46478 463
3716.45508 14623.22754 131.44571 461
3693.62476 14527.45605 376.78488 483
3677.90063 14463.24805 619.95612 464
3806.58716 14592.44434 132.25713 461
3780.56201 14495.68359 376.71829 483
3764.87524 14433.49805 617.54755 464
3890.80713 14558.89648 133.16278 480
3868.26489 14465.13086 378.48880 483
3851.34180 14404.81348 618.77563 464
3981.61548 14528.84082 131.48819 480
3956.28735 14435.66797 378.58441 483
3937.82788 14374.09766 621.15228 464
4067.38428 14497.20117 131.20337 480
4043.06323 14405.73438 376.71634 483
4026.74243 14346.02832 617.65015 464
4152.80957 14467.13477 132.39261 480
4128.96826 14373.29297 377.92032 483
4111.09473 14313.50684 620.73657 464
4240.67920 14438.71680 133.17307 480
4216.81641 14344.79688 376.48401 483
4198.23975 14284.81836 617.82410 464
4329.88965 14404.75000 131.51909 480
4302.15430 14311.26855 377.40317 483
4285.47363 14255.45117 620.54437 464
4416.94824 14376.14844 133.73686 480
4388.86426 14281.56250 374.15585 483
4370.63037 14224.02441 618.08575 464
4588.11621 14944.96582 899.35095 493
4502.71875 14345.80957 133.16177 480
4473.07715 14250.60840 375.02271 483
4457.69092 14197.13574 618.43030 464
4673.21729 14898.87012 899.66321 494
4590.21973 14312.84180 134.14828 480
4558.67139 14220.42480 375.93500 483
4543.90625 14167.55762 617.93579 464
4758.86719 14850.54688 895.67102 494
4677.88330 14284.92480 131.12546 481
4646.60107 14193.03027 375.89554 483
4628.35986 14137.28418 618.08557 464
4840.88086 14801.81738 895.29004 494
4764.13770 14252.54883 130.59058 481
4733.79199 14159.63867 375.31516 484
4714.65625 14108.93555 620.02460 464
4929.42969 14754.46289 895.68970 495
4851.42236 14223.78809 131.02847 481
4817.37012 14129.70703 374.06216 484
4802.34277 14079.52148 617.18976 464
5012.95801 14709.66016 893.79871 495
4935.77686 14191.28418 132.30247 481
4906.49072 14098.65625 375.55923 484
4886.98242 14048.21191 618.35730 464
5095.57666 14662.35352 895.03711 495
5024.34277 14162.89062 133.61826 481
4992.38672 14071.56641 375.62585 484
4975.48438 14019.57129 618.63916 464
5180.90332 14614.86719 891.17078 496
5108.64648 14129.94043 133.70001 481
5077.96484 14039.81348 377.57559 484
5060.02734 13989.51465 617.46124 425
5266.07031 14565.70898 891.74200 496
5199.10547 14099.25391 132.04041 481
5165.56299 14007.77539 376.68405 484
5145.73340 13960.12695 620.25952 425
5350.00635 14519.51855 893.05847 496
5284.26758 14070.25977 131.71570 481
5248.63867 13978.41992 375.94199 484
5231.69678 13930.23242 616.49957 424
5439.84619 14483.89258 889.45837 499
5372.77783 14038.19336 132.89897 481
5337.10645 13947.36816 376.10229 484
5320.31592 13899.22656 620.19537 424
5525.77100 14452.59473 892.29419 499
5457.24316 14007.34375 133.93396 481
5423.62012 13915.69434 376.97305 483
5407.19092 13873.25586 620.18054 424
5615.09912 14419.90430 891.98029 499
5543.32129 13979.44824 133.79314 480
5508.41309 13886.14648 374.62009 483
5490.54688 13841.02051 618.36639 424
5704.16113 14388.27734 892.13953 499
5630.59375 13948.35449 133.79440 480
5596.13916 13855.91992 376.94147 491
5579.15234 13813.43457 618.31702 424
5793.23535 14358.67188 889.84174 499
5716.38379 13917.16992 131.80440 480
5680.54053 13827.60645 376.44757 491
5666.25098 13782.56543 620.27618 424
5884.48389 14322.86523 889.98065 499
5805.75439 13883.74707 132.35558 480
5767.28662 13798.62598 375.49344 491
5749.19775 13754.36816 621.19989 424
5973.14111 14292.87891 891.23566 499
5890.40332 13856.70703 131.89090 480
5855.78516 13768.21289 375.62997 491
5839.49268 13723.73730 618.86218 424
6062.27539 14259.27246 893.90344 499
5977.78662 13825.80078 134.15654 480
5942.25635 13737.68066 378.74155 491
5924.78076 13694.55859 621.65063 424
6111.08105 14131.96289 888.59448 418
6065.86133 13795.51855 134.27258 480
6026.79834 13707.97363 375.57321 491
6012.36182 13665.26953 619.44513 424
6196.72021 14096.31348 886.61310 404
6256.05273 14233.55957 1148.80042 499
6151.85449 13764.99414 132.75107 480
6115.08984 13675.72754 377.21786 491
6098.60986 13637.71973 619.91803 424
6286.39160 14064.71582 886.75934 404
6348.64160 14202.87500 1148.28235 498
6425.21338 14373.46875 1420.31421 469
6241.21631 13731.27930 132.55154 480
6204.09912 13643.99512 378.93283 491
6185.47754 13605.28223 620.07739 424
6377.18213 14032.64258 889.43878 404
6438.20752 14167.40137 1150.03503 498
6493.84521 14297.66504 1415.37830 483
6328.23291 13700.35059 134.42645 480
6287.83203 13615.12305 377.32770 490
6273.38379 13578.80371 618.99310 424
6466.42578 14001.50781 887.65961 404
6528.15430 14137.30469 1152.06360 498
6602.00488 14296.04297 1418.63708 349
6417.55176 13669.14941 132.72527 480
6378.05225 13585.01660 376.89481 490
6357.66260 13545.48535 619.47510 424
6598.29980 14065.92480 892.89392 498
6604.40039 14081.40625 1149.00281 469
6613.07324 14096.11523 1404.71790 373
6503.88135 13640.02148 132.83588 479
6462.18750 13554.06934 376.89990 490
6447.85596 13517.96875 621.16034 423
6671.14844 13993.95215 890.72870 470
6672.51123 13995.57129 1146.99146 470
6677.53809 14004.81641 1403.67383 373
7110.77002 14695.37793 -2830.77393 1000
23166.58984 48294.14062 -5139.97314 1000
6591.93359 13607.20898 131.59335 479
6550.46094 13523.69336 377.17102 490
6535.13672 13487.55957 621.29260 423
6736.76758 13907.70215 889.76233 470
6733.85254 13907.16504 1143.92493 470
6737.28711 13912.81836 1397.43396 373
6678.03125 13575.82031 132.19897 479
6638.37012 13493.46094 379.15985 490
6623.55859 13459.21484 623.61035 423
6801.05420 13825.35645 888.27081 471
6798.21436 13824.05859 1140.10535 471
6799.74658 13822.60449 1393.99207 374
6767.90820 13548.80664 132.16113 479
6725.56348 13463.36035 378.01419 490
6711.51660 13427.61816 621.81403 423
6863.34131 13742.03027 884.43439 498
6862.13379 13741.45117 1136.12158 498
6863.21484 13742.30078 1389.74365 497
7147.64600 14320.01465 1704.59912 263
6855.30420 13516.41309 132.09055 479
6815.00293 13433.87988 377.19293 489
6798.83301 13402.63281 621.57208 301
6953.99902 13712.10840 887.59589 498
6953.25439 13708.64062 1139.74414 497
6951.94873 13707.57520 1388.71277 497
7101.14893 14002.19434 1674.48633 479
7313.81836 14430.11230 1988.49634 468
7310.95898 14428.59082 2256.14258 468
6943.06689 13482.59375 133.85004 479
6900.00000 13401.36328 380.14209 489
6887.61475 13375.87695 623.89441 301
7028.93115 13654.12109 886.15216 497
7029.27832 13649.99707 1137.09656 497
7041.61816 13678.32910 1391.38391 390
7134.22412 13858.36719 1664.32141 345
7130.83057 13855.79004 1922.99426 345
7131.88965 13857.38184 2180.26440 345
7030.91895 13452.00098 132.92535 478
6991.52344 13368.89160 381.05493 489
6978.26855 13350.27832 623.88184 301
7119.35400 13620.89941 883.92468 497
7117.78271 13616.95312 1137.39209 497
7131.85596 13645.52441 1390.95190 390
7281.25391 13936.39746 1676.88062 478
7118.41162 13422.50684 134.56215 478
7076.06787 13339.82324 381.42026 489
7068.81348 13323.06055 623.63391 301
7207.86670 13588.84961 885.90155 497
7205.23535 13586.81738 1137.77087 497
7222.36719 13614.58984 1393.58716 390
7346.25684 13852.78027 1672.72192 467
7208.74951 13389.67090 134.46376 478
7167.93164 13308.05273 379.51184 489
7155.77783 13292.95215 625.79657 301
7298.85303 13554.44727 887.88190 497
7297.05225 13551.89648 1138.36157 497
7311.66260 13588.21191 1393.96033 390
7465.93750 13872.46094 1677.94946 469
7298.58203 13360.58887 134.91206 478
7256.21484 13279.37988 378.16809 488
7249.20020 13267.11719 624.73145 296
7385.29980 13524.65527 888.56958 497
7387.18164 13523.13086 1140.72437 496
7404.10205 13557.64355 1394.87439 390
7557.87793 13836.11914 1683.01758 469
7386.39404 13327.08984 133.64062 478
7344.75146 13247.63281 380.18588 488
7338.50244 13240.96289 626.46606 296
7476.94580 13490.37891 886.75201 496
7473.63379 13488.36035 1142.17554 496
7495.42188 13523.62988 1399.12073 390
7650.46143 13804.44824 1683.30444 468
7478.20117 13298.91992 131.23798 477
7429.81982 13217.86426 380.84659 488
7431.55127 13216.44531 629.47565 295
7565.68896 13461.51367 891.21497 496
7563.18896 13456.38184 1141.55225 496
7584.09912 13496.89160 1398.99316 389
7739.29688 13774.23242 1686.44714 468
7566.15039 13264.74609 133.77505 477
7522.46143 13187.15137 380.08401 488
7521.56982 13187.35840 628.89435 295
7655.00391 13425.04688 891.24500 496
7655.63379 13423.63867 1144.22388 496
7677.88574 13464.58203 1399.95154 389
7833.39111 13740.01953 1687.86328 468
7653.96143 13232.42383 134.23276 477
7610.59180 13152.45703 379.18533 487
7613.55957 13164.23730 628.32397 295
7762.45215 13420.43848 893.98291 496
7760.43457 13416.89062 1144.54932 495
7627.62598 13184.89941 1379.44836 390
7927.14111 13707.16699 1689.50940 468
7745.66748 13203.60156 133.63313 477
7699.43311 13124.75391 381.19656 487
7830.70215 13346.92285 639.02838 496
7850.84375 13389.32812 894.56635 495
7842.40820 13369.29883 1144.11609 474
7678.56104 13089.42383 1375.81787 495
8020.67676 13677.80176 1688.48535 468
7836.01123 13169.83984 119.42406 476
7787.37256 13090.54590 368.35205 487
7921.07715 13314.68457 625.67377 495
7849.46924 13192.51465 874.50922 457
7830.86328 13161.73633 1121.07129 326
7770.32812 13056.35449 1364.76599 495
8114.29736 13643.08301 1678.80945 467
7923.67334 13138.24219 122.73438 476
7877.34131 13060.49023 371.87476 487
8009.70361 13283.03027 628.40460 495
8037.16553 13322.87695 881.83539 495
7923.00293 13128.85059 1124.73096 441
7860.42188 13024.61426 1363.08154 494
8207.21973 13609.06543 1682.79785 467
8017.34766 13104.49414 120.07808 476
7968.54150 13028.94141 371.38727 486
8100.47949 13247.58984 627.15247 495
8126.66504 13290.58594 884.35754 494
8126.52051 13287.36328 1137.53650 494
7947.43164 12993.18750 1365.80151 494
8302.74707 13576.39355 1681.86499 467
8105.04248 13074.06836 121.31973 475
8058.24121 12996.26660 372.67343 486
8191.90381 13213.36035 626.51483 494
8219.57129 13257.33301 885.04755 494
8219.31934 13255.96582 1141.48767 494
8037.67432 12961.04199 1369.82947 494
8403.15918 13556.32715 1688.70227 440
8198.12598 13040.70703 120.86669 475
8148.72803 12967.73242 370.78488 486
8282.86426 13182.99512 627.75330 494
8334.41895 13262.31836 886.48975 429
8334.45801 13261.07129 1143.81128 429
8361.69336 13306.93164 1406.48853 343
8289.56152 13011.51270 121.26687 475
8238.68066 12933.03125 373.01257 485
8377.22559 13149.46484 628.84686 494
8460.22754 13283.55566 892.10101 456
8466.04785 13290.57617 1150.00903 427
8505.48145 13354.04688 1417.43628 343
8380.57617 12979.06055 121.68195 475
8333.32422 12903.58203 370.47565 485
8469.20410 13117.34961 631.77106 493
8574.12598 13284.03125 894.91943 456
8595.64453 13316.30176 1157.06702 426
8653.45605 13405.13672 1425.90845 342
8471.98438 12947.07422 120.32066 474
8421.21680 12868.56543 370.38110 485
8559.97168 13081.92773 633.38159 493
8689.10352 13282.33008 896.16736 455
8721.47656 13334.46094 1161.35852 454
722.98077 966.76276 17.98263 374
8561.78027 12912.35742 121.61236 474
8513.87500 12838.30859 374.39795 484
8666.81934 13071.40430 631.18115 396
8805.15234 13280.75977 899.74182 454
724.62909 956.81512 18.87349 478
726.12292 959.11041 37.48889 435
728.01746 961.75305 56.38222 435
729.64996 964.48212 74.99371 428
8656.88574 12879.86523 122.12449 474
8605.26562 12806.69824 371.42145 484
8797.90820 13096.01074 636.53192 395
729.36218 951.06378 18.83297 498
730.60486 953.04199 37.85575 498
731.96545 954.98810 56.58772 497
733.32294 957.03516 75.21356 497
734.84277 959.07117 93.89627 497
8747.39844 12849.34570 121.98351 473
8697.54102 12775.59180 375.18555 483
8930.60254 13121.33496 639.71448 394
735.60999 947.57159 19.02660 494
736.90137 949.64368 37.50507 493
738.59198 952.00769 56.35629 465
740.30176 954.50922 75.26863 465
742.12274 957.65460 93.83753 415
8841.85156 12817.73926 123.05064 473
8792.93750 12740.82324 375.04373 483
9051.73438 13126.95312 641.08118 390
743.58490 947.06274 18.55079 415
745.75452 950.33807 37.28323 415
750.47516 957.08746 55.71405 274
8933.82129 12783.78906 120.97411 472
8882.13281 12707.24512 375.39319 483
9166.34766 13120.14258 642.95392 389
9026.12402 12750.11719 122.23351 472
8976.61719 12677.78516 375.40082 482
9282.08984 13115.00195 645.09790 389
9123.61133 12714.95996 121.12169 472
9069.01465 12643.45312 373.91101 482
9216.23828 12682.23926 121.50244 471
9162.08203 12612.50781 375.85260 482
9308.63965 12649.01855 122.46329 471
9255.56055 12576.80859 374.21030 481
9405.05273 12614.70605 122.27161 470
9352.06250 12546.05566 378.60883 481
9500.39160 12585.08398 122.32320 470
9447.67676 12512.99121 378.87994 480
9596.27539 12551.79004 122.98260 470
9541.25977 12479.85938 379.12317 480
9692.39258 12517.14355 122.61938 469
9637.63770 12446.70508 378.44128 479
9785.54883 12482.43457 122.26833 469
9731.59570 12412.39355 380.54337 479
9882.65820 12447.32324 119.93621 468
9830.87012 12377.43164 380.37900 478
9979.54688 12413.51953 121.66950 468
9925.74512 12346.29785 379.19427 478
10077.12793 12379.38770 119.60438 467
10023.97461 12310.95508 380.13394 477
10174.10645 12346.39746 123.52201 467
10122.00000 12278.86133 381.71246 477
10272.41699 12310.31543 121.99062 466
10215.96680 12240.96484 380.01938 476
10373.15039 12276.88574 120.57094 466
10318.67480 12208.36621 381.10028 476
10472.29785 12242.37402 122.87076 465
10413.68555 12171.26074 382.51865 475
10428.55273 12187.24805 645.08429 418
10570.61914 12205.91895 119.89132 465
10516.45898 12140.79004 382.12115 475
10525.36035 12153.77734 647.92841 419
10673.06445 12169.95996 123.02470 464
10612.23145 12103.85938 385.22546 474
10624.35059 12116.21777 649.32092 418
10774.84180 12136.56348 119.93887 464
10715.62891 12069.78418 385.63770 474
10727.60938 12083.10742 650.58191 418
10876.03223 12099.54883 123.57314 463
10815.24902 12031.59082 386.71429 473
10826.92285 12042.58398 650.74084 413
10974.73926 12061.05566 119.44545 463
10918.74414 11996.78516 386.22842 473
10924.11816 12010.24316 652.44641 427
11078.67969 12029.03906 122.58157 462
11018.72559 11961.27441 387.32083 472
11030.84766 11976.40137 654.85052 386
11178.58105 11988.82422 120.03888 462
11121.29688 11928.06543 389.57703 471
11138.86328 11944.19629 652.16504 386
11281.94434 11955.27637 121.38512 461
11221.57031 11889.21973 389.71829 471
11387.83594 11918.27832 122.76990 461
11326.19141 11854.35254 390.75650 470
11492.14551 11879.40820 120.63824 460
11428.77734 11816.55566 387.88779 470
11597.50488 11846.60449 123.44570 444
11533.48633 11780.15039 389.52548 469
23526.81445 24123.44531 6229.66211 1000
11713.58691 11820.93457 124.03429 444
11638.44238 11743.54883 391.82590 468
11834.20508 11794.66406 122.53533 443
11743.92285 11706.30469 391.51996 468
11954.72070 11768.89355 121.90878 443
11862.28223 11680.15918 394.12860 443
12077.65137 11745.56348 120.52548 442
11982.28516 11655.61621 395.64471 442
12197.89551 11720.13379 120.27660 441
12101.57812 11629.01074 394.64191 441
12324.46289 11697.97363 121.13457 440
12223.35059 11602.38184 395.50400 440
12465.91406 11689.52344 122.88886 393
12348.21484 11577.73242 398.90106 439
12627.50586 11694.11914 121.34732 371
12471.76465 11554.68262 400.67563 439
12796.57422 11709.04199 121.02854 370
12598.38574 11531.23730 399.39316 439
12970.32227 11726.59473 120.52396 369
12746.47070 11521.54102 401.41159 393
13189.49902 11781.35254 123.20790 276
12907.86426 11524.11816 403.37317 392
13066.83203 11527.62012 407.75510 391
13235.46289 11530.92188 409.61572 368
13436.87500 11567.51660 413.02673 341
13658.83887 11613.15234 412.18243 340
36496.66406 23161.00000 -7742.83887 1000
17778.30469 8149.05273 3012.49658 1000
3653.14673 878.56354 11.33425 469
3664.76514 880.94177 71.46072 426
4928.65967 -406.58710 51.70950 370
4936.32520 -436.15918 -27.32220 436
4913.29883 -434.64914 52.35444 440
4911.36914 -464.71204 -26.52970 415
4889.74854 -492.49152 -25.77917 478
45688.81250 -4961.78516 -9781.98047 1000
4875.04590 -520.75763 -25.52976 479
4863.03076 -548.18726 -25.62909 491
4854.21924 -577.45477 -25.85146 339
4838.34082 -605.12189 -24.83903 343
4825.15576 -632.71771 -24.23298 344
4812.88428 -660.73468 -24.11117 344
4882.75244 -670.95978 52.51249 499
4805.35986 -689.60498 -24.52223 445
4876.61572 -699.01874 52.69407 361
4799.78564 -718.21851 -23.74344 445
4793.94141 -747.17462 -24.13375 445
4790.30371 -775.57532 -24.16214 444
4787.78809 -804.86469 -24.06967 444
4872.03516 -818.74969 51.95794 498
4927.04834 -828.67413 132.51773 484
4786.14502 -834.14496 -24.41986 444
4920.31201 -858.26337 132.29921 258
4783.55225 -863.85992 -24.59798 444
4781.54688 -892.51270 -24.89175 443
4927.01807 -920.96082 51.30600 498
4779.45898 -922.46271 -24.96745 443
4831.48633 -932.80670 52.66885 497
4778.58350 -952.12097 -24.15493 443
4775.71582 -981.36877 -25.22983 443
4998.55371 -1027.68567 50.30874 333
4989.33789 -1025.66296 131.48395 388
4773.25732 -1011.26001 -24.45545 443
4772.48291 -1040.92822 -25.35014 443
4769.84863 -1071.16724 -25.51419 442
4768.33789 -1100.31580 -25.64626 442
4765.61914 -1130.25146 -24.91467 442
4764.05127 -1160.78088 -26.13188 442
4761.27686 -1189.74597 -25.48105 442
4759.06885 -1219.93909 -26.30071 441
4762.30762 -1250.81592 -25.69032 418
4773.29053 -1285.44507 -26.62696 326
3771.45044 -1929.77380 -3.96459 484
44775.92578 -31738.35938 11970.83203 1000
4786.55127 -4974.28369 20.05731 418
4730.28076 -4974.63770 21.16278 419
4674.64355 -4975.43359 21.40488 326
4619.10010 -4976.47510 23.07505 419
3548.68896 -3848.13672 -37.36175 498
4578.70654 -4992.28418 23.43605 484
763.42523 -1032.28894 -9.71513 300
763.50989 -1032.53455 10.77810 300
763.58759 -1032.37976 31.05700 300
763.91309 -1032.63684 51.50756 373
763.76086 -1032.81970 71.66141 373
763.99365 -1032.92505 91.72774 373
764.00226 -1033.13940 112.22638 373
763.94830 -1033.26501 132.32469 373
764.29858 -1033.15271 152.62933 373
764.42505 -1033.41541 172.83118 373
764.30872 -1033.51917 192.82840 373
764.34558 -1033.86182 213.12392 373
754.95966 -1033.08728 -9.11875 493
755.11450 -1033.28271 10.99051 493
755.14435 -1033.58716 31.39383 493
755.32196 -1033.53467 51.57186 494
755.52264 -1033.98291 71.79221 494
755.48279 -1033.95483 91.99174 494
755.80963 -1034.11853 112.13903 494
755.78314 -1034.34436 132.16623 494
756.01648 -1034.59058 152.54869 494
756.19849 -1034.79895 172.75192 494
756.32550 -1034.80664 192.76549 494
756.27295 -1034.96118 213.12068 493
3202.40283 -4961.04248 -59.86643 425
3076.65039 -5905.01367 31.61621 402
3026.49780 -5895.10254 32.10688 392
2978.47461 -5887.32910 31.61118 378
2933.00122 -5886.36572 32.89492 337
2975.05273 -6068.97070 29.73046 496
2844.85156 -5888.15625 32.98165 441
2794.07080 -5874.63867 33.71803 442
2794.55420 -5874.84473 140.24730 477
2749.81885 -5870.85693 33.12609 478
2750.44165 -5874.75488 138.68489 478
2702.89233 -5864.93066 33.77557 478
2705.00537 -5868.85889 139.53874 478
2660.12573 -5865.89404 33.70089 479
2661.31836 -5869.60645 138.50450 479
2617.09717 -5865.60449 34.11002 347
2618.76660 -5868.99316 138.86624 479
2578.44751 -5872.15186 34.99388 480
2578.69702 -5875.34473 138.42902 480
2534.84961 -5871.97900 35.19345 481
2537.18115 -5874.51416 139.03604 481
20944.68750 -50040.05078 8236.75000 1000
1369.59424 -3128.15186 25.36492 292
1450.39014 -3323.45776 77.32160 450
2493.89331 -5874.57861 140.04681 481
2500.87012 -5891.77148 242.68340 479
12446.83301 -30166.56055 7772.47021 1000
1367.51221 -3179.05127 -32.91446 295
1320.13782 -3061.61914 27.92853 415
1419.85852 -3306.71997 78.19876 465
2491.86523 -5972.05615 140.25948 342
2494.50391 -5980.87500 244.44414 477
1345.14270 -3178.66553 -31.64364 295
1304.38025 -3077.16235 27.08158 421
1396.05042 -3308.42285 78.06380 465
2493.69995 -6083.19922 139.21333 340
1322.67834 -3178.26196 -31.24524 295
1292.02332 -3098.87988 26.65989 419
1373.68445 -3309.42993 77.78709 466
2423.81274 -6013.69580 244.24248 486
1299.72168 -3176.76514 -31.44971 295
1278.68225 -3122.96289 26.87521 415
1351.06775 -3311.13989 77.75317 466
1277.32935 -3178.38086 -30.54750 387
1266.29980 -3147.86914 25.69873 413
1327.54041 -3311.93042 77.76115 466
1266.46411 -3207.87524 -31.82485 377
1253.74341 -3174.39502 25.06473 419
1305.37744 -3313.59155 78.35047 467
1255.83838 -3241.66846 -32.87307 357
1241.28223 -3201.06030 24.48042 411
1282.36292 -3315.35303 78.52498 467
1246.77539 -3278.57202 -35.15030 358
1229.84778 -3231.31885 23.33200 399
1260.43188 -3315.76855 78.82093 468
1238.45435 -3319.19263 -36.38584 335
1219.45471 -3264.59326 23.03473 389
1237.85254 -3316.92163 78.35667 468
1209.90332 -3302.81226 21.75649 375
1219.29810 -3331.54517 78.06682 465
1202.25110 -3347.15234 20.58429 359
1208.51819 -3366.62622 77.94475 353
1201.42993 -3415.78491 18.78023 315
2048.88770 -6011.62305 35.89489 498
1202.04456 -3490.15845 16.32836 313
1208.55945 -3583.80225 13.48649 311
1217.51562 -3692.32739 9.65072 303
598.68677 -1871.62280 389.76285 1000
252.41400 -1533.74207 209.71596 338
242.56340 -1528.82019 7.57464 499
242.47342 -1528.89429 33.07161 499
242.30864 -1529.53638 58.27222 499
242.46280 -1529.75549 83.22250 499
242.71370 -1530.02539 108.77387 483
242.69376 -1530.37512 133.78206 483
242.71832 -1530.90454 159.09042 483
242.57309 -1531.15308 184.06773 443
242.61427 -1532.00830 209.23607 443
-260.12610 -2032.98584 -1.19315 398
-259.64795 -2032.17566 32.97705 398
-259.62170 -2032.21228 66.64998 398
-259.48199 -2031.76672 100.24778 398
-259.34341 -2031.15881 134.28699 399
-259.75458 -2030.50012 167.82317 453
-259.31021 -2030.49963 201.81323 453
-6920.38916 -23807.24023 5090.38086 1000
-37454.58594 -31332.40430 948.82111 1000
-53151.05078 -39157.05078 -6357.82764 1000
-40930.26953 -27899.91211 956.96448 1000
-16187.39258 -5193.77490 693.25287 1000
-263.29495 -74.87395 36.18865 321
-261.30530 -72.21083 36.81738 321
-259.40585 -69.55861 37.50755 324
-279.62103 -73.63306 38.56973 318
-259.62936 -67.38412 37.57339 349
-277.55484 -70.80058 39.16669 321
-261.53079 -65.54827 37.13775 351
-276.13666 -68.20590 39.61947 345
-263.45221 -63.62765 36.68306 351
-277.87766 -66.26856 39.26630 345
-295.42596 -69.42226 41.53009 319
-265.35913 -61.78000 36.29938 350
-279.76099 -64.29495 38.91034 347
-295.89954 -67.12090 41.60259 340
-268.77954 -60.11882 35.48656 326
-282.92221 -62.50565 38.21767 324
-274.62756 -58.76564 33.97749 320
-288.67258 -61.10152 36.83735 323
