# .PCD v.7 - Point Cloud Data file format
VERSION .7
FIELDS x y z rgb
SIZE 4 4 4 4
TYPE F F F U
COUNT 1 1 1 1
WIDTH 1014
HEIGHT 1
VIEWPOINT 7008.532227 -2105.792969 140.133484 -0.637698 -0.111212 -0.095926 0.756155
POINTS 1014
DATA ascii
-17372.13281 1342.37012 701.00592 452
-17234.53516 1333.39856 981.10858 457
-17305.33789 1447.25171 698.89441 452
-17174.75000 1433.05408 980.98328 472
-17244.83398 1548.90259 699.66693 462
-17116.02930 1535.36365 977.58228 474
-17186.67578 1647.87366 698.92029 463
-17061.58398 1637.50562 974.65717 474
-17130.66211 1751.02344 696.78406 463
-17005.35742 1736.43738 975.27216 475
-17069.97852 1852.18250 696.25165 464
-16947.94336 1836.90491 972.62335 476
-17017.03906 1953.81177 692.61633 464
-16894.14648 1939.19629 969.04504 476
-16958.08398 2053.18018 692.03937 465
-16837.01758 2033.62390 965.08899 477
-16904.51562 2148.38916 689.59509 466
-16781.98047 2134.18628 967.19043 477
-16847.86719 2247.82300 689.85052 466
-16731.48633 2232.42139 961.71008 478
-16794.02344 2346.29028 687.28003 467
-16673.93555 2328.40234 961.22552 479
-16739.31641 2446.64136 687.28400 467
-16619.20117 2429.04688 961.87311 479
-16681.91992 2540.90601 685.39240 468
-16568.93750 2523.08765 958.89136 480
-16627.70703 2638.85132 685.11127 468
-16515.18164 2621.26831 959.02570 480
-284.59009 61.63163 37.29930 323
-16576.70703 2734.83325 685.28461 469
-16459.39258 2714.81055 956.77393 481
-265.00119 60.67732 35.84769 350
-279.59830 63.08654 38.52019 347
-295.67209 65.86971 41.18379 341
-16520.40039 2830.75952 683.24969 469
-16409.63281 2812.60303 952.01495 481
-263.12650 62.53139 36.36290 351
-277.48035 65.10435 38.85292 347
-293.70068 67.92561 41.57395 340
-16465.57422 2928.20679 683.58594 470
-16355.37793 2906.40649 952.67987 482
-261.14255 64.40877 36.72111 351
-275.71045 67.12771 39.28300 345
-294.67505 70.60844 41.18573 318
-16413.43750 3020.60620 682.11725 470
-16300.87500 3003.02295 949.85150 482
-259.19351 66.35103 37.12682 351
-275.06638 69.35358 39.31997 321
-16361.77148 3119.01611 679.80157 471
-16248.49902 3093.65674 950.65167 483
-257.38080 68.19908 37.53848 349
-276.82590 71.97137 38.72498 318
-16307.76074 3213.25317 677.73938 471
-16199.75586 3190.45020 950.34528 483
-258.74985 70.72766 37.01866 322
-284.84271 75.95531 36.55426 260
-16252.77148 3307.13306 680.61224 471
-16144.56543 3283.48022 947.31067 484
-260.73810 73.33874 36.30956 321
-16198.40723 3400.79541 678.04712 472
-16092.36621 3376.92285 947.22949 484
-262.66306 76.07159 35.72109 321
-16149.61230 3490.23999 677.02014 472
-16044.66016 3470.03369 946.18378 484
-16095.59961 3585.08716 678.19067 473
-15992.65918 3559.11011 941.71967 485
-16042.39258 3678.31738 674.45020 473
-15940.90430 3652.69482 943.35242 485
-15993.36914 3771.84741 673.63599 474
-15890.97852 3743.79980 940.60333 486
-15940.62012 3861.11255 674.07751 474
-15838.94824 3835.82983 939.92554 486
-15886.56641 3954.05298 675.34094 474
-15789.11816 3929.12891 938.16986 487
-15835.66504 4044.47510 670.48633 475
-15735.05176 4019.31348 936.28186 487
-15786.23145 4135.47266 672.75037 475
-15684.81250 4108.41895 936.92560 487
-15736.43066 4224.93066 670.57916 475
-15634.79395 4199.14014 936.65790 488
-15683.35840 4314.70312 672.60059 476
-15585.42969 4287.03076 935.34698 488
-15633.56055 4405.02881 670.14532 476
-15538.38672 4377.28418 934.11731 488
-16246.87988 4578.14990 1247.73560 479
-15580.57910 4496.27393 668.00604 476
-15484.00977 4468.41309 932.25458 489
-16178.99316 4666.32666 1245.55469 479
-15532.17383 4584.93262 667.48883 477
-15436.52344 4556.55176 931.81647 489
-16107.77441 4755.25732 1241.39441 480
-16187.50586 4777.08105 1525.10864 404
-15480.26074 4675.15527 668.48792 477
-15388.97266 4645.55664 931.64868 489
-16036.09473 4838.57764 1240.97229 481
-16115.83301 4863.30029 1521.25696 404
-15428.92773 4762.95654 665.60138 477
-15338.32520 4736.11230 930.71527 490
-15967.69922 4926.83154 1237.54834 481
-16044.11816 4950.77588 1521.87000 405
-15381.90039 4851.56738 666.57831 478
-15288.38086 4821.49316 927.41345 490
-15893.79199 5010.73438 1232.75720 482
-15975.18164 5037.64648 1514.74500 405
-15328.76562 4939.75342 664.96661 478
-15237.70703 4910.58887 928.87091 490
-15827.55566 5097.38916 1231.93579 482
-15901.24121 5124.28223 1514.03467 405
-15279.39355 5030.90918 666.47089 478
-15190.08984 4998.88428 924.60480 491
-15754.31934 5185.24023 1228.90442 483
-15832.37988 5207.29492 1511.28149 406
-15230.91699 5117.25586 664.42194 479
-15140.96387 5087.55908 925.50031 491
-15691.50977 5269.75537 1229.48779 494
-15762.84570 5291.68896 1508.89319 414
-15180.30469 5202.83008 665.78644 479
-15093.31641 5176.10107 926.59521 491
-15639.37012 5360.69580 1228.02271 495
-15708.42480 5383.90625 1504.98816 414
-15131.08691 5293.84424 662.75140 479
-15046.20508 5259.69531 923.28125 491
-15587.04297 5450.96631 1223.44714 495
-15657.51270 5475.05371 1503.70715 415
-15084.02246 5381.88037 662.19769 479
-14997.08887 5349.57129 923.21429 492
-15539.93164 5541.49316 1225.37878 495
-15606.58984 5563.91992 1503.06274 415
-15032.39844 5467.09033 662.96680 480
-14947.93652 5434.20166 925.16998 492
-15486.60938 5631.80469 1221.53357 496
-15554.79688 5651.94531 1500.83228 415
-14985.06543 5553.15479 664.40009 480
-14898.94434 5522.94727 924.22461 492
-15436.53125 5719.15137 1222.30750 496
-15503.38770 5741.95410 1498.37280 415
-14936.37012 5642.32471 664.11945 480
-14851.02051 5609.78760 921.86676 492
-15382.46191 5809.37256 1222.81482 496
-15453.61719 5836.53809 1497.79199 415
-14886.95801 5728.55371 664.87988 480
-14803.14551 5697.24414 919.13464 493
-15256.12500 5870.03711 1213.82324 331
-15403.38379 5926.38184 1498.49109 415
-14837.32910 5816.76514 660.98865 480
-14754.27051 5780.83691 922.48804 493
-15183.51270 5947.14990 1210.41980 495
-15315.58496 5998.31543 1495.78406 496
-14785.32812 5901.71729 663.13300 481
-14703.69141 5865.90332 922.11719 493
-15132.38965 6034.88428 1212.84448 495
-15263.07812 6090.25146 1493.36169 497
-14737.12793 5987.70068 661.36035 481
-14658.08887 5955.53418 918.56396 493
-15080.16992 6124.63818 1210.95093 495
-15211.38184 6175.71777 1489.90955 497
-14688.09570 6072.73145 660.16864 481
-14606.68164 6040.39307 920.27710 493
-15029.05664 6209.77393 1208.28552 490
-15164.00293 6264.72461 1492.30591 497
-15281.61914 6316.68457 1778.08362 442
-14641.94824 6158.29395 660.97028 481
-14558.94629 6125.55615 918.47351 494
-14981.82129 6302.72803 1210.38452 455
-15110.25293 6355.72168 1488.81494 497
-15251.80762 6414.36914 1775.60901 393
-14590.92969 6245.91064 659.92468 481
-14515.28125 6211.50195 918.32288 494
-15011.87402 6424.50293 1213.24695 440
-15008.17578 6421.83398 1485.11926 440
-15002.54492 6419.19189 1755.46558 440
-14545.97559 6329.84814 660.59717 482
-14464.86816 6296.32617 920.30908 494
-14894.58203 6483.15576 1209.77710 441
-14892.21875 6478.08545 1479.21582 441
-14886.91113 6476.31641 1746.72705 441
-14495.63477 6416.81836 662.55084 482
-14418.23535 6380.19092 919.98987 494
-14782.25098 6539.90674 1204.87952 442
-14773.30664 6538.69775 1470.76624 442
-14768.17676 6532.86084 1739.08838 442
-14448.57227 6501.10742 661.70239 482
-14369.73145 6466.35205 918.10724 494
-14679.24707 6607.71436 1198.65576 498
-14672.17676 6601.54004 1464.43628 498
-14665.70898 6596.07617 1730.46057 498
-2596.82617 1222.61572 85.72048 498
-2601.96460 1225.10046 133.62483 498
-14400.00781 6589.07520 659.59320 482
-14321.77441 6552.98096 915.03241 494
-14631.84668 6692.72412 1201.66516 498
-14623.59082 6686.35742 1464.18237 498
-14617.13477 6685.68750 1731.68372 498
-14891.98633 6811.07129 2035.31372 479
-14774.80664 6752.95605 3109.70654 339
-2600.15625 1244.05408 85.00314 315
-14350.43359 6673.76465 659.93561 482
-14277.37305 6636.02441 916.18420 495
-14582.85156 6780.16797 1197.86646 498
-14545.52930 6759.89209 1460.95264 498
-14565.62793 6772.42432 1731.88025 498
-14738.27637 6848.01465 2018.39636 492
-14731.12012 6845.00391 2291.84375 299
-14300.68164 6758.78320 661.54437 482
-14226.88867 6721.89941 918.96271 495
-14534.07617 6864.80664 1199.29712 499
-14495.04395 6850.12109 1461.23096 498
-14517.01562 6856.44287 1731.29712 498
-14790.81445 6983.55957 2029.17981 480
-37930.05078 17837.92773 8506.37207 1000
-14252.90625 6841.77148 661.00458 482
-14180.90430 6808.18311 914.85724 495
-14483.65527 6951.85791 1200.26624 499
-14447.41406 6932.92676 1460.02441 499
-14467.05176 6943.08008 1728.07556 498
-14738.66895 7073.24902 2029.14612 480
-1163.63440 598.63367 339.40714 1000
-14205.96973 6925.97266 662.07581 482
-14131.88281 6894.07129 916.61340 495
-14433.35352 7039.83838 1198.28748 499
-14399.78516 7019.69531 1459.46021 499
-14417.37695 7030.33350 1729.28149 498
-14686.55176 7160.30811 2027.28247 480
-14158.10840 7012.10156 659.30780 483
-14085.84180 6978.88135 915.79242 495
-14383.66309 7125.58984 1196.57800 499
-14351.01367 7106.72021 1458.75024 499
-14370.46777 7117.66162 1729.84094 498
-14634.76465 7245.07422 2028.66882 480
-14108.54199 7096.70312 658.45862 483
-14037.10059 7060.22217 916.67444 498
-14333.94922 7209.44287 1199.56238 499
-14301.81152 7193.17041 1461.88245 499
-14320.37109 7199.47070 1725.00415 499
-14586.58008 7334.46826 2027.14075 480
-14061.79199 7185.00684 661.58521 483
-13990.66504 7148.64160 918.20685 498
-14283.86816 7294.06445 1198.84521 499
-14251.59570 7278.17334 1458.48181 499
-14269.41895 7288.94482 1725.33276 499
-14535.81641 7422.15918 2027.33777 480
-14010.91992 7266.08887 659.23621 483
-13943.59082 7233.02881 917.64667 498
-14238.50977 7381.74707 1197.58020 499
-14230.67383 7379.15088 1459.86694 499
-13963.54102 7239.42334 1699.12488 342
-14486.79492 7506.43848 2026.85742 472
-13962.71875 7353.69824 660.07324 483
-13894.79199 7315.96289 916.13055 498
-14188.87598 7468.39893 1196.21985 499
-14181.79297 7463.86279 1461.47412 499
-13876.21582 7305.61475 1691.18408 499
-14433.10352 7594.08887 2028.25708 475
-13916.78613 7437.10107 659.85760 483
-13848.71582 7400.66064 917.36115 498
-14138.10645 7553.77539 1198.15002 499
-13935.08789 7447.02832 1441.32251 489
-13830.19629 7388.92920 1694.43787 499
-14383.19336 7685.50293 2025.45056 475
-13865.43750 7520.62646 659.25665 483
-13802.54883 7485.60205 915.11761 498
-14088.83496 7638.42139 1194.72766 499
-13910.50488 7541.37158 1445.02539 379
-13782.04395 7473.16162 1692.30969 499
-14337.06934 7769.85400 2027.89197 475
-13817.18164 7607.94824 660.85443 483
-13754.37207 7567.85254 916.51208 498
-14040.71582 7726.04639 1195.95410 499
-14034.10254 7723.23438 1463.04907 499
-13731.67383 7557.09961 1694.98889 499
-14289.70898 7858.58545 2027.01172 475
-13771.37500 7692.22510 660.88898 483
-13707.35840 7654.01660 917.46637 498
-13991.26172 7811.09033 1198.25830 499
-13982.03320 7807.36475 1461.29077 499
-13755.49902 7682.28076 1699.73962 348
-14240.58887 7945.73291 2024.95496 475
-13722.07520 7774.55127 659.49261 483
-13659.73438 7739.88281 914.24689 498
-13960.66992 7909.12793 1196.60681 462
-13951.40234 7901.17090 1461.01074 462
-13972.03320 7914.20264 1730.65833 458
-14192.36523 8035.74219 2027.28833 460
-13673.29688 7857.99414 661.14978 483
-13613.21191 7823.52832 916.57794 498
-13951.46973 8015.69287 1199.37781 480
-13954.52734 8016.73242 1465.95581 461
-13980.84082 8034.02783 1737.15613 458
-14176.57617 8144.28564 2030.27808 465
-13627.86914 7946.40088 661.87097 483
-13566.02832 7909.07617 917.86853 498
-13933.83008 8122.64746 1201.98999 479
-13960.00000 8135.80127 1474.92566 460
-13988.04199 8153.02783 1742.19067 457
-13578.81934 8027.78955 660.10162 483
-13519.95117 7992.78516 919.02460 498
-13916.07129 8227.14355 1205.85339 479
-13953.14355 8249.31836 1478.23975 478
-13992.65820 8271.54004 1752.79211 455
-13530.61230 8115.63916 659.70203 483
-13468.51953 8078.72217 918.87292 498
-13895.75195 8329.18945 1210.55347 478
-13935.91797 8354.21777 1481.04419 477
-13483.26074 8199.69824 663.26715 491
-13425.04785 8161.93799 919.17499 498
-13876.00098 8433.05957 1212.21008 478
-13433.05273 8281.98535 660.06067 491
-13374.15137 8248.51660 918.45514 498
-13854.47559 8540.34766 1213.80200 477
-13386.33301 8367.58301 661.58569 491
-13327.48535 8329.76953 919.58826 498
-13865.51758 8667.01660 1221.35522 445
-13339.47949 8454.27930 660.37408 491
-13281.13379 8415.56641 918.78210 497
-13289.63965 8539.03613 660.72552 491
-13233.43066 8503.50684 917.31189 497
-13242.45410 8623.52246 662.27448 491
-13188.65527 8586.96289 917.96875 497
-13193.07715 8709.57324 661.48450 490
-13140.10742 8669.95020 921.95032 497
-13147.95605 8793.92285 662.16998 490
-13090.88574 8755.95215 920.44727 497
-13098.82617 8881.17090 663.15784 490
-13042.84863 8839.83496 921.64667 497
-13053.30371 8963.95020 666.13116 490
-12996.76367 8926.97559 923.48553 497
-13005.04199 9050.60840 665.68420 490
-12950.99316 9011.39453 920.70496 497
-12952.25098 9137.41895 665.03271 490
-12901.18945 9098.92090 920.26074 497
-12906.42480 9222.95508 666.71613 490
-12852.04492 9181.18066 923.55255 496
-12856.56836 9308.08691 666.38934 490
-12806.71484 9270.87500 923.57385 496
-12811.30273 9391.69336 665.07727 489
-12758.08984 9355.11230 925.35803 496
-12759.93945 9478.93066 665.39642 489
-12710.93652 9442.20898 923.87030 496
-12714.82227 9565.07715 665.27203 489
-12660.30078 9526.05664 924.66205 496
-12662.89355 9651.47656 665.70032 489
-12616.23047 9611.53125 925.31293 495
-12612.90723 9738.55273 669.55774 489
-12563.89160 9699.72949 929.53979 495
-12568.27344 9826.75000 666.50830 488
-12518.78125 9786.79199 927.81696 495
-12515.84180 9911.52344 668.77411 488
-12466.47266 9873.00781 929.43774 495
-12469.94434 9998.58594 668.65918 488
-12417.97363 9958.73242 930.12415 495
-12421.24023 10084.60547 669.92108 488
-12371.13477 10044.58398 928.73694 494
-12367.90918 10173.40332 669.39020 487
-12325.11133 10132.78906 929.64307 494
-12318.99219 10257.97461 670.53223 487
-12278.16602 10224.48828 932.62921 375
-12350.81836 10412.87305 411.43442 476
-12271.60840 10347.72363 672.46222 487
-12232.69336 10314.01855 933.86462 375
-12298.11328 10500.00879 411.15039 476
-12222.49219 10436.89160 672.77338 487
-12186.37891 10407.47559 934.78558 375
-12246.13379 10589.04980 411.45703 476
-12172.16895 10523.66504 673.43811 486
-12140.82422 10495.71289 937.75385 375
-12196.24316 10677.47363 411.59601 475
-12122.14062 10611.94922 675.31226 486
-12098.04980 10587.47266 938.47046 442
-12147.77441 10768.14062 410.32214 475
-12074.05371 10700.12012 673.28448 486
-12044.26562 10674.48242 939.89825 442
-12094.56055 10852.38281 413.83698 475
-12020.83887 10790.02344 676.56293 485
-11993.57910 10765.57520 938.53229 441
-12051.17676 10949.63770 414.03870 464
-11970.53320 10878.97559 675.58142 485
-11945.85938 10852.01660 942.56012 441
-12010.19727 11043.81445 412.05826 463
-11921.46387 10965.08691 678.00189 485
-11894.84766 10937.87695 942.51050 441
-11967.43359 11146.05664 415.63916 463
-11876.00000 11057.04590 677.94806 466
-11844.05469 11030.96777 942.56958 409
-11923.64160 11242.80371 415.81293 465
-11834.85449 11158.18262 679.02649 465
-11801.59375 11124.70801 945.41168 409
-11883.58691 11341.84961 416.32605 465
-11795.43262 11259.99805 682.12866 465
-11757.24512 11220.98047 948.47272 409
-11845.25488 11447.07031 416.84528 464
-11754.57910 11359.27832 683.55316 464
-11711.29297 11320.55957 948.35364 408
-11802.94043 11549.46680 415.80667 463
-11714.07324 11461.35938 685.13617 464
-11666.92188 11414.76660 950.42450 484
-11773.25293 11660.93164 419.42191 423
-11676.90527 11564.82617 687.54663 464
-11623.19922 11513.14258 952.80219 484
-11760.17188 11790.87891 421.09619 400
-11633.97852 11663.90332 685.11792 464
-11598.20703 11631.60254 955.96802 288
-11743.91992 11924.40430 419.19714 400
-11591.95312 11766.80566 687.66797 463
-11564.75879 11740.77246 960.17719 288
-11733.71289 12058.49805 421.73172 399
-11563.18945 11881.11816 690.09900 423
-11696.09375 12020.84766 975.68445 416
-11718.98828 12194.16406 423.66605 398
-11541.32617 12006.11230 693.47620 422
-11676.44824 12144.87695 977.20929 331
-11731.12598 12352.38574 424.70633 304
-11516.02344 12132.42480 696.37439 421
-11497.20898 12260.96289 698.54193 420
-11480.48340 12392.03906 702.82062 398
-12101.29590 13058.32031 1023.69385 418
-11472.38770 12540.64062 706.84900 372
-12002.01660 13114.52148 1025.42114 418
-11476.19238 12700.15430 710.80176 371
-11905.78613 13168.98828 1021.55109 418
-11481.49805 12863.82715 712.73901 370
-11807.78711 13224.31543 1023.24426 405
-11711.43945 13283.58496 1017.99951 487
-11313.63477 12993.74707 997.24615 336
-11333.44434 13179.61621 1006.15198 335
-1105.25793 2203.93237 93.37824 274
-1071.22559 2174.00928 93.77789 336
-1043.50220 2154.26514 94.84470 368
-1017.57764 2136.02759 55.78151 313
-1020.51971 2141.71802 95.17756 347
-988.28699 2112.04297 56.70927 388
-1000.08868 2134.18237 95.01940 347
-965.29291 2099.39990 57.25573 389
-980.52069 2128.90771 95.17809 302
-10603.21191 21454.50781 -1418.07104 1000
-943.20844 2087.00073 57.80013 390
-1028.94336 2258.88989 93.35378 483
-922.56268 2076.57324 58.84707 406
-1014.32947 2263.99268 92.98590 483
-902.58411 2068.94019 59.32979 414
-999.10376 2268.85889 93.18715 471
-883.00592 2060.73364 59.39139 415
-983.61517 2271.75781 93.11044 471
-863.47491 2052.80884 59.97294 416
-967.93945 2275.40820 93.32394 471
-845.61981 2046.45068 60.40282 413
-952.37439 2278.32324 93.44893 385
-827.64966 2041.28699 60.98756 414
-937.93982 2282.92993 93.47566 379
-818.65192 2054.98608 24.04244 293
-810.59338 2036.23718 61.41835 422
-851.67688 2128.60620 96.49553 446
-856.73285 2138.85449 134.12430 332
-797.18109 2039.24353 24.86855 297
-793.76794 2032.27087 61.33326 423
-833.79590 2123.52441 96.56580 447
-850.41821 2161.33423 134.50890 403
-777.76270 2029.82385 25.89932 381
-776.83832 2028.41638 61.71912 424
-816.78760 2119.46362 96.84430 448
-844.21649 2183.90039 134.68552 402
-759.91010 2022.87744 26.40347 392
-760.85889 2024.12195 62.41560 427
-804.72772 2127.36304 96.20586 374
-838.38184 2207.95435 134.16353 400
-743.37378 2017.97974 26.52438 393
-744.78229 2020.75659 62.84130 428
-798.35284 2149.71118 96.18002 373
-832.64496 2231.59399 134.68921 399
-726.68256 2012.77307 27.49854 394
-728.23584 2017.48120 62.79374 371
-792.00391 2172.57666 95.69273 372
-822.99719 2248.14453 134.56569 490
-710.19550 2007.69763 27.71566 394
-712.76630 2014.47595 62.81976 371
-785.56464 2195.43262 95.89769 371
-806.60931 2246.49219 134.07309 350
-693.67987 2002.46228 28.24620 395
-697.28479 2011.99194 63.26116 372
-733.30121 2102.59521 97.11848 452
-677.45898 1997.23730 28.95299 396
-682.19409 2009.01245 63.38913 372
-714.37543 2091.96289 97.60574 453
-661.80829 1993.32397 29.50467 451
-666.62762 2006.64355 63.59811 373
-698.26318 2088.25659 97.85046 454
-646.14581 1988.88843 29.90528 452
-652.05444 2003.61658 63.90997 373
-692.10229 2111.36255 97.12470 391
-630.70593 1984.90637 30.04016 453
-636.53839 2001.40442 64.34290 374
-685.72845 2134.85107 96.82358 460
-680.26282 2119.30444 208.43315 484
-615.35437 1981.23254 30.47722 454
-622.14441 1998.28943 64.78859 374
-680.66742 2161.49609 96.49185 457
-669.09137 2129.69653 134.26938 461
-674.43304 2144.59985 171.45280 473
-666.19537 2121.43994 207.95645 493
-600.31525 1977.18176 31.26744 455
-606.86597 1996.14441 64.89842 375
-620.31177 2033.87061 98.93243 458
-663.95258 2156.44141 134.54665 458
-652.97675 2124.81104 171.07559 462
-654.50677 2130.58130 208.17200 436
-585.32159 1973.28394 31.37876 456
-592.18909 1993.03931 65.01254 375
-604.92310 2030.31555 99.02256 458
-647.10590 2151.89233 171.44426 459
-570.52148 1969.30249 31.99524 456
-576.25836 1987.05688 65.07755 428
-592.34540 2033.80176 99.20522 379
-634.14838 2156.52295 208.69664 472
-633.86432 2155.03394 246.34085 472
-633.04645 2153.91724 282.98126 472
-555.63104 1965.58997 32.12444 457
-562.60681 1985.96387 65.77774 429
-586.94733 2059.29834 98.41180 378
-540.94794 1962.19690 32.83850 458
-548.73291 1984.97913 65.44525 429
-581.36249 2084.12402 98.04526 383
-526.27527 1958.25122 32.78004 459
-535.00562 1984.50977 66.03745 429
-574.72174 2109.16138 97.88999 381
-511.96524 1954.57397 33.23848 460
-521.21350 1983.11267 66.18282 430
-568.33612 2134.72290 97.81554 380
-497.91263 1951.00977 33.64394 461
-507.75854 1982.32251 66.21180 430
-561.82861 2160.54565 97.45946 379
-18579.41797 62421.17578 -12773.49414 1000
-483.74106 1947.44666 34.34501 464
-495.10361 1985.64136 66.33361 481
-554.82953 2185.38379 96.77724 384
-509.76688 2035.44849 133.96039 464
-469.54233 1944.05566 34.48373 464
-505.34207 2065.64551 63.68444 374
-548.10822 2211.01294 96.17207 382
-498.72546 2042.40344 203.91496 479
-455.39099 1940.59265 34.90408 465
-499.65900 2093.38770 63.09418 290
-489.42322 2058.03003 204.05219 375
-441.64575 1937.04395 35.10743 466
-517.55951 2208.17407 58.95200 443
-428.07785 1933.64331 35.28059 467
-502.16971 2205.18115 59.10163 444
-480.06720 2125.00366 206.30779 480
-414.45007 1930.49023 35.65197 467
-479.47934 2174.84424 60.56733 468
-476.29675 2162.62036 134.39314 453
-475.61829 2159.91895 170.55815 468
-469.47174 2136.95752 206.77826 371
-400.76270 1927.37891 36.15938 468
-471.13300 2198.02808 59.90149 445
-387.37457 1923.85852 36.23032 469
-455.80084 2194.75610 59.71453 372
-373.70444 1920.37842 36.46209 469
-440.74634 2192.41479 60.41990 372
-360.59689 1917.35938 36.78588 470
-426.28452 2189.70776 60.11023 372
-347.27676 1914.25684 36.98424 471
-411.26559 2187.40039 60.71378 373
-334.09668 1911.21509 37.61375 472
-396.47714 2184.37573 60.82292 373
-320.97238 1908.01147 37.97552 472
-381.81430 2182.24805 60.58280 373
-311.86453 1920.98914 5.31402 313
-308.48172 1905.21484 38.33281 472
-367.26260 2179.33374 61.35582 374
-299.48264 1922.23975 4.88136 341
-296.40677 1906.65955 38.00032 472
-352.35275 2176.63013 61.20416 374
-288.13574 1927.15967 5.15801 341
-284.53745 1907.71631 37.94329 472
-313.09695 2050.47412 65.36127 475
-312.92685 2049.36694 99.93208 475
-272.07724 1909.23718 38.32508 473
-323.75540 2172.59546 61.29826 324
-260.04742 1910.78271 38.45757 411
-309.24020 2171.12329 61.92057 324
-248.89835 1913.98071 38.37853 330
-295.35522 2169.66187 61.90123 324
-280.70221 2090.29248 99.32155 447
-277.04749 2144.12061 26.86604 452
-281.41812 2167.95923 61.71161 325
-262.99728 2139.71899 27.38845 453
-267.10327 2166.44580 61.78183 325
-248.98543 2137.31958 27.68909 473
-235.09792 2137.75537 27.79655 473
-222.09372 2137.92651 27.36615 473
-208.47104 2138.67603 27.36850 474
-195.35223 2139.21265 27.79653 474
-182.19977 2139.62427 27.80247 474
-168.39120 2140.31396 27.87961 474
174.26903 857.54944 -9.46157 354
178.93988 851.15222 -8.31891 467
179.33864 854.08203 5.56557 419
179.49146 857.21008 19.37539 419
180.11436 863.54883 32.89333 279
183.99417 848.14368 -7.84312 494
184.27045 850.00250 5.92038 468
184.54039 852.56219 19.87312 468
184.68073 855.47034 33.93290 468
185.03766 857.60461 47.85496 419
185.35115 861.90808 61.82578 347
189.34743 846.88544 -7.80222 497
189.34630 848.51123 6.10427 498
189.62352 850.60577 20.23137 495
189.80768 852.83264 34.09713 499
190.16705 854.53412 47.97996 493
190.35158 856.56580 62.01506 495
190.43851 858.62378 76.04205 486
194.64177 847.05780 -8.06003 476
194.73463 849.00232 6.03636 476
195.06831 850.66937 20.14330 476
195.19453 852.71869 34.10908 466
195.39497 854.42395 48.03403 476
195.55740 856.38165 62.01075 476
195.89391 858.20648 76.14853 468
200.28488 849.29095 -8.50002 432
200.39182 851.26538 5.52678 432
200.66870 853.57727 19.64391 432
201.07356 856.64966 33.42445 379
201.19736 858.64319 47.53146 371
206.13669 855.06812 -9.56208 370
206.94443 860.23120 4.03131 298
5301.60840 10221.16406 -2939.25830 1000
8865.57910 13204.05469 1199.70203 1000
5405.23047 7785.94580 -934.82538 1000
3090.46313 1272.32593 -78.21404 450
3105.60400 1256.51843 -78.52844 454
3121.18311 1242.06189 -79.34180 439
3343.05933 1332.99500 -37.53626 301
3137.91846 1227.22498 -80.44160 428
3345.97192 1310.50806 -36.66839 308
3155.45190 1212.07556 -80.59580 423
3343.93335 1286.87610 -36.11960 441
3173.50415 1197.70972 -81.40195 422
3338.97290 1261.34692 -35.73965 441
3192.08960 1182.85107 -82.03836 422
3335.01929 1237.52429 -35.55155 444
3209.96777 1167.99084 -83.41145 416
3330.25342 1212.80054 -35.03050 444
3230.31641 1153.62585 -83.67846 406
3325.79224 1188.70178 -34.07946 383
3251.95508 1139.06628 -85.27094 400
3321.77075 1164.87244 -33.39687 446
3275.40625 1126.13757 -86.60303 391
3316.74194 1140.97900 -32.60574 447
3300.68994 1112.48694 -87.25691 393
3320.24951 1118.98071 -32.72863 482
3327.79980 1100.39026 -89.23831 382
3333.10278 1101.53711 -33.63304 417
3360.04419 1088.61438 -90.85123 365
3363.11133 1089.64111 -34.35235 409
3399.02515 1078.81091 -93.16653 351
3401.20215 1080.10779 -36.42247 378
3442.88306 1070.53296 -95.12473 349
3441.93018 1070.99011 -37.96421 377
3486.57715 1061.99524 -98.01536 356
3737.07031 1140.72314 -52.93182 464
3529.66431 1052.28711 -101.11416 355
3731.93896 1114.14673 -51.62571 468
3574.29272 1042.53418 -103.22365 357
3710.05127 1083.46350 -50.78286 467
3621.49756 1032.78552 -106.26232 356
3704.59180 1057.49390 -49.93044 467
3670.78760 1023.55811 -109.28645 355
3695.15088 1030.86182 -49.25393 457
3719.97681 1014.17896 -112.28925 355
3739.92041 1019.46588 -50.65967 366
3763.33350 1002.13019 -114.85191 352
2024.34302 328.11728 -59.59859 454
2030.40918 329.12213 -27.70563 454
2037.22180 330.43658 4.32735 400
2023.78687 316.15771 -59.48000 498
2029.85461 316.72244 -27.86077 484
2038.56787 318.36609 4.23170 406
2032.89734 305.44604 -59.88933 390
3052.82227 -211.01631 -61.41925 465
3053.41797 -228.63805 -61.60537 430
4046.20215 -501.69730 -63.07961 361
3998.89502 -520.55334 -60.50828 431
3984.35156 -543.03992 -60.56749 469
9804.63379 -1355.61987 615.28723 1000
4059.35034 -577.83350 -129.91226 370
3973.09058 -565.93994 -60.06389 483
4034.16187 -599.63654 -128.96072 408
3960.71411 -588.43579 -59.98700 483
4014.93408 -621.34894 -127.17180 418
3947.23901 -609.93207 -59.33464 484
3999.26758 -642.55182 -126.91638 418
3936.64551 -633.24524 -58.44001 488
3984.72583 -665.07861 -126.26547 432
3925.68848 -654.81329 -58.68151 489
3970.89722 -687.14886 -126.04685 429
3915.05469 -677.28516 -57.58391 470
3958.11157 -709.32330 -125.17462 435
3906.65747 -700.41272 -57.36319 472
3946.89014 -732.03412 -124.93835 433
3898.38013 -723.41541 -57.46138 473
3935.53174 -754.45258 -124.36201 436
3890.00049 -745.97601 -57.87346 441
4009.11328 -768.95862 67.76054 326
3896.27808 -770.93134 -122.35872 307
3882.68506 -767.98962 -56.96106 442
3937.26782 -779.33673 68.32774 327
3882.82007 -792.01288 -121.46949 378
3875.57886 -791.27777 -57.85691 442
3968.57568 -810.28003 3.39073 291
3905.94165 -797.45734 68.79881 499
3872.56470 -814.01904 -121.26327 378
3869.13232 -814.42181 -57.67912 418
3902.40698 -821.47437 4.63196 325
3901.12500 -820.93158 68.92902 499
3864.39648 -836.65753 -121.03512 378
3864.01245 -836.56390 -56.98671 418
3895.33423 -843.76575 5.30877 499
3895.94873 -844.81262 68.72480 499
3855.82153 -859.05865 -120.68517 380
3857.51489 -859.70251 -57.51957 418
3890.80908 -867.50134 4.86569 499
3891.68115 -867.43127 69.11626 499
3848.32886 -881.78113 -120.20846 380
3851.35181 -883.33936 -57.54145 418
3884.34058 -890.94800 4.54905 498
3886.91626 -891.15393 68.93761 499
3842.00366 -904.88910 -119.90866 381
3845.43481 -906.10242 -56.91091 418
3875.48071 -913.31476 4.55794 499
3877.28418 -913.42896 68.55040 499
3891.57593 -916.80121 132.91156 484
3893.20703 -917.99377 196.50636 476
3836.47314 -927.45026 -120.71943 381
3840.58228 -929.37805 -57.57953 419
3871.64209 -937.25677 5.37153 499
3872.29492 -937.51337 68.81982 499
3831.05103 -951.39215 -120.82672 382
3835.34888 -952.36951 -57.29671 419
3867.20459 -960.81042 4.34813 499
3868.29980 -960.10797 68.72890 499
3827.36304 -974.84882 -120.06959 382
3830.55029 -975.28137 -56.89182 419
3861.86719 -983.45966 4.59956 499
3864.02271 -984.43390 68.77907 499
3823.18604 -998.08380 -120.37785 381
3825.24097 -998.07263 -57.23174 419
3862.29321 -1009.01459 4.90381 499
3863.80176 -1008.98175 69.01856 498
3818.63770 -1021.35522 -120.37318 381
3820.46997 -1021.92395 -58.08633 419
3858.52637 -1032.56042 4.06926 499
3859.59497 -1032.66907 68.44500 498
3998.41284 -1070.19031 132.27939 494
3814.97681 -1044.71460 -121.41013 381
3815.72168 -1045.62659 -57.14848 418
3853.88550 -1056.22375 4.66102 499
3854.52441 -1056.63013 68.45507 498
3810.11279 -1068.55127 -121.24335 381
3811.25293 -1068.95642 -57.75308 418
3849.28125 -1079.15906 4.03908 499
3849.37036 -1079.33252 68.11251 498
3909.34326 -1097.29736 132.71292 498
3806.86694 -1092.07019 -121.41845 381
3806.50366 -1091.33044 -58.10132 418
3844.20825 -1102.86414 3.77964 498
3846.44458 -1103.83655 68.04888 498
3860.12695 -1107.44519 132.69316 409
3801.93945 -1115.90259 -122.10406 381
3801.42139 -1114.82947 -57.76897 418
3925.31787 -1152.59009 132.15642 286
3798.09351 -1139.47253 -121.45152 381
3795.92261 -1138.27161 -58.27402 418
3915.23853 -1175.84888 131.91434 497
3794.14233 -1162.34668 -122.61382 381
3791.38794 -1161.51196 -58.14976 444
3957.36914 -1214.22327 198.92180 485
3789.49927 -1186.49658 -122.10303 381
3786.94165 -1185.42773 -57.97964 443
3924.80029 -1229.70081 132.03055 382
3786.23389 -1210.27087 -122.91705 381
3781.99854 -1234.34460 -123.23345 380
3777.83081 -1258.30542 -123.32677 380
4079.01074 -1360.67297 -74.52515 275
3774.33301 -1281.67664 -122.95866 305
4042.65283 -1375.66394 -73.09650 497
3771.23535 -1306.16064 -124.12241 305
3776.68677 -1308.39722 -59.88353 272
3768.01318 -1331.21143 -123.60510 311
3756.35913 -1326.27563 -59.44569 439
3764.43872 -1354.96057 -124.21878 311
3751.08569 -1350.25269 -59.38029 438
3762.19482 -1379.52832 -124.64613 311
3746.40356 -1373.84790 -60.23882 438
3758.41772 -1404.29736 -125.60741 310
3741.88867 -1397.82898 -59.92003 438
13878.06738 -5281.91406 2817.90747 1000
3755.70386 -1428.91174 -126.03218 310
3736.32544 -1421.15320 -59.85013 438
3926.08667 -1495.91797 -2.46633 487
3752.60181 -1453.17261 -125.77977 310
3731.47632 -1445.83984 -60.72563 437
3830.20874 -1484.09094 0.27901 484
3829.41260 -1511.12817 -131.99753 495
3811.27368 -1503.94409 -64.97620 496
3817.09521 -1505.45532 0.58858 485
3830.52393 -1538.02173 -132.60228 492
3800.09180 -1525.95251 -64.76157 495
3804.95532 -1527.99243 0.05570 476
3799.68628 -1552.19568 -65.70904 466
3801.00684 -1553.04651 -0.01293 481
40329.92969 -27104.80664 -11186.91406 1000
2466.97559 -1709.51794 -59.91228 450
2475.45044 -1715.08350 -12.08160 398
2458.26343 -1725.53711 -59.73887 451
4353.14990 -3481.95020 -319.78210 1000
4366.83203 -3493.34741 221.93239 1000
4051.04297 -3486.41992 304.36447 1000
29400.27148 -29903.38867 -4689.81689 1000
29593.26172 -30101.74023 127.31439 1000
1640.20496 -1723.82092 -58.11147 402
1621.08813 -1724.45740 -57.18845 403
1609.93262 -1711.62097 -17.88894 405
1599.84656 -1721.15308 -55.47155 403
1588.96106 -1708.98865 -16.98849 406
1578.86035 -1719.11035 -54.36165 404
1568.10608 -1706.27539 -15.81387 407
1557.93542 -1716.34338 -53.16131 404
1543.39905 -1699.02148 -14.77296 417
1564.94397 -1723.62854 20.36621 418
1537.69360 -1713.47046 -52.13876 406
1523.84521 -1696.42505 -13.69018 419
1544.94946 -1722.31128 21.03808 462
1517.37048 -1711.00647 -50.74817 407
1503.43884 -1694.34448 -12.36228 420
1539.71399 -1737.20361 20.78248 398
1497.89465 -1708.04712 -49.15080 406
1484.33777 -1691.58252 -11.51580 421
1496.77209 -1707.24841 23.39717 382
1477.98596 -1705.70618 -48.10857 397
1465.60547 -1689.86475 -10.99664 379
1537.78540 -1779.20850 19.32449 428
1459.14465 -1703.90039 -47.13502 398
1446.65979 -1687.79810 -9.92434 423
1530.77441 -1793.20544 19.26057 409
1440.61096 -1701.68604 -46.13015 399
1427.68909 -1685.99573 -8.70929 277
1545.60205 -1833.71399 17.30899 427
1421.76001 -1699.80176 -44.99527 400
1411.18530 -1686.16833 -8.33594 426
1542.58521 -1853.81848 16.65710 426
1403.84045 -1697.94995 -43.81533 401
1393.03723 -1684.21887 -7.58865 427
1401.37439 -1694.57129 26.84966 444
1385.74768 -1696.17212 -42.77068 402
1374.75537 -1681.73047 -6.87797 428
1520.89868 -1873.14160 16.60231 461
1367.99670 -1694.16504 -41.63238 403
1356.99756 -1679.61841 -5.80275 429
1522.03259 -1898.71436 15.56977 422
1350.17163 -1692.07471 -40.63898 404
1338.98145 -1677.87244 -4.97510 431
1519.41772 -1919.21729 14.70026 422
1332.43286 -1690.07666 -40.06157 405
1321.94531 -1675.79419 -4.45118 431
1512.48950 -1935.38757 14.02807 490
1315.44910 -1688.53662 -38.75572 405
1304.31323 -1673.31946 -3.28308 432
1308.55261 -1679.17773 30.04509 435
1297.92053 -1685.78247 -37.69490 399
1287.29028 -1671.18640 -2.41242 434
1292.04102 -1677.77039 30.70260 436
1280.60254 -1684.15247 -36.87068 397
1270.65088 -1669.06860 -1.95639 435
1275.16016 -1676.12378 31.23432 437
1264.10828 -1682.26501 -36.30846 397
1253.75818 -1667.03076 -1.42001 436
1258.57349 -1674.31763 32.03072 438
1247.42712 -1680.58545 -35.05771 398
1237.16284 -1665.28857 -0.36164 437
1242.17004 -1672.23291 32.61787 439
1231.45593 -1678.96582 -34.64015 399
1220.75842 -1663.93921 0.32704 445
1225.90601 -1670.69861 33.05972 440
1215.24377 -1677.54004 -33.62444 401
1205.73853 -1663.21826 1.02523 458
1209.26953 -1668.88977 33.57957 457
1199.37085 -1676.44421 -32.52038 407
1190.92566 -1663.37512 1.64015 466
1195.41406 -1670.42249 33.65149 467
1184.78772 -1676.40100 -32.14670 420
1177.02441 -1664.60083 1.89540 469
1181.68018 -1671.18604 34.20411 468
1170.85571 -1677.61169 -31.41107 422
1163.32007 -1665.71387 2.47314 472
1168.33093 -1673.78894 34.51280 490
1157.05237 -1678.74670 -30.89000 424
1149.90918 -1667.24548 2.57844 476
1158.95154 -1680.88684 34.25330 490
1144.06616 -1680.63281 -30.63231 427
1137.08118 -1669.67920 2.94743 480
1148.59692 -1688.28137 34.07568 488
1160.71008 -1707.05286 66.50422 394
31884.66602 -51352.85156 -10859.47559 1000
1130.71887 -1683.00439 -30.10890 427
1123.82434 -1671.97473 3.07846 476
1144.57727 -1704.97546 33.75351 396
1157.95642 -1726.05090 65.90968 393
1118.22620 -1684.81372 -29.67981 427
1111.00037 -1673.64209 3.94028 481
1141.33203 -1723.23792 33.15503 394
1155.28931 -1746.04517 65.50008 311
1105.24194 -1687.30713 -29.45723 431
1098.54602 -1676.37598 4.14579 481
1138.51685 -1742.69202 32.14437 393
1152.44568 -1766.18860 64.63523 392
1092.73096 -1690.29651 -28.99999 432
1086.41028 -1678.96350 3.98216 484
1136.62244 -1763.56311 31.54265 307
1149.58105 -1786.08618 64.44988 391
1080.38428 -1693.20874 -28.41017 432
1074.30359 -1682.32544 4.67784 483
1209.59912 -1913.70886 23.15912 445
1146.70227 -1806.05847 63.72931 390
1068.53906 -1696.09485 -28.20712 435
1062.03967 -1685.32996 4.45792 487
1141.58228 -1822.97253 29.04247 440
1143.90405 -1826.87256 63.04257 389
1048.75610 -1698.37500 -31.18936 428
1042.90283 -1688.06653 1.62261 488
1118.05408 -1820.18689 26.00637 462
1133.48218 -1847.20593 59.27586 388
1037.10876 -1702.24768 -31.05027 435
1031.38403 -1691.73035 1.80798 487
1110.68372 -1833.31396 25.61853 461
1130.33020 -1868.90100 58.73548 387
1025.99390 -1706.27124 -31.30722 435
1019.96564 -1696.21484 1.79800 488
1103.38306 -1847.01892 24.96809 461
1014.29761 -1710.48401 -31.16708 439
1008.86407 -1699.91675 1.86253 483
1095.95483 -1860.37866 24.30218 460
1003.40454 -1715.23926 -30.84151 440
997.26935 -1704.23657 1.98659 483
1085.31470 -1867.86340 24.11398 427
992.05536 -1719.50574 -30.68533 440
986.16956 -1708.35876 2.46081 484
1067.80383 -1862.83801 24.88594 428
981.13031 -1724.01123 -30.53393 440
974.64166 -1711.86975 2.39024 484
1049.82654 -1856.36011 26.05016 414
969.65521 -1728.09399 -30.71900 449
963.66803 -1716.38135 2.55517 482
1030.41565 -1846.12683 26.79535 382
958.14410 -1731.67102 -30.54172 449
952.35223 -1720.20398 2.67822 481
1016.16803 -1845.56274 26.73717 263
947.12769 -1735.98572 -30.13985 450
941.22357 -1724.74524 2.79001 478
938.80579 -1746.24438 -30.82729 264
930.40021 -1729.60352 2.56757 476
919.76385 -1734.07544 2.38148 476
909.24634 -1739.04944 2.57157 471
898.18335 -1743.84424 2.78433 471
887.68420 -1748.51990 2.87095 471
877.57379 -1755.21130 2.47760 350
2723.30347 -11954.07910 1517.71521 1000
-410.96899 -3135.40356 22.99496 494
-410.92969 -3135.01660 75.34483 498
-410.80643 -3135.35254 127.29402 477
-411.00159 -3136.59985 179.16693 434
-411.05960 -3138.58179 231.16779 373
-819.88428 -2554.19482 40.05011 445
-819.43628 -2554.05957 84.26308 446
-819.50879 -2553.40088 128.91003 484
-819.68048 -2553.83545 173.19563 499
-819.83093 -2553.77856 217.33383 499
-819.93451 -2554.26660 261.76758 490
-1214.40198 -1960.87756 206.63206 305
-1212.55164 -1958.00562 245.40192 377
-1225.82068 -1952.26819 52.75532 413
-1226.16638 -1952.60034 91.38500 347
-18917.26367 -11454.83496 849.11646 1000
-4341.88525 -2455.15796 130.83067 496
-4348.75977 -2458.13965 213.55510 465
-3761.38403 -2040.92847 130.39569 455
-3192.69995 -1638.60950 130.85397 354
-3199.08936 -1615.89563 131.11349 430
-258.20102 -75.53283 35.27990 321
-256.14841 -72.85674 35.99077 321
-254.05229 -70.15735 36.65956 322
-274.46371 -74.29142 37.70061 318
-253.28610 -67.82278 36.98090 352
-272.16257 -71.48962 38.39556 319
-255.24817 -65.95621 36.50689 351
-270.30692 -68.84065 38.91343 322
-257.02982 -64.12182 36.12430 351
-271.54562 -66.78493 38.67873 345
-289.97107 -70.12948 40.75468 318
-258.97449 -62.23958 35.68958 351
-273.50388 -64.77577 38.25943 347
-289.62430 -67.53606 40.97803 341
-260.83749 -60.23821 35.29960 350
-275.47299 -62.82438 37.89679 347
-291.49628 -65.48869 40.61080 341
-265.69107 -58.80854 33.99382 320
-280.02542 -61.23579 36.82619 323
-296.53067 -63.91011 39.55987 313
-197.18588 -11.28668 53.36392 324
-197.17485 -9.52510 53.32244 324
-197.14058 -7.73413 53.33850 324
-197.16284 -5.86987 53.40070 324
-197.16299 -4.04672 53.34396 324
-197.15219 -2.30085 53.40099 324
-197.10587 -0.44449 53.38316 324
