# .PCD v.7 - Point Cloud Data file format
VERSION .7
FIELDS x y z rgb
SIZE 4 4 4 4
TYPE F F F U
COUNT 1 1 1 1
WIDTH 1010
HEIGHT 1
VIEWPOINT 7083.600098 -1661.851929 135.251312 -0.649551 -0.110131 -0.092359 0.746609
POINTS 1010
DATA ascii
-17756.81836 830.70569 729.79388 457
-17691.69531 936.78308 727.07977 463
-17682.08398 935.50403 1016.83447 434
-17639.27539 1042.29504 723.20807 463
-17581.06445 1149.32446 723.90631 464
-17669.51367 1267.50403 435.82159 444
-17528.74805 1256.20923 720.59344 464
-17614.41016 1371.15222 432.09137 444
-17472.57617 1360.82336 719.80151 465
-17556.32227 1472.77722 430.88577 445
-17420.87109 1466.22473 720.44183 465
-17501.40820 1579.23022 432.95865 445
-17365.61914 1568.95667 718.29077 466
-17370.38477 1567.60339 1006.56439 408
-17445.97461 1684.96973 433.60315 446
-17310.88672 1669.29358 714.19879 467
-17317.59180 1669.21008 1002.90283 409
-17394.75000 1788.57556 430.01776 446
-17256.15234 1769.44653 716.69348 467
-17258.18164 1773.65002 1000.35657 409
-17336.16016 1890.48682 432.86203 447
-17203.91016 1873.30798 711.42023 468
-17204.34570 1872.23633 996.60437 409
-17285.24023 1993.27136 428.97531 447
-17151.50391 1973.50281 712.75146 468
-17150.91406 1975.24500 997.04120 410
-17229.93750 2092.29810 428.72003 448
-17100.19531 2078.40991 711.02972 469
-17095.93945 2073.89526 993.64795 410
-17175.16602 2192.74341 425.93408 448
-17047.92578 2177.10742 710.24622 469
-17042.51367 2175.39258 994.33289 395
-17120.22070 2293.58081 426.99088 449
-16992.57812 2278.55396 705.28802 470
-16990.53125 2277.54028 988.05768 423
-17071.12500 2392.60498 429.54926 449
-16941.01367 2375.82324 706.80316 470
-16937.02539 2377.17041 988.19788 423
-17017.54688 2494.97510 427.05316 450
-16890.82422 2476.12378 705.12994 471
-16884.83008 2474.32251 986.30438 423
-16964.19336 2595.07397 426.39374 450
-16837.56055 2575.27832 705.40765 471
-16834.12891 2573.39990 984.77985 424
-16908.50586 2694.23389 426.55719 450
-16789.91211 2675.01831 701.99542 472
-16785.54688 2672.75195 984.91632 424
-283.53644 61.94419 37.59018 323
-16857.24219 2788.12451 425.70984 451
-16736.58398 2768.27393 703.04309 472
-16736.56250 2769.97974 982.16681 424
-264.68658 61.09773 36.03766 350
-279.28210 63.53399 38.54975 346
-295.40582 66.34674 41.23252 341
-16805.10742 2887.32300 423.87671 451
-16688.26953 2866.79468 699.59692 472
-16685.87500 2865.76172 979.45135 425
-262.75467 62.92951 36.40926 350
-277.22467 65.52767 38.96400 345
-293.44998 68.38682 41.63657 340
-16754.05078 2985.36401 421.88184 452
-16633.74023 2966.97192 701.78931 473
-16633.54492 2965.62109 977.19891 425
-260.78726 64.83472 36.81238 351
-275.28937 67.57560 39.39516 345
-295.25482 71.14957 41.12966 318
-16699.81836 3080.81201 422.76529 452
-16585.50195 3059.66064 700.77252 473
-16581.94922 3062.91675 977.79633 424
-258.84619 66.77074 37.23514 351
-275.49130 69.91888 39.22393 321
-16653.12109 3180.39868 420.40381 471
-16533.44336 3160.08521 696.68286 474
-16532.44336 3158.25830 976.45465 425
-257.35132 68.67580 37.52223 325
-277.34351 72.62805 38.58074 318
-16599.39648 3276.22607 420.77649 471
-16481.69922 3254.95972 696.05121 474
-16482.87305 3255.44092 971.90753 425
-259.11026 71.26525 36.87647 321
-16549.60938 3371.77490 420.94495 472
-16432.13281 3350.70386 697.16602 475
-16434.20703 3351.77832 970.32446 425
-261.14832 73.96689 36.19956 321
-16497.73047 3467.67603 422.67862 472
-16384.86523 3447.32544 694.10541 475
-16385.11328 3445.92383 971.53638 426
-263.31128 76.64966 35.47060 261
-16448.88477 3563.50903 418.59250 472
-16334.61230 3537.97241 695.20251 475
-16336.20605 3538.60010 970.58276 424
-16396.49805 3660.14380 421.87375 473
-16286.58496 3635.86475 693.29944 476
-16286.94531 3637.23657 967.99353 424
-16350.60742 3756.50464 419.25058 473
-16233.54395 3728.26611 692.96558 476
-16240.19141 3731.75635 968.42200 425
-16298.65332 3848.54639 417.60709 474
-16186.11816 3823.80762 693.01984 484
-16190.80273 3821.78345 966.72430 425
-16251.52539 3944.16943 420.75577 474
-16139.44434 3917.39526 692.19910 485
-16140.36133 3915.79419 965.91418 425
-16828.09180 4084.07666 1285.57922 403
-16199.09473 4039.61646 416.02872 474
-16089.80859 4010.20435 688.58081 485
-16093.37695 4010.32397 961.85553 425
-16760.98633 4174.17627 1282.57556 404
-16149.71582 4132.56836 415.60538 475
-16040.85840 4103.73145 686.95734 485
-16045.20605 4102.68945 962.22125 426
-16687.16406 4267.34326 1278.47412 479
-16102.22266 4225.53613 419.43668 475
-15992.49316 4196.83789 687.23846 486
-15998.33887 4196.21240 961.01282 426
-16619.73047 4357.67773 1274.08435 480
-16051.02539 4317.04883 415.63885 475
-15945.94434 4287.75928 685.32281 486
-15947.18945 4292.23975 959.41534 426
-16551.09961 4450.84766 1272.25757 480
-16003.94824 4413.09912 418.16409 476
-15895.53516 4379.62158 685.98792 486
-15900.52051 4383.16309 959.19116 426
-16479.87500 4540.50049 1269.72449 481
-15956.37598 4502.35596 414.25076 476
-15850.27734 4473.92383 684.75940 487
-15850.98535 4475.66162 956.75720 427
-16413.51367 4629.79492 1267.26514 482
-15906.54688 4597.86865 417.38742 476
-15800.76953 4567.47217 685.64764 487
-15804.58887 4568.20801 953.99609 427
-16341.67285 4721.89355 1263.10400 482
-15855.04297 4690.46045 413.65732 476
-15752.90137 4658.74072 685.16052 487
-15757.80469 4660.20117 955.83734 427
-16287.79395 4812.35498 1263.08533 494
-15807.23340 4780.97705 416.95801 477
-15703.62402 4750.87402 682.59308 487
-15711.07617 4752.17773 953.73389 427
-16237.45020 4910.24756 1261.88037 494
-15760.50781 4871.20264 412.51791 477
-15656.97852 4839.70166 681.46857 488
-15663.77734 4844.16113 953.74005 427
-16184.38086 5003.39746 1261.75708 495
-15711.87988 4965.97510 412.72934 477
-15612.14648 4931.45557 682.02930 488
-15614.68066 4931.56152 952.42694 428
-16135.89160 5096.36377 1260.66296 495
-15665.73926 5055.00830 414.47913 478
-15564.85352 5024.57080 681.27039 488
-15569.09766 5021.95801 950.33673 428
-16083.51953 5190.79346 1259.17786 495
-15615.58887 5145.19287 415.28488 478
-15515.49414 5112.37012 681.67004 489
-15519.76074 5113.64697 952.47455 429
-16033.35938 5282.45898 1254.28528 495
-15569.34375 5235.38037 411.29211 478
-15467.84863 5203.75000 678.56696 489
-15473.75391 5205.79980 948.66010 429
-15986.88086 5378.60742 1255.20264 496
-15518.98438 5328.93750 412.22565 478
-15423.52539 5292.82520 679.85065 489
-15425.17871 5296.65527 950.06769 429
-15935.79297 5467.71191 1254.78955 496
-15472.88574 5416.74756 410.58884 478
-15375.15137 5384.63770 678.14868 489
-15376.83887 5385.11328 947.53674 429
-15886.55859 5560.37939 1250.06860 496
-3088.46704 1129.53223 79.10284 449
-15423.45117 5510.40820 414.23080 479
-15329.01270 5473.26611 677.33447 489
-15331.32812 5473.57764 948.15137 429
-15835.46777 5657.05420 1249.93396 496
-3079.72070 1148.46033 79.03406 452
-3086.22510 1151.06396 133.96663 409
-15378.82617 5597.50635 411.19376 479
-15280.00488 5564.58887 676.53473 490
-15284.75488 5565.89648 944.34094 430
-15787.95410 5748.93408 1252.13049 497
-15825.45215 5758.44287 1530.85596 496
-16010.13672 5828.85840 1829.48120 366
-15327.98047 5691.32666 412.47610 479
-15234.69238 5652.93652 677.88715 490
-15237.36133 5654.52197 946.07214 437
-15740.36328 5838.93066 1250.01685 497
-15774.92969 5853.40625 1531.93799 497
-15900.53613 5902.02734 1820.55176 320
-15285.03711 5779.71143 411.08041 479
-15189.02637 5745.19336 675.52264 490
-15190.21875 5746.22949 946.01160 437
-15691.72852 5930.06543 1248.96423 497
-15690.84668 5933.46143 1524.25610 438
-15236.99805 5871.74854 411.61642 479
-15140.27246 5831.43213 678.68951 490
-15144.82715 5834.27441 944.72937 437
-15574.24707 5997.58154 1243.68506 439
-15572.06738 5995.96631 1518.79016 439
-15189.63574 5958.21777 413.35245 480
-15094.35449 5921.59424 676.67365 490
-15102.55664 5927.00684 944.51251 438
-15457.70410 6063.75586 1234.85681 440
-15455.98047 6061.05127 1510.86792 440
-15141.11426 6047.45361 409.92700 480
-15050.46973 6013.50391 677.44476 490
-15055.28711 6013.90430 942.47369 438
-15344.76953 6128.81055 1230.19983 498
-15336.44238 6126.38037 1502.92554 497
-15091.76172 6137.70020 412.41211 480
-15003.43945 6101.84619 677.06122 491
-15008.52051 6105.60059 945.08435 438
-15294.92969 6221.30615 1230.47400 498
-15291.10840 6217.61768 1505.05481 498
-15477.88574 6292.83447 1797.41577 445
-15465.57324 6286.53662 2073.42114 445
-15457.63477 6286.28223 2353.28052 445
-15448.23535 6282.03076 2631.87134 444
-15447.61426 6278.61084 2909.77197 465
-15449.44336 6281.99268 3192.22485 415
-15049.06934 6225.60352 412.08627 480
-14956.99902 6190.42334 675.07758 491
-14963.25098 6194.15332 943.23358 387
-15215.93750 6299.54980 1229.83325 498
-15239.78027 6304.82471 1503.19641 498
-15490.77832 6409.87891 1802.76208 453
-14999.69531 6316.73047 409.20761 480
-14908.36719 6277.92480 676.58459 491
-14920.56934 6283.87402 940.22009 387
-15168.62012 6389.24170 1226.32581 498
-15193.27832 6397.27295 1501.17432 498
-15443.16797 6502.22900 1801.06299 453
-15525.22461 6537.25195 2091.01270 485
-14954.28516 6405.29590 409.08237 480
-14864.35059 6367.79150 676.15887 491
-14874.30566 6374.77148 941.41577 387
-15120.17871 6478.68359 1225.06042 498
-15144.69727 6488.92871 1500.47815 498
-15397.68457 6593.09717 1802.45044 453
-15475.39258 6625.45264 2091.76636 485
-14906.84668 6493.66357 409.77429 480
-14818.13184 6458.12109 676.37549 491
-14830.62402 6462.91162 944.01562 387
-15072.42578 6566.47559 1228.44189 498
-15094.87402 6576.66504 1500.31750 498
-15346.89160 6684.83350 1800.09290 470
-15427.94727 6719.74658 2091.36108 485
-14857.42188 6583.30957 409.02026 480
-14769.96191 6543.54736 672.38788 491
-14786.98633 6553.40039 941.47516 387
-15027.85156 6657.80225 1228.02783 499
-15047.96191 6667.91211 1500.93433 498
-15295.13770 6778.26123 1799.65137 470
-15376.59082 6809.43506 2088.91528 485
-14813.79883 6672.85693 411.77692 481
-14725.68164 6632.98926 675.03241 491
-14741.16797 6641.92529 939.55493 387
-14978.84766 6749.50684 1223.61145 499
-14999.79199 6754.58008 1498.83203 498
-15248.52930 6869.53906 1799.87598 470
-14765.87793 6761.96338 409.64462 481
-14678.20996 6722.80811 674.32947 491
-14917.96777 6833.19043 951.10150 499
-14931.37500 6838.03564 1226.02820 499
-14954.65820 6845.59033 1497.48059 499
-15196.85742 6956.47510 1796.85889 471
-14719.16602 6848.32373 409.54117 481
-14631.78320 6811.52832 672.52930 491
-14871.60938 6920.25928 953.55817 499
-14911.77930 6938.93359 1227.60010 499
-14905.86328 6934.79980 1498.85352 499
-15149.33301 7046.68262 1798.05713 472
-14673.86426 6937.56006 409.75049 481
-14587.67773 6899.30469 674.65521 492
-14824.75586 7011.53320 952.76624 499
-14861.78320 7027.64062 1225.28870 499
-14858.81250 7025.09619 1495.36926 499
-15100.38281 7137.69678 1797.70459 472
-14624.50098 7025.79297 407.78906 481
-14542.20605 6987.66504 674.21716 492
-14777.36426 7099.11621 951.41516 499
-14704.60156 7064.88867 1218.49939 417
-14808.89746 7115.17480 1498.96265 499
-15049.95312 7232.22998 1794.94958 468
-14577.85938 7116.68066 407.91061 481
-14492.72168 7073.79150 675.85065 492
-14729.51465 7187.80029 953.18280 499
-14769.08887 7206.08838 1227.40332 499
-14762.33496 7204.42969 1497.42847 499
-15003.30664 7323.54053 1794.29932 469
-14532.26562 7205.67285 407.73917 481
-14448.28223 7164.42139 672.17072 492
-14678.96094 7275.62451 953.05811 499
-14719.91016 7298.68506 1224.00598 499
-14712.34766 7294.17676 1494.19507 499
-14955.56543 7412.79150 1796.39697 469
-14486.09180 7292.89062 411.11795 481
-14402.68555 7254.05811 673.02008 492
-14632.22754 7367.37109 952.10400 499
-14671.07227 7387.99023 1223.61584 499
-14665.99023 7382.37109 1495.47253 499
-14909.76953 7506.88281 1794.39526 469
-14437.27930 7380.84424 411.09991 481
-14357.19434 7338.14453 672.30975 492
-14587.28809 7456.47363 949.85699 499
-14650.79883 7489.64551 1227.38879 464
-14646.57324 7485.13477 1498.39990 463
-14873.63770 7600.73242 1797.20947 462
-14391.85156 7469.47656 410.33777 481
-14310.46289 7428.35400 671.97552 492
-14539.05566 7547.94482 950.56165 499
-14659.05469 7611.12109 1231.35156 463
-14653.31934 7607.38086 1503.04102 463
-14855.96973 7711.84814 1801.19727 451
-14344.83887 7560.08350 409.73886 481
-14262.13867 7516.91553 671.40881 492
-14490.92871 7633.62695 951.26270 499
-14660.56543 7725.53271 1235.71667 479
-14661.15820 7727.02393 1508.15588 462
-14295.86230 7646.23730 407.80716 481
-14218.66797 7606.60010 672.11011 492
-14462.62500 7734.55322 954.59668 424
-14646.75488 7831.59961 1236.71667 479
-14672.94824 7848.75488 1515.71436 350
-14250.13379 7734.29199 408.69904 481
-14174.19922 7693.71924 674.12317 492
-14467.42188 7855.02246 955.16217 423
-14628.06250 7940.24902 1241.17126 478
-14202.02441 7824.59326 411.62958 481
-14128.00000 7781.12598 674.76953 492
-14472.60938 7972.76807 959.28094 423
-14612.70996 8048.15625 1243.40454 478
-14156.23340 7914.32764 409.04825 481
-14081.43848 7868.71338 674.25934 492
-14476.82129 8089.17627 959.83905 422
-14110.04688 8003.18262 408.92172 481
-14034.70898 7956.37891 673.29333 492
-14482.88672 8210.54004 962.92926 421
-16712.38086 9603.20508 -488.92929 1000
-14062.85938 8088.28711 409.36435 481
-13988.12402 8048.11084 672.27289 492
-14019.27441 8176.42773 411.34598 481
-13940.17969 8134.83691 672.16803 492
-13969.90039 8266.27051 407.44263 481
-13896.34668 8224.18457 672.84827 491
-13922.54492 8355.13086 408.55652 481
-13851.13672 8312.18457 674.19214 495
-13876.65332 8445.01953 409.39493 481
-13801.60547 8398.92676 676.16467 495
-13830.50293 8531.43652 408.66321 481
-13754.81934 8489.18750 672.22479 494
-13782.01074 8620.75195 410.38727 480
-13710.82910 8576.17676 674.23016 494
-13734.18848 8711.03027 411.68216 480
-13664.19336 8665.62891 673.85645 494
-13688.88867 8798.44043 408.19025 480
-13619.08105 8757.05469 674.48199 494
-13642.46094 8890.45703 411.79437 482
-13571.44141 8843.09668 673.88495 494
-13595.14648 8980.33984 409.42279 481
-13524.92676 8934.50293 674.65790 494
-13545.77539 9064.99902 410.90741 481
-13478.77734 9022.75879 675.77563 494
-25071.83203 16726.29297 7197.85938 1000
-13498.08594 9154.67285 412.60660 481
-13430.82910 9113.18457 674.58124 493
-13453.45020 9244.22070 408.51010 481
-13387.97168 9198.66406 676.11438 493
-13403.71777 9335.00977 412.68164 481
-13339.64746 9291.08984 678.23291 496
-13356.96777 9427.06055 409.80197 481
-13291.23828 9380.47949 675.82788 495
-13311.46094 9514.52246 410.23227 480
-13247.92383 9470.79785 679.39691 495
-13263.68750 9604.38672 413.18405 480
-13197.19922 9561.08301 677.44952 495
-13216.15137 9697.27051 410.88522 480
-13150.21094 9648.82422 679.07794 495
-13165.34277 9788.08008 413.59439 480
-13104.35352 9738.99121 676.97388 495
-13119.52148 9876.03516 410.18225 480
-13056.42578 9830.81543 682.05530 494
-13072.08008 9967.47754 412.51392 479
-13012.25488 9922.71094 681.90491 494
-13024.64941 10056.95508 410.74500 487
-12961.84082 10012.66699 682.66583 494
-12976.46777 10151.34570 412.15207 487
-12918.08887 10103.65820 680.79443 494
-20954.51562 16554.21484 -2047.14270 1000
-21013.29102 16600.26953 -730.57654 1000
-12929.72656 10241.29297 411.77289 487
-12868.94238 10193.10742 681.86353 493
-12878.61133 10335.08203 412.05814 486
-12822.94824 10289.23535 682.07550 493
-12829.79395 10422.75781 413.29996 486
-12774.63574 10379.25000 685.31635 493
-12784.88770 10516.08594 412.76208 486
-12727.99609 10471.61914 685.53094 492
-12740.98535 10615.08789 413.74344 467
-12678.92871 10561.04688 686.37085 492
-12703.20898 10717.98438 414.56354 468
-12631.08398 10657.33887 686.53241 490
-12667.43457 10819.47656 416.28717 468
-12587.26855 10751.89258 686.07440 490
-12628.92578 10922.86230 416.73245 467
-12544.97852 10847.88965 685.38068 489
-12593.67383 11026.73145 415.12427 467
-12502.87402 10952.39355 687.23627 473
-12553.88867 11133.91016 418.38123 466
-12466.93066 11054.37402 690.87372 472
-12514.40332 11238.34863 420.27219 466
-12427.62207 11158.63770 692.21832 472
-12478.04590 11342.99902 420.09799 426
-12390.43262 11265.46387 693.51672 471
-12464.02051 11467.05957 418.31796 425
-12354.33984 11368.33496 692.92175 473
-12445.45020 11592.96777 420.45746 424
-12319.67285 11482.00977 693.04773 472
-12433.16309 11725.03711 422.15335 402
-12291.42383 11592.62891 694.98639 471
-12422.19629 11863.10742 426.51926 401
-12256.31055 11702.08398 698.32111 471
-12414.70508 12003.99512 423.44107 375
-12232.96777 11827.31543 698.90070 414
-12425.26367 12161.90137 429.65430 374
-12212.48535 11955.98242 701.52649 413
-12476.82031 12358.46191 428.52737 306
-12197.35742 12087.32715 705.28033 413
-12180.80566 12218.19043 709.47198 414
-12184.99902 12370.70410 710.84070 376
-12191.02441 12536.57715 717.07373 375
-12202.62500 12698.94531 722.98590 374
-12292.08398 12945.99512 726.22009 310
-39897.93750 46143.16797 1164.10291 1000
-28414.97461 34145.04297 -5700.29883 1000
-1569.47388 2097.44604 89.69357 337
-1530.03003 2074.65674 90.33985 339
-1605.46814 2171.17358 133.63235 485
-1542.53577 2116.68628 45.98537 321
-1497.46899 2058.72681 90.31187 359
-1498.99109 2086.51025 47.36087 356
-1469.02869 2047.92834 90.75928 360
-1595.37036 2213.36841 133.65616 336
-1449.31726 2048.21729 49.32083 268
-1441.10742 2037.49719 91.50393 373
-1410.64661 2022.98865 50.41324 337
-1417.30896 2031.68567 91.96096 340
-1379.97510 2006.69299 51.45657 338
-1394.57812 2027.37964 91.70682 340
-1352.88660 1995.90271 52.03449 397
-1372.54358 2023.46118 92.22694 292
-1328.42212 1988.33362 52.96153 398
-1492.83960 2216.95581 88.38757 468
-1306.09900 1982.11536 53.79861 410
-1378.03735 2083.94702 91.40813 421
-1283.81567 1976.13708 53.89744 411
-1355.20679 2079.02124 91.92908 422
-1355.97754 2079.89941 133.11407 422
-1262.22705 1970.86816 54.46554 421
-1333.13257 2074.28247 91.82817 423
-1339.55249 2084.16870 133.38823 390
-1241.26917 1967.18762 55.01160 422
-1312.35144 2071.38208 92.21918 499
-1335.86768 2105.31226 133.40143 389
-1220.88110 1962.42261 55.84217 424
-1307.64124 2092.03540 91.81052 427
-1331.15637 2127.45605 133.42578 388
-1200.81604 1958.40479 55.97107 425
-1303.22827 2113.12915 91.75571 426
-1327.07361 2149.63184 133.03009 388
-1180.82446 1954.46948 56.77657 426
-1250.98438 2061.63550 92.79515 427
-1322.57617 2171.55029 133.28337 387
-1186.24219 1989.26306 17.04926 417
-1161.39539 1950.85132 56.86816 427
-1226.40686 2051.14258 92.93790 428
-1318.79102 2194.48901 133.45818 386
-1166.40820 1985.13147 17.47513 418
-1142.13354 1947.20312 57.28465 428
-1210.06470 2054.10791 93.23951 423
-1146.50293 1981.25867 17.80300 419
-1122.82385 1943.55811 58.12468 429
-1206.11646 2075.92310 93.21937 422
-1127.08020 1977.14209 18.95499 420
-1104.17322 1939.90344 57.98600 430
-1207.50085 2106.91333 92.46131 431
-1193.12109 2083.55371 213.36261 467
-1107.83813 1972.78894 19.33990 402
-1085.26428 1936.47742 58.36967 431
-1122.11243 1995.62769 94.63364 432
-1191.06445 2108.71680 173.46785 488
-1177.69812 2087.59155 212.80330 497
-1088.17542 1967.84790 20.17633 402
-1066.80994 1932.79358 59.04192 432
-1104.49817 1994.36609 94.66376 413
-1106.28149 1997.44531 133.06194 299
-1167.77991 2100.03052 213.19775 459
-1157.87378 2083.40918 252.19055 304
-1068.92590 1963.22803 20.60545 403
-1048.81274 1928.82349 59.56197 433
-1094.88440 2006.76465 94.93708 435
-1050.05383 1958.80737 21.22194 404
-1030.30823 1925.33862 59.64099 434
-1096.82153 2038.15649 94.18081 411
-1145.85291 2122.57227 294.27792 435
-1030.25403 1952.16846 21.89725 309
-1012.74884 1922.30505 60.12556 435
-1091.92261 2059.80664 94.19697 415
-1009.94843 1945.09717 22.91138 309
-995.16412 1918.96826 60.54914 414
-1087.82092 2081.16455 93.52277 414
-990.17761 1938.28711 23.91781 310
-977.57947 1915.87292 60.62413 415
-1023.96375 1998.54126 95.17857 305
-970.89490 1931.42151 24.63966 310
-960.48804 1912.99622 61.01094 416
-1078.63379 2125.96851 92.84856 412
-951.46838 1924.45923 24.94124 310
-943.61847 1909.69434 61.31291 416
-1073.41699 2148.25903 92.56100 416
-1003.54553 2019.84656 208.16229 411
-1005.44391 2023.72083 321.72922 485
-932.96179 1917.86316 25.92119 311
-927.18372 1906.63818 62.03613 417
-1061.90613 2157.55200 92.72108 459
-914.06738 1910.88721 26.47492 311
-910.32477 1903.82812 62.00819 418
-895.49390 1904.31128 27.43100 312
-893.65015 1900.94531 62.58483 419
-997.31470 2098.94287 210.00191 461
-878.71777 1900.16345 28.05140 393
-877.63452 1898.43140 63.10323 420
-985.66400 2108.66064 210.13266 406
-991.09631 2119.03809 249.96542 483
-861.71875 1895.76526 28.61166 394
-861.21008 1895.38550 63.17200 420
-845.12189 1892.06311 29.01889 395
-845.38416 1892.52832 63.42534 421
-828.41827 1887.89392 29.35509 396
-829.60779 1889.79224 63.56520 422
-812.50244 1884.42615 29.94159 435
-813.55414 1886.75720 64.01860 423
-799.47742 1886.78113 29.87588 435
-801.04663 1889.73352 63.91331 401
-299.45102 849.35944 8.81973 303
-786.44965 1889.22778 30.40716 353
-788.78357 1894.24011 64.01287 401
-290.77112 844.56836 9.74407 436
-292.20065 847.75012 25.01848 436
-294.53165 852.36530 39.92157 375
-774.54053 1894.09131 30.06217 354
-888.18884 2140.83740 55.30089 447
-284.37589 844.22974 10.17233 498
-285.63940 846.82550 25.19954 478
-286.61252 849.27643 40.34113 479
-287.75925 852.13812 55.63017 429
-289.67682 855.68646 70.75834 375
-820.04065 2026.14832 23.13167 393
-820.22986 2026.07678 59.87320 452
-820.44073 2026.66553 96.26538 452
-279.03250 846.24017 10.28943 494
-279.85016 848.28363 25.44522 493
-280.94702 850.33582 40.48875 498
-281.82370 852.36633 55.59259 497
-282.70419 854.56537 70.85112 497
-284.14413 857.92212 86.17206 417
-831.44659 2084.90674 57.69914 263
-274.55759 850.26447 9.96592 464
-275.44293 852.16101 25.19722 464
-276.22177 854.31726 40.47035 464
-277.01904 856.30103 55.67009 464
-278.06595 858.36151 70.75224 467
-279.87576 862.41644 85.82815 363
-819.02655 2092.14624 57.81334 263
-271.04666 856.87689 9.44119 414
-272.22787 859.67157 24.49254 348
-273.88593 863.45679 39.51377 348
-805.76288 2095.45532 20.53926 261
-807.04114 2099.74194 57.85793 263
-801.55493 2122.20776 19.59162 386
-796.80389 2111.24463 57.84954 387
-791.35052 2134.12476 19.16651 317
-786.37653 2122.83521 57.62110 431
-773.21857 2128.08716 20.02236 317
-769.63306 2119.62549 57.82386 432
-757.92340 2128.31909 19.91838 354
-754.98016 2120.66113 57.85344 464
-745.33484 2133.89966 20.26695 354
-741.28705 2123.96338 57.73193 393
-728.18243 2129.55127 58.09702 348
-441.72940 37338.39062 -9214.85254 1000
3814.73242 5824.21582 245.25958 1000
16469.60156 14196.74219 -1648.90271 1000
13971.74316 9949.48535 3523.98706 1000
2621.92749 1359.40295 -10.11034 352
2645.48218 1351.49890 -58.32597 294
2629.70776 1343.17712 -10.16477 424
2641.56738 1330.15784 -57.19309 294
2641.95874 1329.93579 -9.87122 441
2655.68677 1317.03467 -57.51188 443
2655.58301 1317.18237 -10.57235 454
2672.27856 1305.90271 -58.18222 435
2669.03003 1303.93115 -10.43637 454
2875.98315 1409.10693 28.96300 426
2688.43286 1293.96912 -58.74117 430
2683.18726 1291.70093 -11.13140 462
2872.07959 1385.62305 29.24835 430
2704.38184 1282.06335 -59.20265 429
2697.76685 1279.34644 -11.60851 462
2867.64575 1362.72766 29.60510 431
2720.45435 1269.90918 -60.43604 422
2713.06201 1266.36731 -11.46709 471
2863.82593 1338.83972 30.17066 431
2737.46753 1258.35510 -60.86708 422
2728.22607 1253.86328 -12.05654 464
2859.37280 1316.53503 30.68582 432
2756.19873 1247.52698 -61.50420 412
2744.65210 1242.26611 -12.62084 467
2854.83691 1293.75342 31.22040 433
2775.92578 1236.23706 -62.25256 405
2763.06714 1230.60010 -13.65858 458
2850.80469 1270.83948 31.32988 434
2796.27930 1225.62830 -63.82750 403
2781.55127 1219.14465 -13.65999 450
2845.93994 1248.87695 31.85393 435
2817.27490 1215.55994 -64.72735 402
2801.70703 1207.89893 -14.20446 445
2841.81494 1226.44678 32.68642 436
2840.09106 1205.58948 -65.75562 393
606.29175 266.06766 -32.74604 439
2847.18481 1208.07288 32.87192 486
2863.97119 1195.35437 -66.65773 386
2844.20264 1187.35620 -15.80182 429
2856.68945 1192.79187 32.68840 424
2893.80688 1188.29895 -68.59418 362
2869.42065 1177.86829 -16.90936 415
2882.66431 1183.57922 31.85035 418
2926.54590 1181.71045 -70.12642 368
2897.88916 1169.59949 -18.03851 395
2912.89502 1175.65686 31.37670 388
2960.61182 1174.86121 -71.99363 367
2931.46851 1163.17041 -19.34708 384
2993.66650 1168.14587 -73.75243 375
2965.96313 1157.32068 -21.55211 383
3027.05005 1160.79749 -76.05868 380
3001.19556 1150.80542 -23.01381 382
3062.53564 1153.44434 -77.37482 378
3037.29565 1144.23157 -24.40469 380
3098.34644 1146.62622 -79.53237 377
3074.05103 1136.94141 -25.81753 379
3135.04419 1139.21655 -82.01787 376
3110.94312 1130.72754 -27.80760 378
3172.34863 1131.46094 -84.54773 375
3149.14062 1123.66284 -29.10845 376
3211.62012 1124.18481 -86.56884 369
3188.20068 1116.04773 -30.31534 375
3252.44897 1117.11450 -88.74724 366
3228.18384 1108.50696 -32.77780 367
3294.44531 1109.96228 -91.64996 364
3270.53564 1101.59070 -34.80024 371
1565.18323 382.60165 -43.21244 392
1572.67700 384.35538 -19.15278 322
1560.78333 371.80246 -42.56795 486
1564.75281 372.81250 -18.02549 485
1569.23059 374.07404 6.80365 453
1573.08167 374.91968 31.36137 448
1562.27661 362.49304 -42.35450 488
1566.42798 363.86682 -17.76791 488
1571.41821 364.97760 6.46806 485
1576.18652 366.12039 31.57460 453
1568.87097 354.82382 -42.95971 453
1575.80554 356.22458 -18.51432 398
2596.92017 -131.83096 -33.52195 495
2599.81396 -132.31262 7.66426 495
2604.70947 -148.15807 -33.46562 299
3607.56714 -403.26639 -42.58271 365
3567.64575 -419.43228 -41.65981 433
3554.53955 -440.03870 -40.43278 477
3544.08008 -459.65247 -40.70448 480
3533.53638 -479.94183 -40.24198 485
3637.09473 -495.15427 13.67933 394
3526.93115 -500.96396 -39.53511 485
3516.19702 -520.51440 -39.63460 490
3505.48926 -540.11285 -38.92693 410
3494.55688 -560.52075 -38.25304 491
3485.52881 -580.05438 -38.50275 491
3477.33008 -600.37885 -37.93142 493
3469.62524 -620.66150 -37.76922 494
3462.27026 -639.95984 -37.42458 495
3565.11475 -660.06348 15.24660 421
3455.26904 -660.29242 -37.87134 476
3550.51953 -679.03076 15.67834 254
3568.57153 -683.08765 73.00807 327
3568.83643 -682.79401 130.90308 289
3448.64185 -680.72528 -37.71275 476
3502.02271 -691.25903 16.49383 254
3502.29883 -691.44312 73.56133 492
3502.96460 -691.49164 130.57202 421
3443.23975 -701.29852 -36.91197 477
3482.92871 -708.71680 17.67711 493
3476.73047 -708.17719 74.07870 499
3491.00195 -711.28156 130.49394 413
3436.73584 -720.93976 -37.57351 477
3474.65137 -729.11859 18.11598 494
3474.60254 -728.72931 74.74728 499
3488.32178 -731.89197 130.45059 427
3431.52979 -741.36945 -36.78404 478
3469.50830 -749.92261 17.57164 499
3470.74463 -750.45197 74.06850 499
3485.10962 -752.97992 131.15668 425
3425.89844 -762.03003 -37.05051 478
3466.40527 -771.03424 17.29361 499
3467.65137 -771.61261 73.89674 499
3480.52124 -774.01593 131.25984 425
3421.25366 -781.91833 -37.55067 478
3462.70312 -791.66089 17.74965 499
3463.28247 -791.85449 73.83876 498
3475.40405 -794.28815 131.39525 421
3708.83008 -849.29779 312.87225 486
3416.31885 -802.12848 -37.49453 478
3453.80786 -811.57379 17.86117 499
3455.14136 -811.63226 74.55213 499
3471.23486 -815.80603 130.64975 425
3469.44019 -815.57977 187.44327 473
3411.86621 -823.29468 -37.43013 477
3441.52783 -830.44019 17.78733 499
3451.59692 -832.96918 74.29786 499
3467.93604 -837.24371 130.56271 425
3407.34009 -843.12177 -37.17796 478
3447.53491 -853.49731 17.69438 499
3448.42114 -854.16907 73.91128 499
3463.64502 -858.34296 131.10211 425
3403.39819 -864.54553 -36.78441 477
3444.33350 -874.69824 17.16877 498
3445.13013 -874.79938 73.97363 498
3459.97852 -879.16046 131.15549 425
3399.33374 -885.04333 -36.81997 477
3445.98584 -897.07104 17.20021 498
3446.16333 -896.94659 74.26221 498
3454.57227 -899.84039 131.08337 426
3395.62573 -905.20551 -37.66003 475
3442.10376 -918.16504 17.13279 498
3443.03345 -918.52679 74.51505 498
3451.70532 -920.87891 130.79204 424
3392.07080 -926.42664 -37.85524 497
3438.21118 -939.64276 17.05633 498
3440.07861 -939.85626 74.46304 498
3447.28882 -942.24554 131.23318 424
3389.12378 -947.08368 -37.79187 497
3435.21069 -960.55438 17.10887 498
3436.58765 -961.15680 74.50566 498
3443.50171 -963.00671 131.15587 424
3384.85303 -967.92706 -37.29720 497
3431.56665 -982.13263 16.66743 498
3433.18359 -982.33478 73.64018 498
3439.76807 -984.18951 130.80649 424
3537.12354 -1013.57959 189.87155 495
3381.87256 -989.66772 -37.34979 496
3427.95923 -1003.59735 17.06350 497
3429.18237 -1004.01868 73.81471 497
3417.20386 -999.86438 130.99231 341
3377.83569 -1010.62811 -38.13931 496
3432.39331 -1026.66980 73.67102 465
3413.65845 -1021.01379 130.60880 465
3549.19312 -1063.34180 190.52565 488
3373.91138 -1031.07703 -37.85118 496
3504.16113 -1071.70044 189.97238 486
3370.85205 -1052.27087 -37.77760 496
3556.82568 -1111.92029 190.03352 494
3366.74194 -1073.51013 -38.56482 495
3522.36743 -1124.64856 190.25504 340
3363.21167 -1093.97278 -38.11662 495
3359.75903 -1115.37659 -38.64171 495
3359.63574 -1137.83325 -38.57043 496
3356.12695 -1158.95520 -38.75329 480
3350.68164 -1180.30127 -39.30962 495
3349.61670 -1201.77332 -39.98317 495
3346.42041 -1223.53271 -39.71108 495
3339.82642 -1244.26599 -40.22617 494
3378.54175 -1258.54785 15.97010 359
3336.39648 -1265.35828 -39.81925 494
3335.22070 -1288.09265 -40.76302 494
3386.26196 -1308.88098 14.96695 494
3332.11572 -1310.06909 -40.67141 493
3389.04053 -1332.67334 14.83653 260
3326.08911 -1330.41541 -40.92693 493
3379.65820 -1353.04700 14.99668 493
3324.10571 -1353.50793 -41.43734 493
3359.50342 -1368.50549 15.10256 498
3369.29785 -1396.32764 -43.75278 492
3408.36401 -1412.27246 13.35855 498
3412.35791 -1438.73584 -46.63619 431
3397.00317 -1431.87512 13.47023 498
3396.28833 -1455.42737 13.40837 472
2084.69604 -1649.99182 -38.06282 280
2060.78394 -1650.57898 -36.91665 494
2065.80518 -1654.48242 5.45029 495
2070.92261 -1658.79102 47.13784 414
2055.08374 -1666.74487 -37.12968 432
1250.11487 -1684.73230 -1.76578 430
1233.01953 -1681.60608 -0.84660 429
1240.76257 -1692.89758 31.62200 333
1218.88599 -1683.16431 -0.43533 430
1212.90393 -1674.65076 32.91970 434
1203.21838 -1681.45532 -0.07546 431
1197.28333 -1672.89685 33.41722 435
1187.27600 -1679.76660 0.81032 431
1181.16089 -1671.18188 34.12179 441
1194.69019 -1691.02551 65.84388 445
1171.50403 -1678.26086 1.10977 432
1166.01660 -1669.51819 34.32974 436
1178.89893 -1689.75891 66.27409 446
1155.99194 -1676.91638 1.95355 432
1147.38208 -1663.35706 35.35709 447
1163.09509 -1687.92249 66.61805 447
1140.57581 -1675.05457 2.76826 434
1132.12439 -1662.26050 35.96708 447
1148.35742 -1688.12756 67.14259 479
1125.27783 -1673.47156 3.40720 433
1117.69250 -1660.92297 36.07859 393
1149.58008 -1712.50049 66.28134 399
1110.01392 -1671.82080 3.66678 434
1102.81763 -1660.39294 36.45846 449
1111.21191 -1674.38818 67.88171 452
1094.60339 -1670.10828 4.20616 435
1087.88550 -1658.88770 37.05967 450
1141.22485 -1747.21741 65.25448 475
1079.94263 -1668.54102 5.17726 436
1074.69763 -1660.19006 37.35842 451
1155.40332 -1795.58984 63.64841 397
1064.91296 -1666.29443 5.88464 437
1060.18738 -1658.71045 37.57937 452
1153.22632 -1817.25732 63.04725 396
1050.39441 -1664.86963 6.38959 426
1046.15332 -1657.12476 38.42471 453
1151.36353 -1839.49780 62.95956 394
1028.26721 -1664.30200 5.06477 426
1023.28607 -1655.97217 36.81042 454
1127.48596 -1839.00647 61.28355 460
1013.88452 -1663.24084 5.32375 427
1009.38715 -1654.97314 37.60119 455
1126.14575 -1863.20056 60.30983 391
1000.15247 -1661.81433 6.21146 428
995.29633 -1653.27454 37.86059 456
1001.69452 -1664.04797 68.14764 385
986.26459 -1660.62817 6.49787 429
981.76733 -1652.33826 38.17743 457
1117.52393 -1901.41321 59.17929 471
972.72351 -1659.58032 7.30756 429
967.64453 -1651.07117 38.53130 458
1109.75549 -1914.97925 59.42279 457
958.77460 -1658.41431 7.49426 430
954.39624 -1649.40796 39.02696 458
1093.70923 -1913.38647 59.28798 458
27628.96094 -52781.51562 -12794.78418 1000
945.41547 -1657.50195 8.14026 431
940.45520 -1648.53357 39.08340 459
1078.51843 -1912.05884 59.87729 459
931.91382 -1656.64246 8.37865 431
927.19537 -1647.09033 39.89368 460
1062.67358 -1910.37134 60.23251 459
918.96497 -1655.55737 8.89459 432
913.86902 -1645.91333 40.26536 461
916.80060 -1651.39307 69.89683 463
905.36511 -1653.98730 9.69761 427
900.50854 -1644.73096 40.19031 462
904.25854 -1651.41626 70.13305 463
891.83795 -1652.18872 9.97321 428
887.55963 -1643.58411 40.64700 462
891.08105 -1650.32312 70.59705 464
878.54736 -1650.61426 10.76303 428
874.32635 -1641.90857 41.25790 463
877.80811 -1649.30200 70.56712 465
865.48572 -1649.54724 10.81742 423
861.53595 -1640.90381 41.61106 464
865.22113 -1648.43359 70.76025 466
852.91498 -1648.69165 11.17118 424
848.97705 -1639.95789 41.78727 465
852.39783 -1647.01782 71.06005 466
840.25989 -1647.64404 11.86540 424
836.19403 -1638.29236 42.21399 466
839.35382 -1645.91614 71.60575 467
827.68005 -1646.68347 12.11093 425
823.72076 -1637.50867 42.38132 472
826.89319 -1644.90723 71.43050 468
815.15076 -1645.39661 12.89300 427
811.05072 -1637.11487 42.56715 472
814.40540 -1643.87476 71.96729 469
814.80719 -1645.28650 101.42040 472
802.56848 -1645.16113 12.88728 431
799.59448 -1637.36292 43.11808 483
802.30859 -1644.31250 71.88083 485
803.24695 -1645.71838 101.29023 485
790.65613 -1644.88293 13.32634 435
788.04712 -1638.04688 43.21196 487
790.75305 -1645.02856 72.16383 488
791.58954 -1646.55945 101.70813 485
779.16925 -1645.83276 13.46623 441
776.27045 -1639.34106 43.34094 488
779.26410 -1646.53613 72.08324 488
780.17072 -1647.94971 101.42564 482
12689.71777 -30235.65625 -8681.10742 1000
767.90955 -1646.96802 13.98212 441
765.01984 -1640.57312 43.54996 490
767.94434 -1647.19446 72.62832 487
771.74646 -1655.97217 101.45502 475
756.72729 -1648.05664 14.02287 442
754.09039 -1642.12366 43.62226 491
759.04260 -1654.58154 72.17606 479
763.26593 -1664.05835 101.41011 475
745.45587 -1649.54504 14.21219 441
743.39624 -1644.09741 43.60564 492
750.42371 -1661.95569 71.95415 479
757.75751 -1680.39307 101.43571 355
734.27557 -1651.69434 14.36939 443
732.38104 -1646.20386 44.01643 494
743.93372 -1675.57019 72.01353 355
755.30487 -1704.27820 100.72093 353
723.64972 -1653.76770 14.37764 442
721.88928 -1648.52710 44.00818 494
741.51312 -1699.77148 70.89896 354
752.68134 -1728.48779 100.47635 473
712.83521 -1655.92224 14.52837 442
710.90100 -1650.61914 43.92310 492
739.00037 -1724.26318 70.45433 353
750.39911 -1754.16589 100.27995 351
702.44550 -1658.18884 15.03819 444
700.58533 -1653.12354 44.09381 492
736.11072 -1748.89941 69.88425 351
747.84515 -1779.84021 99.78089 349
691.79468 -1660.46838 15.07653 445
689.97424 -1655.83984 44.45790 492
733.36292 -1773.34265 69.04913 350
745.15649 -1806.51819 99.28806 348
680.94836 -1663.39880 15.20155 445
679.28436 -1658.75525 44.24872 493
730.54071 -1799.69446 68.01917 348
742.47205 -1833.40039 99.08192 347
670.58234 -1665.90320 14.84094 446
668.86957 -1661.80017 44.14297 493
727.19928 -1826.80432 67.17793 347
739.23340 -1860.48450 98.18815 476
660.00110 -1669.11670 15.10380 446
658.61157 -1664.38123 44.37186 492
724.45477 -1854.57922 66.74387 290
650.01733 -1672.04700 15.38178 449
648.37231 -1668.34595 44.43688 489
639.53607 -1675.72351 14.91908 449
638.49939 -1672.25476 44.17986 489
629.35986 -1679.49133 15.36505 449
628.37750 -1676.15320 44.12150 489
619.57837 -1683.41907 15.12699 449
618.55792 -1680.28479 44.45983 489
609.37305 -1687.65051 15.12318 449
608.44208 -1684.10803 44.08647 488
599.59808 -1691.80566 15.00129 449
598.51678 -1688.18860 44.38147 488
589.64471 -1695.63440 15.12732 449
588.53241 -1692.22937 44.31564 483
579.58502 -1699.75623 14.65677 444
578.34253 -1696.06189 44.22687 479
569.34198 -1704.16431 14.83928 444
568.25775 -1700.78015 44.26848 479
559.10254 -1708.03162 14.92714 454
558.49274 -1704.72961 44.27213 478
548.95398 -1712.47510 14.52996 454
548.04224 -1709.37305 43.72791 471
538.73779 -1716.47864 14.45944 461
538.35181 -1714.21252 43.61326 471
528.81720 -1720.53894 14.43447 461
528.63422 -1719.22449 43.53476 466
518.79474 -1725.02795 14.52041 461
518.48535 -1724.43323 43.41441 466
512.83368 -1746.81238 12.98487 259
508.48288 -1729.40869 43.29634 463
498.84793 -1734.64978 43.43743 463
2813.08862 -33088.00391 6148.85693 1000
-761.52667 -3168.49927 238.76509 309
-1186.31384 -2585.28882 273.10507 275
-11744.74121 -18531.59766 1570.36853 1000
-1611.27283 -2006.44812 174.85042 338
-1610.32458 -2004.63745 218.29150 338
-1609.58435 -2003.81445 261.32376 338
-12383.03027 -6604.74365 -2435.53662 1000
-52889.82031 -27637.52930 -3780.35083 1000
-4149.82422 -2179.49341 132.91919 323
-4154.34668 -2149.87109 131.99290 452
-28022.76367 -13797.62402 -6629.84473 1000
-3590.33276 -1723.73047 132.05034 467
-3597.03027 -1727.22083 198.69791 467
-252.85719 -69.43002 36.76263 322
-273.13458 -73.51961 37.75755 318
-253.26782 -67.21256 36.73262 352
-270.85318 -70.67175 38.49617 321
-255.08606 -65.44564 36.34694 351
-269.55182 -68.14929 38.84033 345
-290.66721 -72.16507 40.30989 318
-271.37170 -66.17033 38.51167 345
-288.66422 -69.30995 40.88189 318
-273.36581 -64.20430 38.11511 347
-289.38977 -66.96442 40.77520 341
-275.17334 -62.09373 37.56713 346
-291.28259 -64.87437 40.42365 341
-18738.50195 -2129.19141 132.66788 1000
-196.08157 -12.48684 53.34018 324
-196.10159 -10.68446 53.33314 324
-196.12650 -8.89613 53.34907 324
-196.11920 -7.09597 53.35648 324
-196.13765 -5.32104 53.29307 324
-196.05548 -3.51515 53.34826 324
-196.06598 -1.68460 53.29457 324
-196.01514 0.12877 53.33046 324
