# .PCD v.7 - Point Cloud Data file format
VERSION .7
FIELDS x y z rgb
SIZE 4 4 4 4
TYPE F F F U
COUNT 1 1 1 1
WIDTH 679
HEIGHT 1
VIEWPOINT 4168.950684 -4091.368896 133.495575 -0.000799 -0.133980 -0.000694 0.990983
POINTS 679
DATA ascii
-32356.92188 3128.79468 656.70703 1000
-67009.40625 6487.25928 11242.61914 1000
-275.45459 58.47412 33.60936 319
-269.29095 59.77446 35.06734 326
-283.66074 62.06646 37.80986 323
-265.15457 61.24593 36.14427 350
-279.65176 63.77827 38.73247 347
-295.70364 66.50770 41.36052 341
-263.32776 63.20283 36.54931 351
-277.74496 65.75582 39.14462 345
-294.21930 68.71307 41.59003 319
-261.35153 65.03574 37.00363 351
-275.86276 67.73189 39.49329 345
-298.69656 71.96230 40.45367 258
-259.50595 66.95481 37.41135 352
-276.42133 70.13367 39.23987 321
-258.38776 68.96509 37.52423 325
-278.32950 72.83102 38.65878 319
-260.23505 71.50291 36.94394 322
-262.20764 74.19366 36.22647 321
-44284.33594 13664.21289 4678.83887 1000
-50474.26953 21530.80469 -12720.57422 1000
-47276.14844 25936.70703 -2561.45679 1000
-9092.55957 21292.25000 -2169.38721 1000
-291.43427 1950.79126 33.88058 364
-291.82629 1954.16846 66.07698 290
-277.58047 1942.70093 34.45837 496
-277.94067 1946.02600 66.91652 496
-278.81906 1950.25122 99.27164 471
-265.70670 1946.68982 34.31223 471
-267.72379 1956.76721 66.34464 362
-3477.37329 27071.38477 4166.62891 1000
1192.74609 15399.82617 380.66354 469
1293.72681 15464.22656 125.22794 468
1283.92236 15359.56445 378.51709 473
1384.54346 15424.94434 126.64162 457
1375.10437 15322.71484 376.78687 473
1374.89661 15326.03223 630.22723 466
1477.29053 15393.40234 125.67564 455
1468.47876 15287.25000 377.64908 477
1465.24854 15268.15723 627.40955 461
228.41068 1453.89758 12.68537 433
229.39674 1460.55750 35.91730 299
1567.40112 15358.86914 125.31786 456
1559.15991 15256.12598 376.74911 477
236.84740 1447.13025 12.96371 477
237.15482 1450.78552 36.56581 476
237.80391 1454.72229 60.54760 376
238.08630 1458.82581 84.26226 433
1660.62891 15328.00879 127.41727 456
1651.08313 15223.89941 379.59937 477
245.59018 1446.39087 13.22365 494
246.15292 1449.39587 36.76928 494
246.43076 1452.77478 60.40739 492
246.95538 1455.70837 84.51633 493
247.29001 1461.93713 108.02990 443
1752.81628 15292.37207 126.68591 456
1739.49548 15192.81055 376.11633 478
255.17691 1449.82068 12.61968 418
255.55402 1454.15808 36.25378 417
256.50848 1462.57971 60.13321 275
1841.89563 15261.48242 127.60233 457
1833.09058 15161.65430 378.53537 478
1932.24719 15227.79395 126.43812 475
1921.48718 15129.28613 375.54266 478
2026.64502 15195.39258 129.33813 476
2010.53296 15097.02344 377.03668 479
2113.93018 15164.68652 127.41737 476
2101.42603 15066.02734 376.94998 479
2205.42383 15130.48535 127.94848 476
2191.03735 15033.51270 377.70493 479
2295.70752 15100.32910 127.49253 477
2279.38452 15003.10449 374.26651 480
2387.32080 15069.13672 128.91144 477
2368.84521 14971.08105 377.23364 480
2474.01978 15037.46680 127.81455 477
2458.78296 14941.54492 375.62970 480
2566.73950 15005.44629 126.89776 477
2547.68457 14908.50195 375.40750 480
2654.44556 14973.22852 128.74515 478
2636.43921 14875.77148 373.09103 481
2741.95117 14941.42285 128.35670 478
2726.03735 14846.33984 374.56018 481
2831.15283 14910.05957 126.17221 478
2812.12769 14815.98145 376.52472 481
2921.99121 14881.92773 128.87970 478
2900.93628 14784.27246 374.50186 481
1838.50146 9195.57031 2151.54688 1000
3009.39355 14848.52637 126.96634 479
2991.83545 14754.30078 372.96103 481
3096.68823 14816.10938 127.65753 479
3076.57007 14722.77441 373.95514 482
3185.54614 14788.61523 127.68681 479
3166.71265 14693.83398 374.41815 482
3274.29468 14756.15723 128.61852 479
3252.53418 14662.13770 372.91840 482
3361.31396 14725.56641 130.88800 479
3341.11279 14629.95605 375.31400 482
3448.13843 14693.29199 128.68839 479
3426.42896 14600.64160 375.07724 482
3535.66821 14663.64648 127.09376 480
3515.22046 14567.94727 372.58624 483
3627.02856 14630.13574 130.53062 480
3603.88818 14540.09375 373.28397 483
3710.57764 14599.37305 129.41928 480
3687.65552 14508.29785 374.76056 483
3799.66113 14567.97949 129.12122 480
3776.37085 14475.25684 375.84946 483
3887.08765 14538.15332 129.61641 480
3863.95923 14446.20996 374.93442 483
3976.29858 14508.30566 131.52538 480
3950.31812 14417.58398 375.14230 483
4062.47266 14477.29590 128.70987 480
4035.02832 14388.00488 374.95175 491
4149.09668 14448.70020 128.24532 480
4123.27734 14355.85449 373.52371 491
4235.58496 14416.40527 130.45259 481
4209.01074 14325.74902 372.31766 491
4322.17285 14387.73145 127.92633 481
4296.84277 14297.41113 375.06250 491
4407.83984 14356.44531 128.09760 481
4381.24609 14263.50684 372.02869 491
4588.83008 14948.99902 639.91797 494
4589.97852 14948.81250 895.71820 493
4494.87451 14323.17969 128.26039 481
4468.62061 14236.87988 374.84354 492
4672.95605 14901.03125 641.12482 494
4674.56592 14898.05957 896.86316 494
4583.14307 14293.18652 130.29108 481
4555.41064 14205.08691 374.21085 492
4760.57080 14853.06055 639.07098 494
4758.19580 14854.19824 893.94415 494
4670.54150 14264.80762 132.03558 481
4642.96924 14175.14844 375.64322 492
4846.03809 14804.88867 638.85236 495
4843.42725 14804.43652 891.78955 494
4757.06543 14234.14355 131.89601 481
4728.06641 14144.70703 373.85129 492
4930.63672 14760.87207 638.34277 495
4930.62646 14758.45801 895.02063 495
4842.04834 14201.99121 129.16624 481
4816.22266 14113.08301 375.55988 492
5014.42480 14710.69727 636.03503 495
5013.72021 14710.69238 890.26538 495
4930.34961 14171.76270 131.77530 481
4898.86182 14086.55371 374.36066 492
5097.56396 14666.24902 639.54852 495
5097.29639 14664.38281 892.59857 495
5014.88818 14142.87402 131.24031 481
4988.52002 14053.34277 373.90466 492
5182.84473 14617.23145 635.11743 496
5181.16602 14615.55469 889.03949 496
4627.25244 13024.03223 1034.62878 1000
5103.31934 14111.09766 130.54729 481
5073.03809 14025.61719 373.57297 492
5264.84912 14570.72656 636.89862 496
5264.42090 14569.29883 891.40918 496
5191.28174 14079.39551 130.86356 481
5158.71582 13993.82227 375.54593 492
5351.06006 14525.44043 634.09064 496
5351.47803 14523.11816 890.66614 496
5277.02490 14048.63184 132.80200 481
5246.47607 13966.38672 375.31070 492
5438.03418 14487.77734 638.01324 499
5438.68848 14488.69238 890.84119 499
5362.41797 14019.98145 129.23752 481
5329.65918 13935.88477 375.12067 492
5529.19727 14455.43555 637.91071 499
5528.38721 14457.70801 887.54614 499
5449.79443 13988.38965 132.33568 481
5416.27637 13902.71094 374.60645 492
5618.68652 14427.56152 637.03986 499
5616.83740 14424.18652 888.70166 499
5538.69971 13959.43652 131.40924 481
5503.19727 13876.03320 374.42636 492
5705.80322 14391.13379 638.54138 499
5705.99170 14390.56641 889.76910 499
5623.99463 13925.93750 129.87909 481
5592.18945 13845.72461 374.52863 491
5784.81641 14336.44922 636.80243 482
5793.66309 14361.62012 890.68274 499
5712.27197 13896.60156 131.85417 481
5676.84766 13812.64160 376.82877 491
5861.74072 14267.05078 632.92834 482
5883.91260 14329.24609 890.62659 499
5795.52148 13864.48730 129.71350 481
5763.53955 13784.22461 374.52664 491
5935.18018 14196.74121 632.03809 483
5975.76318 14295.42480 891.09265 499
5883.37500 13834.02246 131.91542 481
5849.80811 13753.29102 375.67838 491
6007.98145 14128.84766 634.72693 483
6062.60010 14263.25684 891.15039 499
5970.94043 13806.42090 130.86786 480
5935.65137 13724.56152 375.31418 491
6080.56982 14062.90527 632.87665 484
6114.57471 14134.73730 886.64349 496
6059.56543 13773.58008 131.67061 480
6025.29541 13693.57031 377.37543 491
6153.89844 13992.15527 631.17334 484
6203.18115 14104.43750 887.63306 497
6144.47559 13742.96484 131.00589 480
6111.18164 13663.73535 377.60165 491
6225.43799 13927.00781 627.87982 499
6292.06885 14072.90527 886.77856 497
6347.23877 14205.05273 1149.01782 498
6424.13037 14380.98730 1419.29919 469
6230.42920 13713.25684 129.50002 480
6197.43213 13633.30566 376.88113 491
6204.33643 13653.41309 622.59363 430
6380.19287 14040.99219 886.86176 497
6439.84521 14172.52832 1151.12585 498
6498.70996 14307.20605 1416.84143 482
6319.44580 13681.46484 130.47731 480
6285.57861 13601.24512 375.95178 491
6293.52197 13621.72070 621.54596 430
6467.63232 14009.18262 887.05103 496
6528.69629 14140.93555 1149.52759 498
6604.97852 14308.82812 1422.41479 349
6405.88623 13652.50391 133.04424 481
6371.04395 13572.30078 374.80225 491
6379.34619 13590.06250 619.95227 430
6602.68506 14071.51660 892.50061 498
6610.00244 14086.04395 1148.40845 469
6494.59277 13621.30273 129.89526 481
6456.44482 13541.12402 378.78845 490
6465.74609 13561.27930 620.91241 430
6674.42090 13998.34180 891.30048 470
6671.05176 14000.76953 1146.07971 470
6717.20215 14089.04688 1408.10205 372
6580.58643 13588.05566 132.37111 481
6546.99365 13510.29102 377.21829 490
6555.04346 13529.92578 623.00964 429
6737.61572 13915.16992 890.46875 470
6737.05811 13911.78516 1143.74683 470
6779.16016 13996.04395 1405.94604 373
6671.11328 13559.98145 133.77713 481
6631.21729 13483.19531 377.90115 490
6640.54980 13498.14160 624.30139 429
6800.01953 13826.83008 886.19696 471
6802.32520 13828.72168 1137.26062 471
6840.63135 13907.05371 1400.26013 373
6757.41992 13529.16602 134.04024 481
6722.04492 13450.46875 379.29114 490
6729.22852 13468.39453 624.71539 429
6867.19971 13745.04395 882.76508 498
6866.73828 13747.35156 1134.38342 497
6899.96729 13815.12500 1393.33911 374
6847.44678 13494.70703 131.09117 481
6808.62012 13421.90039 379.42676 490
6813.71631 13435.22363 625.79651 429
6955.94580 13715.65137 886.64679 498
6953.57178 13712.33398 1135.90271 497
6985.93555 13780.53223 1397.20825 390
7109.63477 14021.19531 1676.44690 484
7315.52832 14434.65332 1988.75720 468
7317.19434 14443.22363 2259.64453 297
6931.56982 13464.27148 133.99799 480
6894.37744 13387.57031 376.48914 489
6901.41211 13406.04102 625.44861 430
7031.04102 13653.61523 886.13306 497
7027.87256 13652.66309 1135.97363 497
7077.31494 13749.61719 1398.16968 390
7137.12549 13861.07520 1665.79211 345
7134.13818 13864.65234 1919.64990 345
7134.34521 13865.71973 2181.15405 345
7022.68945 13432.10645 132.95090 480
6983.29688 13357.98438 380.12045 489
6989.91797 13373.21875 625.86444 429
7117.86279 13622.45312 885.97693 497
7120.63086 13620.57324 1134.98901 497
7167.16162 13718.84668 1397.55591 389
7294.09961 13960.22559 1677.33301 484
7109.07227 13404.64062 132.28011 480
7072.41895 13328.03320 376.50568 489
7076.50781 13342.94922 625.56189 429
7209.82666 13590.98730 887.63647 497
7208.69580 13587.66895 1137.41370 497
7262.17529 13687.45703 1398.44604 389
7361.79053 13879.59961 1673.82605 453
7198.58887 13373.18359 134.00662 480
7160.47656 13297.32812 378.52176 489
7164.72754 13309.23340 623.84625 429
7296.43018 13559.18066 885.19592 497
7296.83154 13554.93359 1137.01819 496
7350.98486 13656.15918 1398.75037 389
7476.29102 13892.84277 1682.66235 483
7288.52734 13341.05859 133.97197 480
7247.52490 13267.72461 378.96201 489
7252.75830 13277.16992 627.58032 429
7387.12646 13524.49121 886.45984 496
7388.29150 13523.48730 1139.85205 496
7442.80078 13626.07617 1403.07483 389
7569.16357 13857.86133 1682.69958 483
7375.56836 13307.33691 131.31923 479
7337.38281 13233.85059 380.74417 488
7342.19971 13249.72461 625.60315 436
7478.69287 13492.34082 886.28168 496
7477.43896 13493.58594 1141.60400 496
7532.94336 13596.89453 1404.07141 389
7659.98730 13825.02832 1683.48792 483
7464.78711 13276.64453 131.58191 479
7423.70996 13204.87109 379.59689 488
7431.47754 13217.16406 625.73468 435
7565.86475 13459.96191 891.15875 496
7565.66113 13459.10547 1144.02759 496
7627.37891 13564.65723 1407.34814 389
7556.56787 13246.97852 131.94801 479
7514.67578 13174.60352 381.62744 488
7521.49561 13189.64746 627.67200 435
7659.19141 13427.07715 892.16663 496
7655.91992 13427.07520 1142.19214 496
7716.14404 13533.37988 1405.01208 389
7643.68652 13215.49805 131.93495 479
7604.36670 13140.66699 379.03363 488
7611.37207 13156.66992 628.28870 435
7762.54688 13422.01367 891.03503 496
7761.95947 13422.43164 1144.60364 495
7809.29004 13504.86816 1406.79761 388
7731.67432 13183.72363 132.79762 478
7693.18555 13111.46875 382.57376 487
7700.23438 13128.98535 627.52423 435
7852.45654 13389.53418 893.90002 495
7851.43311 13390.71484 1147.13782 495
7903.88037 13474.06250 1408.88452 388
11525.65527 19721.01953 2378.16797 1000
7824.72998 13150.77344 105.38462 478
7781.32666 13080.70898 351.54840 487
7790.31689 13096.33203 601.68829 435
7869.69629 13231.75586 858.55371 425
7847.55762 13196.95605 1107.14636 312
7995.47656 13445.31445 1381.84204 388
7913.97803 13117.83984 101.81013 478
7873.87842 13051.45703 354.00439 487
7882.64160 13068.09082 600.52161 385
8037.89990 13324.28613 866.22845 495
7938.84717 13163.15039 1109.39722 386
8089.77246 13415.10059 1385.08813 388
8006.35352 13085.86035 103.68565 478
7962.26367 13016.33789 354.78778 486
7971.85742 13039.35156 601.31781 384
8125.35645 13295.03223 865.21442 494
8125.95752 13294.12891 1122.08533 494
8178.66064 13384.16895 1383.94128 380
8095.97363 13054.77051 102.82062 477
8050.01074 12985.61328 351.89087 486
8062.83594 13007.97656 605.46411 384
8220.75879 13259.88672 867.66278 494
8219.79883 13261.09082 1124.27979 494
8282.44531 13361.86426 1387.47705 342
8187.63428 13022.64551 105.74503 477
8143.17529 12953.45215 353.81464 486
8286.15234 13186.00488 610.56323 494
8334.76367 13265.90234 870.87976 429
8332.66211 13267.42480 1128.75610 429
8423.10254 13410.68652 1398.63330 342
8275.58789 12991.94824 103.45226 477
8233.68750 12922.36914 356.66797 485
8378.12402 13151.55176 615.27509 494
8466.73145 13296.39258 874.33759 428
8466.48242 13294.11230 1131.61267 427
8569.69922 13460.34570 1408.53821 341
8369.65723 12960.96680 104.19528 476
8325.85059 12889.23926 353.46225 485
8467.97070 13116.66309 615.08533 493
8585.44531 13297.18066 879.71387 455
8598.57520 13320.99219 1138.97583 426
8458.22559 12926.37988 105.96229 476
8413.60547 12861.16309 355.82016 485
8567.66309 13098.09375 614.27283 396
8698.82422 13297.49805 882.05511 455
8729.17773 13350.73535 1146.79504 454
722.47693 966.81720 16.76382 374
8552.49805 12896.14062 107.37168 476
8504.92578 12827.20996 354.74731 484
8696.08496 13119.68750 620.08734 396
8815.40137 13296.62695 883.75348 454
725.37000 958.16064 -1.51617 431
724.64581 956.99176 17.62922 478
725.87494 959.22705 36.50525 478
727.51324 961.64771 55.19509 435
729.11926 964.30579 73.72610 428
8645.18945 12861.63574 107.11639 475
8597.44043 12796.23535 358.50186 484
8830.43164 13142.34180 620.43433 395
729.92090 952.46753 -1.22527 492
729.24768 951.29596 17.82766 498
730.38165 953.41382 36.48142 498
731.69635 955.20782 55.21811 497
733.20734 957.34607 74.13538 497
734.54083 959.31274 92.85061 498
8733.83203 12831.02539 107.44291 475
8688.14648 12763.38379 355.73550 484
8962.96191 13170.20898 626.47705 394
736.08014 948.86261 -1.39386 461
735.36676 948.13568 17.90175 494
737.11298 950.30066 36.49407 465
738.70953 952.83942 55.16290 465
740.53522 955.50708 73.93726 415
743.06683 959.17145 92.71130 350
8828.34961 12795.42090 107.60281 475
8782.88281 12729.27734 356.28604 483
9096.47949 13188.63770 626.56995 389
744.93970 949.27075 -1.77599 399
744.04626 948.01770 17.32882 415
746.33459 951.35144 36.09111 350
8919.23828 12762.54590 104.73775 474
8873.28906 12698.43359 360.44678 483
9016.68457 12730.41504 104.63305 474
8966.94824 12664.15039 358.12509 486
9107.54297 12696.62695 106.28587 473
9059.73242 12633.50781 361.50735 485
9200.87305 12667.72461 108.48815 473
9156.85156 12602.47852 359.39954 485
9294.55078 12630.13574 104.64865 473
9246.92090 12569.22363 361.82080 484
9392.63574 12599.41211 107.75610 472
9343.85840 12536.08008 361.57114 484
9485.20312 12566.07520 106.56325 472
9440.22266 12502.31934 361.98926 483
9579.83984 12533.82422 108.86078 471
9534.13184 12470.72559 361.68427 483
9677.91504 12499.98926 109.10013 471
9626.40527 12434.30078 365.37430 483
9774.80078 12465.40137 108.33228 470
9722.27148 12404.52832 364.20267 482
9867.24707 12432.28125 109.64009 470
9820.70898 12367.52637 364.90201 482
9967.88281 12394.02930 105.86652 470
9919.04492 12336.88379 365.37912 481
10062.74902 12362.07227 106.91187 469
10015.88574 12300.32812 366.41006 481
10162.81738 12326.55176 110.63593 469
10110.76172 12269.10059 366.07941 480
10257.94141 12293.00488 107.60796 468
10208.86816 12231.36133 367.34177 480
10358.02832 12258.17871 110.63860 468
10307.01465 12196.50293 370.30511 479
10455.81738 12223.67676 107.51760 467
10407.89355 12164.84277 372.05783 481
10556.65137 12189.34961 110.61655 467
10508.09766 12127.62109 371.86795 480
10654.53125 12153.46484 107.98262 466
10607.21191 12093.49023 373.21005 480
10757.51367 12118.85742 107.51071 466
10707.29590 12060.74023 371.70056 479
10858.44043 12080.73047 108.18446 465
10809.15234 12026.85645 371.17426 479
10957.69727 12047.71582 108.23795 464
10909.85059 11992.12598 372.40030 478
11062.69238 12010.62207 111.22810 464
11009.02930 11954.68066 374.28033 477
11161.66602 11973.45898 108.80138 463
11113.82129 11917.96582 375.36450 477
11265.49512 11939.45605 110.90629 470
11214.57227 11885.07324 374.82263 476
11370.69824 11902.60352 111.26081 469
11319.06543 11846.16699 375.86615 476
11476.42188 11865.41504 109.29778 469
11422.54492 11813.46973 380.46088 475
11582.43359 11826.59570 112.57323 468
11529.11816 11773.79297 378.22491 474
11696.19629 11799.70410 112.18502 444
11631.54688 11738.74219 379.52576 474
11814.87109 11778.00195 112.29190 444
11738.21484 11704.02344 382.99011 473
11937.48047 11754.78223 113.24436 443
11850.93164 11667.75586 383.80206 468
12056.38770 11729.29492 109.80602 442
11966.05762 11641.67578 383.15863 448
12181.22070 11704.92480 112.62098 441
12089.04785 11615.47070 386.59451 447
12301.72363 11678.64746 109.74506 440
12210.49121 11589.89844 384.58643 446
12428.99902 11657.23242 110.78924 394
12335.49219 11567.70898 386.68851 445
12583.87598 11656.70898 112.36629 393
12456.70703 11539.00684 390.85635 444
12745.37402 11662.55859 111.90937 370
12585.09961 11518.57617 388.37643 442
12922.26758 11680.42676 113.22007 369
12723.41797 11497.23535 394.38156 441
13101.92871 11702.84668 112.12814 341
12867.03711 11488.11816 395.06479 383
13369.98633 11796.28516 112.58711 276
13028.72559 11495.41797 397.46643 382
13196.09082 11494.30371 397.57587 390
13365.07031 11499.55566 398.24194 341
13584.17188 11549.29590 403.92825 341
34475.87109 29043.48047 -6593.66016 1000
13810.74316 11596.64355 406.64670 340
3653.94556 878.33032 11.58258 471
3668.43970 881.97992 72.14955 265
3189.03589 723.54834 -128.84732 1000
25369.85156 4767.98193 3518.13257 1000
28267.86719 4236.21191 -3619.04639 1000
4928.85840 -405.32135 53.64874 368
4936.47656 -436.13989 -25.31227 437
4914.98730 -434.63416 54.91472 441
4911.64941 -464.75574 -24.51861 415
4890.95801 -491.68839 -24.24062 479
4876.16699 -519.64014 -23.24112 479
4865.27441 -548.77100 -23.56631 491
4855.41846 -577.40924 -23.25222 491
4843.55811 -605.19971 -23.15588 345
4831.11279 -633.38574 -23.30957 345
4818.46973 -661.12134 -22.39466 346
4884.14453 -669.88330 54.46658 499
4809.20312 -689.05182 -22.70185 347
4882.34473 -700.67999 54.08880 413
4801.83398 -718.00702 -21.76925 446
4797.90527 -746.90314 -22.70881 446
4793.74121 -775.54132 -21.71291 445
4791.06738 -804.88104 -22.57681 445
4873.04297 -818.75922 54.93952 498
4934.73193 -829.93140 134.43137 498
4788.84033 -835.28064 -21.99129 445
4787.11963 -863.47980 -22.55235 445
4785.22754 -893.31702 -22.92110 445
4928.65723 -920.70215 53.96919 497
4783.57715 -923.19348 -23.09847 444
4832.58887 -932.37012 54.74968 497
4781.63477 -953.17590 -23.13825 444
4780.09277 -982.34119 -23.01872 444
4990.09668 -1026.12842 134.13240 396
4777.55469 -1011.85303 -22.27327 444
4775.66650 -1041.11157 -23.51667 444
4774.06396 -1071.52197 -23.33921 444
4772.41602 -1100.78369 -23.56212 443
4770.78125 -1131.46594 -23.48185 443
4767.60645 -1160.82263 -23.00080 443
4766.50977 -1191.78271 -24.27239 443
4763.77441 -1221.05420 -23.34858 443
4767.06738 -1252.79724 -24.76840 419
3768.78906 -1927.64111 -2.41404 498
29826.46289 -22243.15039 -7241.20996 1000
5102.99268 -3994.86816 1301.18506 1000
38313.50000 -37142.59375 -12280.16113 1000
4773.96484 -4960.64551 22.65019 418
4718.77930 -4961.13037 22.68783 419
4662.86328 -4962.99219 22.86654 420
4608.04492 -4964.07227 23.84305 421
38433.60156 -42123.99219 9549.87793 1000
3547.88306 -3846.64136 -36.43217 498
3554.16968 -3854.63379 47.89820 478
4567.56982 -5043.77393 23.31439 415
4567.54883 -5106.65527 21.66031 414
4737.86426 -5364.68945 16.83144 419
4688.17529 -5374.21826 18.90264 442
4620.00244 -5361.64795 17.92348 440
4584.11230 -5387.86865 19.33061 407
763.84912 -1033.06140 -9.50050 300
763.98596 -1033.11377 10.81337 300
763.94611 -1033.04309 31.13976 300
763.97992 -1033.10181 51.48880 300
763.78656 -1032.93774 71.74879 300
763.82849 -1033.04797 91.90117 300
763.81604 -1032.98181 112.21800 300
764.01825 -1032.80115 132.47598 300
763.86810 -1033.06506 152.46336 300
763.78027 -1032.75256 172.82983 300
763.97760 -1032.92456 192.94621 300
763.96857 -1033.04346 213.43527 300
754.78760 -1032.72717 -8.98905 492
754.91290 -1032.84827 11.36574 493
754.95569 -1032.87170 31.52945 493
754.94873 -1032.99609 51.63393 494
755.06024 -1033.14270 72.13585 494
754.96893 -1033.04126 91.98287 494
754.98303 -1033.11243 112.26310 494
754.94849 -1033.28894 132.43526 494
754.98553 -1033.23438 152.56255 494
755.27472 -1033.09949 172.63052 494
755.12964 -1033.42651 192.74481 494
755.11292 -1033.32910 212.93895 493
755.51202 -1033.63611 233.28940 434
3073.34302 -5897.00586 41.42186 401
3021.06372 -5884.38086 40.79530 497
2966.33423 -5865.22949 42.05419 439
30025.33984 -61012.40625 308.16089 1000
2916.85791 -5852.78369 42.69665 446
2866.74927 -5842.38574 43.39387 451
2820.06470 -5836.47559 43.69258 442
2775.31812 -5832.52100 43.42950 444
2791.84375 -5871.13721 149.46921 477
2730.21240 -5829.13672 44.39306 448
2748.46826 -5870.74658 149.17563 478
2686.01270 -5827.34766 44.78450 422
2703.77759 -5865.19727 147.84010 478
2643.29077 -5825.69873 45.16680 424
2660.56445 -5866.28955 149.29007 479
2600.41626 -5825.90820 44.47285 425
2618.45752 -5865.78174 149.22546 479
2558.09424 -5825.73730 45.47576 425
2577.26343 -5871.81982 148.36572 480
2516.41162 -5826.30273 44.48428 426
2534.53491 -5871.47119 147.58862 481
1364.56006 -3115.21436 30.53003 281
1445.70398 -3312.81445 82.93438 366
2493.72974 -5871.48242 147.48970 481
2500.25977 -5888.44385 253.09375 400
1315.39307 -3048.39893 33.28502 458
1415.03088 -3296.65601 82.98216 465
2490.71509 -5970.77490 148.07787 342
2482.36328 -5949.86621 252.87137 451
1301.01392 -3067.10693 32.44302 426
1392.17261 -3298.54761 83.57156 466
2491.59204 -6080.94775 148.26958 340
2443.17603 -5955.80371 252.45998 470
1288.03857 -3090.03931 32.33103 412
1369.52209 -3299.50586 83.03980 466
2424.84399 -6016.77246 254.56750 489
2418.68481 -6003.71777 358.65106 377
1276.26306 -3114.91357 31.79980 398
1346.99084 -3300.67847 83.01476 466
1263.68616 -3142.10693 30.72053 392
1323.88721 -3301.97656 83.08312 467
1252.59253 -3169.51001 29.83343 391
1301.76367 -3303.45801 82.98887 467
1240.60535 -3198.10327 29.12510 384
1279.28601 -3304.66748 83.54404 468
1229.50879 -3229.44922 28.49818 370
1256.80884 -3305.46411 83.73759 468
1219.26331 -3264.90210 28.14767 363
1233.80481 -3307.40747 83.45657 469
1211.30176 -3305.28540 26.37560 346
1216.67224 -3322.92334 83.89346 456
1205.39954 -3356.33618 24.98682 321
1206.77686 -3361.27905 82.60328 354
1206.98181 -3433.29443 23.23283 300
1208.17041 -3436.96826 82.46841 317
1212.93445 -3522.66675 20.07503 308
1270.73450 -3703.47681 77.68931 470
1217.52466 -3613.56396 17.87694 304
1245.26685 -3701.75122 78.05990 415
17539.76953 -59707.76953 3340.12769 1000
8143.70361 -55844.15234 -10959.05078 1000
242.48068 -1528.57361 9.55933 490
242.45142 -1528.21814 34.82117 499
242.12489 -1528.41296 60.20180 499
242.48048 -1528.48181 85.39206 499
242.16606 -1528.58459 110.41965 499
242.16026 -1528.86646 135.78436 483
242.36052 -1529.13184 160.71996 483
242.47549 -1529.19824 186.00710 483
242.23586 -1529.49280 211.17509 482
-1467.07739 -33159.30859 -6970.15869 1000
-272.37830 -2030.45605 0.39513 393
-272.33963 -2030.42188 34.66357 393
-272.15469 -2030.41602 68.45261 393
-272.28302 -2030.13037 102.03652 393
-272.55792 -2030.27869 135.63210 393
-272.41879 -2030.01221 169.76056 323
-272.60947 -2030.30469 203.16818 323
-4720.69922 -24441.88281 989.36176 1000
-9898.35742 -50751.35547 3609.06079 1000
-3871.63501 -7336.57031 277.83389 1000
-20297.69922 -28342.66602 -7977.43262 1000
-14744.02539 -13672.48242 -4213.99365 1000
-263.36591 -74.81579 36.19640 321
-261.34665 -72.18185 36.85466 321
-259.40057 -69.50935 37.45483 324
-279.63837 -73.62904 38.56723 318
-259.73215 -67.32793 37.55046 349
-277.51459 -70.79181 39.18314 321
-261.56769 -65.54173 37.14909 351
-276.21976 -68.19257 39.65201 345
-263.45987 -63.65362 36.74473 351
-277.92239 -66.22471 39.33108 345
-295.56137 -69.49228 41.60241 319
-265.40726 -61.74247 36.35613 350
-279.82190 -64.27869 38.90406 347
-296.04547 -67.12238 41.51189 340
-268.89908 -60.12173 35.49984 326
-283.10281 -62.44081 38.15176 324
-274.71573 -58.73262 33.94537 320
-288.77036 -61.11049 36.80563 323
-62469.55859 -9418.62109 -14619.23047 1000
-57689.00391 -6530.82031 5858.46680 1000
