# .PCD v.7 - Point Cloud Data file format
VERSION .7
FIELDS x y z rgb
SIZE 4 4 4 4
TYPE F F F U
COUNT 1 1 1 1
WIDTH 1041
HEIGHT 1
VIEWPOINT 7049.584473 -1872.741089 141.678619 -0.643200 -0.106861 -0.103135 0.751158
POINTS 1041
DATA ascii
-17638.59375 1038.37402 718.99670 451
-17492.98438 1029.38513 1005.79114 457
-17570.52148 1144.63098 716.20624 452
-17429.43555 1134.59216 998.45129 457
-17511.21875 1251.62683 716.20654 462
-17376.49219 1238.83398 999.81000 463
-17455.45703 1353.58313 712.17908 462
-17319.21680 1344.62927 998.25183 464
-17400.11328 1459.69177 713.60022 463
-17266.41602 1444.59448 992.63678 464
-17343.26758 1563.06775 712.27258 463
-17212.74805 1548.61450 990.73254 465
-17290.63477 1665.97144 709.25391 464
-17157.42773 1649.97766 989.23975 465
-17237.47266 1766.45520 708.14142 465
-17106.17969 1751.42676 987.69641 466
-17184.37695 1868.16614 706.37048 465
-17051.36328 1853.86707 982.44012 467
-17126.42578 1968.56323 703.88849 466
-16998.54102 1955.96533 983.92676 467
-17076.38477 2067.36743 706.17535 465
-16944.40820 2054.74072 979.88416 468
-17023.19531 2168.81934 702.79028 465
-16895.69727 2154.84180 977.51642 468
-16969.21289 2270.21851 698.77618 466
-16840.67188 2252.54126 974.81635 469
-16914.47461 2368.06445 697.33594 466
-16790.83398 2350.26343 973.32990 469
-16863.91016 2465.51782 699.95337 467
-16736.40625 2448.89941 973.19440 470
-16809.89844 2567.36987 695.96423 467
-16684.64258 2547.64673 970.09583 470
-16759.68359 2663.69775 697.90027 468
-16636.86719 2644.71777 968.22443 471
-268.99875 59.43969 34.88145 326
-283.47180 61.89165 37.55755 323
-16706.63477 2762.71606 693.14075 468
-16582.64648 2742.43774 965.05847 471
-264.57727 60.99224 36.00536 350
-279.07059 63.48304 38.49415 347
-295.13925 66.27969 41.21063 341
-16654.22461 2860.23999 691.86261 469
-16531.34180 2839.41113 965.78979 471
-262.60049 62.85725 36.35338 351
-277.03369 65.45898 38.91756 345
-293.22168 68.34615 41.57635 340
-16606.46875 2957.54688 691.79413 469
-16483.60742 2932.40015 964.71082 480
-260.58630 64.80487 36.75031 351
-275.16754 67.47808 39.25496 345
-294.89084 71.03584 41.04552 318
-16551.56055 3053.66919 689.56732 469
-16429.62891 3031.42700 961.12878 480
-258.64496 66.61237 37.17661 351
-275.13626 69.81493 39.15701 321
-16501.19336 3148.46851 689.15015 470
-16382.31152 3126.96729 961.16406 480
-257.08163 68.54476 37.49503 325
-276.94141 72.48750 38.62790 318
-16453.71094 3246.24829 686.79004 470
-16330.12012 3222.20239 960.46741 481
-258.79944 71.15645 36.88125 322
-16398.92969 3341.13916 689.03778 471
-16280.45117 3317.14917 958.00769 481
-260.75858 73.77215 36.24690 321
-16348.80273 3431.87915 685.41022 471
-16232.74023 3411.84253 957.92633 482
-262.72937 76.51937 35.49584 321
-16298.58008 3530.15723 687.15277 471
-16179.00000 3505.09839 954.10651 482
-16251.37402 3621.53296 684.30774 472
-16133.50879 3596.37085 951.37653 483
-16198.45996 3718.25244 682.28351 472
-16084.54102 3691.37036 952.59650 483
-16151.25586 3812.76465 680.91949 473
-16035.80859 3783.27295 949.67096 483
-16040.70605 3784.46826 1222.70215 384
-16099.57129 3901.75317 680.90125 473
-15985.19238 3874.57739 950.68378 484
-15989.04688 3878.97510 1220.23633 384
-16049.13574 3996.79199 680.55859 473
-15936.15625 3966.78345 948.01477 484
-15936.86035 3971.15479 1216.43799 384
-16003.12402 4089.90674 679.83759 474
-15885.97461 4059.52686 947.77954 484
-15887.01953 4059.66113 1214.76782 384
-16582.34961 4239.91943 1545.66650 404
-15954.41016 4180.45068 680.32263 474
-15838.33789 4154.76855 942.83649 485
-15834.97656 4154.03613 1214.93799 434
-16507.28906 4326.10449 1543.79834 404
-15904.93066 4274.16406 679.89307 474
-15790.87695 4244.75781 942.31030 485
-15786.94043 4244.24902 1215.68445 425
-16432.96094 4415.41113 1536.63416 479
-15855.86523 4367.04834 677.86945 475
-15739.13770 4336.94385 944.75726 485
-15738.12793 4336.38037 1212.47791 425
-16364.06055 4506.98730 1537.03979 480
-15804.63086 4457.94629 674.85345 475
-15692.02148 4429.02539 941.14038 486
-15691.12598 4426.71777 1208.68518 426
-16297.06250 4597.22705 1533.70447 480
-15755.37402 4549.57520 676.88153 475
-15643.28711 4517.81641 940.24872 486
-15645.18359 4520.04639 1209.17310 426
-16223.93848 4686.51318 1529.38770 481
-15709.23828 4639.65234 675.94775 475
-15597.25684 4607.42773 940.29919 486
-15596.78027 4610.42529 1208.25574 426
-16155.35352 4772.94775 1525.54272 482
-15658.45898 4730.77979 673.97589 476
-15547.50879 4700.31396 936.52856 487
-15552.81055 4698.02295 1208.23401 426
-16089.20605 4859.44336 1523.61340 482
-15610.44141 4822.93799 671.60760 476
-15502.36035 4789.00098 938.80542 487
-16032.19531 4951.19678 1239.35010 483
-16019.59277 4946.06689 1516.68848 494
-15561.39941 4915.00342 672.60028 476
-15455.20117 4878.95459 935.81378 487
-15978.53320 5042.26904 1240.25732 495
-15970.60547 5039.63574 1516.85291 494
-15515.38965 5005.40576 671.22937 477
-15406.63086 4969.66699 937.63123 487
-15929.21680 5138.47119 1239.35034 495
-15918.33789 5131.78857 1514.53748 495
-15468.06738 5093.62061 670.41852 477
-15360.55176 5058.42627 933.00275 488
-15879.05664 5226.50635 1239.07056 495
-15868.34082 5227.12793 1514.81335 495
-15416.46582 5183.52832 670.21185 477
-15310.47168 5145.99463 933.40900 488
-15822.86230 5318.91357 1237.13611 457
-15817.37793 5315.79248 1511.93958 495
-15368.54004 5274.14014 671.61151 477
-15265.71484 5238.22314 932.86273 488
-15723.12695 5394.65723 1232.40833 458
-15764.80273 5407.47510 1510.59241 496
-15323.86816 5360.97607 667.84991 478
-15217.27441 5326.28271 929.93048 488
-15628.38086 5468.76367 1224.56262 459
-15714.64160 5498.12988 1506.59656 496
-15273.92578 5452.74316 669.28064 478
-15167.45117 5415.04102 932.65057 489
-15528.34473 5544.30273 1224.13953 460
-15665.78223 5591.74365 1508.42908 496
-15226.73242 5541.72168 666.93109 478
-15124.20215 5502.40039 931.85968 489
-15435.76562 5616.13770 1216.99976 460
-15529.59570 5650.66016 1496.17932 361
-15181.05762 5631.94775 670.27838 478
-15075.41113 5590.46289 930.06781 489
-15341.10156 5687.59229 1214.29028 461
-15476.45605 5737.52344 1497.24072 361
-15132.82227 5717.96045 669.31146 478
-15028.68945 5679.52734 928.18488 489
-15278.75098 5776.16650 1210.96350 497
-15418.51270 5827.77197 1493.35901 495
-15545.86816 5876.88086 1781.24438 497
-15084.10645 5807.30908 668.81458 479
-14980.56641 5767.22803 928.80493 489
-15233.35449 5864.41455 1208.96497 497
-15369.02930 5915.63086 1494.79675 495
-15496.96484 5963.40869 1779.38049 497
-15629.28320 6017.23975 2070.12744 460
-15037.15039 5896.11035 665.78870 479
-14936.04785 5856.09082 928.17493 490
-15180.94238 5953.17188 1208.87573 497
-15322.20996 6006.36719 1490.44055 398
-15443.83105 6057.43115 1779.46545 497
-15595.38477 6115.27979 2072.11475 394
-2860.88110 1171.61353 132.46715 451
-2865.84741 1173.92566 185.10085 452
-14988.30469 5987.00244 665.12793 479
-14887.91309 5943.80176 925.59033 490
-15133.51465 6042.37793 1207.77856 497
-15360.79590 6131.22705 1499.25549 439
-15347.00098 6128.60938 1771.77283 439
-2857.20654 1191.39612 132.61497 393
-14945.25293 6075.15576 664.02161 479
-14840.02344 6031.93115 926.89233 490
-15085.26562 6132.87988 1206.57117 498
-15242.43555 6196.42676 1492.10742 440
-15229.79688 6190.50000 1762.37537 440
-15373.42090 6245.47412 2055.02368 355
-14896.11230 6162.34375 666.00415 479
-14794.52051 6121.57861 925.83643 490
-15036.45215 6220.43750 1208.65173 498
-15124.96094 6255.40527 1484.76636 441
-15112.59473 6250.95020 1753.76221 441
-15244.31445 6302.99561 2042.98218 356
-14846.75977 6249.01611 665.22241 479
-14746.99414 6206.53320 927.26141 490
-14987.81152 6307.24121 1205.18872 498
-15021.80957 6322.19873 1478.40356 498
-15008.91406 6317.76660 1748.56018 498
-15112.50293 6363.41895 2031.57629 356
-14801.74121 6336.74365 664.16742 479
-14703.60742 6296.67480 924.54169 490
-14941.00684 6398.55029 1205.60693 498
-14971.36914 6412.30029 1477.03040 498
-14959.45996 6404.05029 1745.58643 498
-15046.84570 6441.16846 2030.07056 391
-14755.82422 6426.22266 666.50159 480
-14653.69043 6382.96729 923.21753 491
-14892.40820 6485.68652 1205.76672 498
-14893.68848 6486.13232 1472.02759 498
-14886.22266 6480.96094 1742.75049 498
-14998.25488 6530.99219 2024.53210 391
-15071.99707 6563.11670 2311.59937 492
-15059.18457 6560.62354 2586.12329 492
-15051.06641 6556.11865 2857.53296 392
-14706.82324 6511.78906 666.29297 480
-14607.29199 6470.10400 924.55188 491
-14843.68359 6574.95117 1206.49182 498
-14844.77930 6576.98975 1472.77002 498
-14835.18457 6569.89648 1739.64722 498
-14945.47754 6618.77734 2024.28467 392
-15165.53125 6715.71143 2331.38037 485
-14660.30273 6602.70459 664.28839 480
-14563.06836 6558.29102 925.86749 491
-14794.95996 6660.95898 1204.08325 499
-14798.16211 6663.79248 1473.62170 499
-14786.70508 6658.45703 1739.97156 498
-14894.68457 6704.96387 2023.04468 392
-15083.04004 6792.91406 2321.44141 453
-14614.22266 6688.92090 662.03070 480
-14518.31348 6644.11035 921.20337 491
-14745.39062 6749.86768 1201.89331 499
-14751.61133 6749.96973 1471.92432 499
-14741.30273 6745.23096 1741.94861 498
-14844.15039 6793.38281 2023.23877 392
-15069.10547 6897.59570 2326.34644 486
-14566.17676 6776.74072 664.72736 480
-14469.57227 6729.80518 921.92102 491
-14697.78906 6837.70410 1202.63538 499
-14704.15039 6841.93604 1471.15076 499
-14690.94434 6832.18750 1737.67041 499
-14796.63965 6884.65771 2023.39307 392
-15015.57227 6985.86035 2327.76343 486
-14519.46289 6866.14746 663.18536 480
-14423.15234 6817.21875 922.19519 491
-14647.14551 6924.77686 1203.40845 499
-14655.47949 6927.48242 1470.36536 499
-14640.89160 6924.19971 1736.87073 499
-14745.39258 6972.74658 2022.62439 392
-14969.53223 7077.46875 2324.02002 486
-14470.68359 6952.62646 662.53583 480
-14377.17383 6905.66455 923.08777 491
-14600.78809 7014.15674 1201.18506 499
-14604.90527 7014.83008 1468.05933 499
-14594.84570 7009.83057 1736.04480 499
-14695.62402 7060.74561 2019.21069 392
-14427.23828 7038.89307 661.60419 480
-14329.18750 6992.38770 923.54480 491
-14550.99023 7101.94629 1201.68115 499
-14582.45801 7114.27002 1471.67859 499
-14572.64160 7109.40820 1741.48645 499
-14648.41602 7148.64355 2021.13879 392
-14379.29590 7125.96875 660.74225 480
-14283.27441 7081.69727 921.04517 491
-14504.87793 7189.28369 1201.04248 499
-14536.08496 7202.18555 1472.00757 499
-14523.71680 7196.54346 1739.14172 499
-14598.44238 7236.12695 2017.14392 392
-14334.61230 7212.47510 661.63861 480
-14238.95410 7168.76318 921.64618 491
-14453.10547 7274.07764 1201.29089 499
-14329.10352 7214.08398 1455.04285 479
-14281.50391 7189.79785 1719.13208 393
-14547.71582 7322.90234 2018.95020 392
-14284.56934 7301.06982 664.21655 480
-14191.12500 7251.53711 921.48053 491
-14407.63574 7364.47900 1200.01685 499
-14436.86035 7380.40186 1472.69666 499
-14429.79297 7375.91748 1737.33655 499
-14498.83496 7408.63867 2017.11304 392
-14239.58887 7386.79541 662.88721 480
-14146.64355 7338.33447 921.10242 491
-14358.38086 7449.74463 1199.52600 499
-14389.17090 7464.15039 1468.88330 499
-14381.20605 7460.83008 1737.23340 499
-14445.14844 7497.86572 2014.18311 383
-14193.70996 7476.98193 661.52948 480
-14099.91406 7429.05664 921.88464 491
-14310.33105 7538.28760 1197.93958 499
-14342.78125 7554.54248 1468.37231 499
-14329.58691 7550.53125 1740.13135 499
-14396.96094 7582.47510 2014.99048 383
-14147.13477 7563.07422 659.94543 480
-14051.33203 7513.64746 922.34247 491
-14261.48340 7624.37598 1200.77490 499
-14321.17676 7654.55762 1474.30103 463
-14310.36230 7650.61621 1742.61487 463
-14393.52637 7695.92871 2021.36255 365
-14099.62305 7648.62305 660.52643 480
-14007.64844 7599.39551 919.45178 491
-14213.32324 7709.79004 1198.27576 499
-14326.77832 7774.97119 1477.25098 462
-14316.72656 7765.30371 1745.99963 462
-14410.91797 7819.93555 2031.26062 365
-14049.57129 7735.08398 661.27704 480
-13958.69727 7688.90234 922.94464 491
-14163.98828 7797.93213 1199.31140 499
-14312.56348 7881.31982 1479.18066 479
-14324.46289 7887.33691 1750.71802 461
-14429.79395 7943.99072 2038.61914 366
-14003.05859 7822.18213 663.19611 480
-13915.14551 7775.33154 920.69720 491
-14118.79199 7886.25391 1198.08118 499
-14296.70410 7986.84570 1482.82104 479
-14328.86426 8002.83105 1759.61316 460
-13956.41602 7911.84473 661.94507 480
-13867.91309 7860.33496 919.49835 491
-14084.87402 7982.88574 1202.42737 424
-14279.05566 8092.32080 1488.28394 478
-14316.82715 8114.51123 1763.86658 477
-13912.83789 8000.97119 661.49579 480
-13823.43262 7949.06982 922.78961 491
-14085.69238 8099.98242 1206.39026 423
-14258.19824 8199.08594 1489.89343 478
-13864.53320 8083.95410 662.83209 480
-13774.42383 8033.64453 921.81232 491
-14091.29980 8215.51074 1209.87292 423
-13817.51270 8173.85449 661.88721 480
-13731.11426 8121.81982 920.08496 491
-14081.42188 8331.49512 1210.18445 405
-13770.68652 8258.65430 662.89911 480
-13680.68262 8207.15527 921.90863 491
-14059.85059 8432.60254 1215.14172 405
-13721.83887 8345.22949 663.46356 480
-13634.28223 8293.16895 920.50122 491
-14036.55859 8537.92578 1215.17969 405
-13676.06836 8437.38672 663.53290 480
-13587.77051 8380.25879 922.28516 491
-14011.94043 8638.97656 1216.44153 404
-13628.39160 8521.72266 660.82812 480
-13542.41016 8466.81738 922.23785 491
-14873.46973 9293.47949 1289.77917 423
-13581.47070 8611.34180 660.54883 480
-13495.56934 8557.30859 924.24445 491
-14821.80664 9391.08008 1287.14868 423
-13536.44141 8698.09961 664.03223 480
-13449.02930 8642.83789 923.41382 491
-14765.27051 9483.25586 1289.02991 423
-13486.09277 8784.98633 662.45044 480
-13402.25977 8730.94727 923.64221 490
-14710.84570 9580.00586 1288.78198 424
-13439.36719 8875.25195 662.71771 479
-13357.33203 8818.47754 924.33789 490
-14659.44434 9672.46777 1291.70422 423
-13394.63672 8961.47070 662.15430 479
-13308.59766 8907.74414 925.74542 490
-14604.05371 9768.71094 1292.65149 423
-13346.75879 9047.03125 663.11206 479
-13260.10059 8995.01855 924.41150 490
-14550.07129 9862.24121 1291.87537 423
-13296.08789 9138.52832 664.34320 479
-13218.11328 9079.58496 924.35236 490
-14495.56250 9954.42969 1292.62830 423
-13249.62988 9226.42480 663.90906 479
-13169.29688 9168.04785 924.19971 490
-14444.87109 10050.12012 1290.76306 423
-13204.12988 9311.39160 663.98108 479
-13120.59668 9254.71484 926.39532 490
-14390.93945 10144.35938 1292.23682 423
-13153.22949 9402.32617 665.90674 479
-13073.15332 9346.31055 927.37061 489
-14333.50781 10240.19727 1291.79419 423
-13106.83789 9490.52539 667.79498 478
-13026.15918 9431.34961 928.99597 489
-14278.44336 10331.82129 1296.04907 423
-13061.82324 9577.98730 666.54773 478
-12979.22266 9520.88867 929.33429 489
-14227.43164 10429.27930 1295.78882 423
-13013.97949 9665.69141 666.82245 478
-12930.51758 9610.15820 929.69971 489
-14172.47363 10521.67480 1295.32080 423
-12962.04395 9755.27148 669.03375 478
-12883.55078 9698.29297 930.01886 489
-14113.71094 10616.51270 1293.63708 422
-12914.20312 9844.91504 666.52771 478
-12834.82324 9787.78516 931.47864 488
-14061.54297 10715.32910 1295.19006 422
-12867.64648 9936.23926 668.60394 477
-12790.46777 9877.09668 931.91998 488
-14008.28711 10806.18164 1296.38721 422
-12821.04395 10026.54590 667.78125 477
-12742.24805 9964.34473 930.54926 488
-13951.23047 10902.14062 1298.90857 422
-12772.59863 10115.31152 668.08698 477
-12694.38477 10052.12598 930.28137 488
-13897.19141 10999.32910 1300.64185 419
-12723.77930 10205.56445 668.89508 477
-12643.60352 10142.45605 934.45038 487
-13842.77637 11096.16211 1302.97900 419
-12673.59570 10294.77734 672.29657 476
-12599.38965 10232.08691 935.47601 487
-13786.67285 11195.19141 1300.40637 419
-12623.34180 10382.76270 671.98840 476
-12547.62500 10324.36719 933.56244 487
-12575.39453 10473.26953 668.82220 476
-12503.08301 10413.79883 935.35663 487
-12528.59277 10565.62500 670.66772 476
-12452.58691 10502.65820 938.66040 486
-12476.23438 10655.38770 672.97577 475
-12404.00977 10595.45801 939.08820 486
-12434.30371 10753.10254 675.37018 464
-12356.92480 10682.96484 937.39514 486
-12393.64746 10850.16992 672.72809 464
-12304.95996 10774.46875 939.81494 485
-13440.63477 11759.73730 1310.17554 494
-12354.93164 10951.42969 675.29285 466
-12262.60352 10868.22852 942.82056 466
-12317.30078 11056.23047 674.90137 466
-12221.42969 10972.12109 943.49048 466
-13305.04395 11931.42676 1310.56531 495
-12279.48438 11159.26172 677.41437 465
-12185.23340 11074.82812 945.05792 465
-12243.14258 11261.00586 681.13257 465
-12147.15527 11176.76074 947.41376 465
-12202.56836 11366.73730 681.17242 464
-12110.61426 11280.69434 948.49152 464
-12067.27930 11243.88867 1217.28845 484
-12177.63086 11479.40723 681.14844 424
-12071.34473 11384.75098 953.14136 464
-12024.20020 11343.37012 1219.63647 485
-12158.57520 11606.50586 682.92535 401
-12033.02051 11488.58105 952.34601 465
-12149.29395 11742.36133 685.83368 401
-11991.03418 11589.48535 954.09711 464
-12141.53906 11879.24316 690.24200 400
-11964.99121 11709.09277 957.84741 423
-12133.61816 12016.22559 695.13885 399
-11944.48535 11835.26270 960.98810 423
-11907.07422 11795.23926 1237.26770 384
-12139.22168 12171.46289 695.39856 373
-11925.91797 11961.22852 965.32465 422
-11867.78711 11900.53125 1238.20642 382
-11908.66504 12087.94922 971.65399 421
-11832.19824 12011.64453 1240.10156 448
-11890.47266 12226.21289 973.98511 399
-11802.02441 12131.12891 1245.13940 447
-11891.08105 12374.37891 977.83771 373
-11783.77930 12259.86328 1252.27258 446
-11902.85938 12535.85059 985.24280 372
-11764.20898 12395.99902 1255.04309 344
-11907.93164 12699.14648 990.00861 371
-11761.98438 12545.28809 1265.99377 374
-1347.33545 2150.07397 131.70168 301
-1305.26599 2115.56641 131.58852 351
-1350.35461 2183.80127 174.80792 306
-1273.50769 2095.89209 131.91226 353
-1347.89661 2209.14307 174.66725 323
-1281.40796 2135.76416 89.88237 331
-1247.04004 2082.95557 131.71722 378
-1343.46838 2232.44507 175.45686 349
-1249.02417 2114.36328 91.01442 370
-1222.70374 2072.76587 131.45027 371
-1334.82849 2249.02881 175.09120 308
-1220.62476 2098.16284 91.15762 272
-1198.43237 2062.92798 131.82446 383
-1180.43665 2063.10986 92.22813 282
-1176.36572 2055.89355 131.46811 384
-1152.35254 2044.84570 92.82582 349
-1154.82971 2048.37280 131.79614 346
-1127.42932 2032.16614 92.88128 364
-1134.75830 2044.27747 131.44077 347
-1104.87463 2022.53442 93.17432 365
-1114.83557 2039.54248 131.89795 349
-1082.85693 2013.84082 93.41399 421
-1095.94043 2035.75146 131.69362 350
-1062.72449 2008.48755 93.96915 422
-1076.82556 2031.47241 131.59503 378
-1121.00024 2108.00244 171.27527 433
-1043.28638 2002.68323 94.18980 423
-1057.80933 2027.88953 132.00247 389
-1101.06506 2103.81079 171.10487 434
-1024.26794 1997.44934 94.17371 433
-1042.28662 2029.49304 131.85829 451
-1091.26611 2116.72021 171.36911 381
-1005.76343 1993.13257 94.19421 434
-1028.11780 2033.59167 131.91820 417
-1086.16064 2138.56226 171.45039 380
-987.81775 1989.41675 94.55705 435
-1062.79175 2127.42676 131.93909 414
-1081.30310 2160.72046 172.22501 379
-969.29041 1984.95874 95.08424 436
-1057.87134 2149.44727 131.91426 413
-1076.02661 2183.55371 172.32310 378
-951.82617 1980.92334 94.93169 437
-1007.26526 2086.68823 131.72197 439
-1071.24683 2206.94043 172.49330 377
-933.56989 1976.97168 95.49917 438
-985.55554 2075.48096 131.43228 440
-985.51941 2076.00854 170.27942 440
-916.35028 1972.43164 95.53997 439
-969.71002 2076.65674 131.94734 410
-968.38593 2074.33301 169.50084 410
-899.13336 1968.39124 95.32504 440
-964.86743 2098.73120 131.93089 409
-963.68750 2096.01367 169.98415 409
-881.96246 1964.98901 95.79769 441
-955.62012 2111.79297 131.91589 465
-865.23236 1960.89038 96.05845 442
-893.87762 2020.82397 131.40779 444
-949.57806 2132.87256 209.56384 289
-937.31879 2107.70312 247.31053 355
-866.98059 1996.69495 59.11839 412
-848.48401 1957.74109 95.99644 443
-876.52783 2016.90906 131.80063 445
-876.88025 2016.76648 167.97754 445
-914.28937 2093.90430 245.62891 406
-917.28400 2100.67944 284.80319 444
-1580.50586 3472.00708 447.71088 1000
-850.12238 1992.14746 59.69746 413
-831.98706 1953.97510 96.35091 444
-863.51196 2020.60254 131.40939 399
-863.24323 2019.63416 168.28226 399
-909.26379 2116.71997 246.63484 405
-832.73553 1987.47900 59.99301 414
-815.49188 1950.50745 96.48606 445
-851.46893 2027.19177 131.45853 447
-858.45319 2042.17139 168.55179 397
-903.80682 2139.47729 247.83318 403
-906.11285 2143.72876 286.55420 481
-905.80524 2142.97852 325.46558 481
-815.88367 1983.06445 60.19526 415
-799.22430 1946.80212 96.80950 446
-854.52661 2066.41211 131.40320 402
-853.91388 2065.03784 169.07329 402
-887.34186 2138.05713 363.18253 447
-799.19232 1979.11426 60.67281 416
-783.15466 1943.36389 96.47940 447
-849.35400 2089.26880 131.31323 401
-848.48242 2087.78955 169.06389 401
-782.38513 1974.65735 61.11879 416
-766.73419 1939.79175 97.07420 447
-843.99268 2112.30713 131.51060 400
-843.41339 2110.85327 169.19247 400
-766.12939 1970.23340 61.07893 417
-751.05511 1936.21912 97.00917 448
-785.09802 2013.78381 131.86635 475
-838.06958 2134.09863 169.88284 398
-749.75146 1965.93030 61.71992 418
-735.83795 1932.51624 97.37894 449
-833.05402 2158.83594 131.86238 403
-832.68524 2157.30615 169.91219 403
-775.22272 2024.77039 239.62714 475
-732.69110 1958.96240 61.79616 315
-719.86237 1929.00732 97.18289 450
-827.35956 2181.82080 131.91391 402
-773.89386 2056.40112 168.03961 377
-769.59918 2047.02979 240.92050 396
-715.59155 1952.98328 62.17886 315
-704.91534 1925.88647 97.48760 451
-768.11353 2079.24927 168.36798 375
-764.70886 2070.44629 242.05585 325
-699.14355 1946.78235 62.66781 316
-689.34381 1922.64185 97.68250 452
-763.22302 2102.18481 168.78357 374
-682.55524 1940.76184 62.97230 316
-674.09613 1919.46912 97.77074 453
-757.13940 2125.96680 168.81456 373
-666.44690 1934.49146 63.65564 316
-659.45355 1915.92053 98.08241 429
-751.73688 2150.12598 169.11359 372
-752.04370 2150.72827 207.40858 456
-745.78528 2134.72168 319.64703 475
-650.67261 1928.35144 63.83417 317
-644.62665 1912.97717 98.12211 430
-634.61963 1922.79187 64.22971 317
-629.73419 1910.08521 97.87991 431
-618.97607 1917.02563 64.59029 317
-615.51947 1907.25647 98.32317 431
-603.29688 1911.13953 64.85944 318
-600.54865 1904.32080 98.39754 432
-588.38708 1906.40186 65.32578 406
-586.47949 1901.19128 98.74086 433
-574.26257 1903.66711 65.45821 439
-572.85706 1900.35083 98.83952 463
-562.42004 1907.80347 65.21929 353
-560.23138 1901.76978 98.70661 463
-550.73541 1912.39905 65.63544 353
-547.50098 1903.45190 98.82204 464
-564.27332 1992.92969 62.75061 261
-535.96454 1906.77014 98.81369 403
-580.72986 2042.02393 131.42032 463
-553.64905 2002.31421 62.68525 261
-571.42731 2054.97339 96.46291 374
-545.32861 2017.50244 62.44921 376
-565.42529 2081.18335 95.76717 373
-539.60663 2042.41357 61.31443 375
-559.49213 2107.61694 95.34097 371
-533.51849 2068.25879 60.46658 374
-554.01666 2134.87500 94.94421 370
-527.06891 2093.38916 60.33223 467
-539.31805 2133.68896 95.02260 463
-531.78351 2156.26904 57.82348 322
-524.12512 2130.21191 94.96946 489
-516.56079 2154.27759 57.94018 353
-510.34885 2132.15845 95.46671 467
-496.11368 2133.73730 95.11466 468
-483.05685 2135.02393 95.11979 468
-12483.50195 46144.44922 6424.60986 1000
-469.59955 2138.72266 95.38432 393
-78.39849 858.14642 16.26225 361
-71.44061 851.74713 17.34502 425
-71.93928 854.53510 31.45717 425
-72.92460 858.87115 45.42702 361
-65.53241 849.37207 17.82376 472
-65.79620 851.68445 31.77098 472
-66.21983 853.77124 45.97710 471
-66.85922 856.85333 60.11742 426
-67.45122 859.27881 74.13376 362
-60.02520 849.35883 17.82985 496
-60.38819 851.26239 32.07305 496
-60.59984 852.89484 46.10936 496
-60.98315 855.00159 60.35309 491
-61.24499 856.16071 74.44515 496
-61.76565 858.43646 88.75816 472
-62.50853 861.98193 102.96088 364
-54.97088 851.09521 17.83183 497
-55.21834 852.63245 31.93155 497
-55.46006 854.12549 46.19667 497
-55.79688 856.17090 60.34895 491
-56.26171 858.74927 74.49872 492
-56.26643 858.76031 88.68915 492
-56.69076 861.52643 102.90289 446
-50.13968 854.44922 17.53564 472
-50.25946 856.15692 31.61419 426
-50.77813 858.10126 45.91204 426
-51.02560 860.38837 59.92191 423
-51.47656 861.94794 74.34113 363
-51.83474 865.03882 88.56818 363
-45.71557 861.37488 16.53889 363
-46.25434 864.21204 30.82600 362
1662.36792 12887.79297 -294.36057 1000
1663.23523 12894.72266 130.59622 1000
23808.46094 57582.04688 -16555.57227 1000
24361.51172 47715.27734 8070.44727 1000
39854.33203 39010.78906 -9080.78613 1000
2890.02783 1331.01709 -72.26295 287
2856.81250 1315.74902 -18.89408 427
2876.81323 1304.05640 -70.60550 288
2870.36792 1301.34338 -19.69715 444
2885.31836 1287.91528 -70.39197 436
2885.03149 1287.66956 -19.69093 456
2902.40796 1275.22461 -71.13461 428
2899.34692 1273.70129 -20.02674 434
3106.71460 1367.74719 23.05758 434
2919.58081 1261.96338 -71.37669 423
2915.24536 1259.55078 -21.07318 433
3103.16675 1343.54846 23.50556 435
2936.59058 1248.16101 -72.30064 422
2930.81665 1245.54102 -21.24057 445
2953.08472 1234.53857 -73.15120 416
2946.74390 1232.14185 -21.86932 459
2970.85815 1221.29541 -73.54355 405
2964.38086 1218.95496 -22.22209 454
2990.45044 1208.88293 -74.25267 410
2981.75806 1204.70435 -22.23040 449
3011.30713 1197.27075 -75.16945 405
3000.88550 1192.78662 -23.21183 447
3033.31616 1184.49573 -76.27984 399
3021.86646 1180.01147 -24.23863 436
3057.00171 1172.81323 -77.86018 393
3044.93408 1168.53674 -24.88283 435
3081.72021 1162.31738 -79.20787 387
3067.12744 1156.45288 -25.87049 433
3112.35303 1152.57654 -80.35056 371
3093.21460 1145.52917 -26.69034 412
3147.62378 1144.16150 -82.34830 357
3123.34619 1135.72229 -27.66980 391
3184.53589 1136.81946 -84.81520 356
3160.98364 1128.27576 -29.85909 379
3222.53638 1128.94385 -86.74375 362
3198.68604 1120.29382 -30.89248 378
3260.81348 1120.51501 -88.81819 361
3239.02197 1113.49158 -32.66421 375
3299.46362 1112.95227 -91.39038 360
3279.39624 1105.16675 -34.70444 373
3339.27319 1104.48059 -93.68562 359
3319.38867 1096.90417 -36.02335 372
3379.49219 1095.20361 -95.48611 358
3361.14893 1089.19824 -38.17137 371
3423.36426 1087.63904 -98.34262 362
3403.44800 1080.37708 -39.75218 370
3467.64746 1078.73901 -100.65577 360
3445.89502 1071.99207 -41.55460 369
3512.35278 1070.00403 -104.25968 360
30688.51758 8754.77637 123.48209 1000
1783.08142 362.72821 -38.57271 452
1788.87488 363.70834 -10.67472 453
1782.32141 351.54214 -38.44499 499
1787.30139 352.94254 -10.34949 483
1792.59229 354.00192 17.79041 476
1789.27466 342.50742 -38.73062 394
17511.83398 2411.06494 3327.16455 1000
2808.73438 -159.43408 -91.36156 494
2816.27612 -159.78815 -46.95898 494
2815.57202 -176.54813 -92.52096 370
3809.92261 -449.13593 -52.46009 365
3790.37915 -469.50635 -113.06115 314
3773.71069 -467.34525 -50.63451 460
3768.16895 -489.15219 -111.36609 367
3764.98340 -489.18329 -51.08432 416
3751.81616 -509.88852 -110.54727 417
3757.64673 -511.37335 -50.83676 394
3737.01343 -531.38824 -109.86021 417
3750.56323 -532.61328 -50.61500 400
3723.55688 -551.36707 -109.13544 460
3745.29736 -555.21063 -50.12562 346
3710.94580 -573.02118 -108.32291 465
3740.64136 -577.50549 -50.22368 346
3700.95996 -594.24670 -108.57918 488
3903.17480 -627.09381 -57.94281 491
3690.24292 -614.94476 -107.32630 489
3681.38696 -635.75995 -107.71976 491
3671.69263 -657.08954 -107.44285 492
3663.78101 -678.09515 -106.76775 494
3739.62305 -692.38165 -50.49814 327
3655.11426 -698.84210 -106.66331 494
3704.52393 -709.12054 -49.42822 492
3811.19556 -729.72205 7.13263 325
3682.10669 -704.84192 71.22129 458
3650.29736 -721.41931 -106.58160 498
3694.82275 -730.47919 -48.65265 492
3746.10742 -740.90936 9.85690 327
3672.41479 -725.55835 71.32966 478
3641.08521 -741.56934 -106.66704 498
3684.73853 -751.11542 -48.82110 493
3682.17505 -750.90741 11.25027 329
3668.18408 -747.69696 71.46789 478
3637.69800 -763.61084 -106.34818 499
3674.88892 -772.43597 -48.82567 493
3676.88208 -772.56610 11.92699 499
3664.67822 -769.57758 71.48345 478
3631.58081 -785.74921 -105.77163 499
3670.57129 -793.81299 -48.86888 499
3672.89673 -794.44934 10.89707 499
3660.04443 -791.65881 71.21533 478
3622.80029 -806.28894 -105.88108 499
3666.46118 -816.39996 -48.14480 499
3668.92139 -817.11652 11.75230 499
3656.22144 -813.40875 71.51960 478
3616.76196 -827.22357 -105.59953 499
3662.20459 -837.98956 -48.60371 499
3665.03687 -838.77795 10.84977 499
3653.00415 -836.23523 71.67152 478
3614.54614 -850.41010 -106.14712 499
3651.62573 -859.39789 -48.24207 499
3655.11621 -860.25415 11.72592 499
3649.00537 -858.68323 71.69131 478
3672.79297 -863.66614 131.87270 331
3609.71680 -871.81653 -105.59672 499
3648.96118 -881.17535 -48.38440 499
3652.17236 -882.44427 10.93933 499
3644.46045 -880.71429 71.75970 478
3603.27856 -892.64954 -105.42058 499
3645.41138 -903.84180 -48.81943 499
3648.48755 -904.13208 11.55322 499
3640.80640 -902.56860 72.03210 477
3600.82568 -915.40680 -106.58822 499
3641.04883 -925.78058 -48.52497 499
3643.78833 -926.85693 11.76929 499
3636.72632 -924.50012 72.03215 477
3597.02124 -937.79297 -105.89865 498
3642.99707 -949.25745 -48.69067 499
3644.63916 -950.28210 11.30667 499
3632.80298 -947.15302 71.20828 477
3590.37769 -958.58820 -106.41858 498
3638.78271 -972.32587 -49.25590 498
3640.96191 -972.70917 11.33143 498
3629.03125 -969.20837 71.95879 477
3586.60474 -980.50653 -105.87865 498
3634.75415 -994.42621 -49.32395 498
3637.10547 -995.00891 11.09976 498
3625.20581 -991.63562 70.98053 477
3585.24976 -1003.86896 -106.37607 498
3631.00171 -1016.83649 -49.12586 498
3632.64893 -1017.36829 10.70063 498
3620.71265 -1013.28845 71.10780 477
3741.23169 -1048.29553 131.93500 350
3581.68286 -1025.97864 -106.89994 498
3626.32642 -1038.57947 -49.77337 498
3629.13623 -1039.17468 10.81616 498
3617.28052 -1036.40686 71.18423 477
3703.85889 -1062.05969 131.53217 498
3575.27759 -1047.00574 -107.03704 498
3613.56372 -1058.55029 71.52115 475
3572.64502 -1070.12317 -106.76000 444
3749.98828 -1124.34082 131.27867 484
3569.95996 -1092.54651 -107.00143 497
3756.71313 -1151.20227 131.14841 459
3747.52563 -1148.17175 194.00343 363
3566.23779 -1114.64014 -107.12402 497
3742.30054 -1171.61975 131.93945 390
3559.20825 -1136.14404 -107.43759 497
3557.69556 -1159.17700 -108.00349 497
3554.11890 -1181.35840 -108.60141 496
3547.76172 -1202.81079 -108.08283 496
3543.81201 -1225.14050 -108.69690 496
3705.17334 -1282.88818 6.03312 453
3541.56494 -1249.23779 -109.36486 496
3537.46069 -1271.54761 -108.86351 495
3531.76367 -1292.49512 -109.66058 495
3529.60449 -1316.36768 -109.50065 495
3525.95410 -1339.68884 -110.23200 495
3578.30176 -1359.31909 -51.78045 495
3519.26855 -1360.57349 -109.68653 494
3574.14404 -1382.90881 -52.87470 494
3515.72363 -1383.95557 -110.03035 429
3616.72046 -1424.48376 -54.91894 497
3516.82617 -1409.54089 -111.60203 423
3605.41064 -1445.37183 -54.69921 498
3604.71069 -1470.64539 -117.85214 433
3593.26514 -1466.06323 -55.07097 498
3603.59497 -1495.12402 -119.01604 414
3552.73682 -1473.26575 -53.49484 493
38088.45703 -21102.59570 839.38159 1000
2264.48071 -1667.35669 -92.52740 406
2247.43652 -1675.62476 -91.79563 498
2254.23853 -1680.27795 -47.76534 477
1453.95813 -1697.11658 -82.19158 302
1433.03101 -1692.27026 -80.59663 422
1417.35205 -1693.58789 -79.51070 414
1409.42139 -1683.94824 -43.33298 405
1399.02368 -1691.97949 -78.80553 416
1390.89075 -1681.80786 -41.98719 420
1380.88660 -1689.91589 -77.07616 417
1373.31079 -1679.44360 -41.26436 427
1362.92358 -1687.59741 -75.98313 417
1355.63403 -1677.90283 -40.01315 428
1370.48767 -1697.61829 -7.01779 432
1345.44653 -1685.94019 -74.90323 418
1334.32471 -1671.18713 -38.91087 433
1352.72070 -1695.48950 -6.67783 433
5715.70557 -7649.47656 -2412.40918 1000
1327.96204 -1683.54919 -73.40163 419
1317.36145 -1669.24731 -37.56314 434
1337.71619 -1697.44482 -5.99700 383
1310.35449 -1681.84729 -72.34965 418
1300.41089 -1668.26978 -36.59079 388
1338.86597 -1721.11816 -7.22827 416
1292.99744 -1679.49951 -71.53243 419
1283.84497 -1666.45947 -36.09532 436
1336.60229 -1740.49805 -8.42387 415
1276.29272 -1677.25732 -70.19083 420
1268.09558 -1666.19080 -34.96521 279
1330.59448 -1754.22925 -8.96698 483
1259.07568 -1675.12524 -69.20737 410
1252.88611 -1666.11865 -34.28065 439
1344.96948 -1797.90479 -11.65334 413
1242.99902 -1673.81934 -68.04799 411
1236.38281 -1664.48291 -33.68736 440
1342.31152 -1818.33191 -12.42561 409
1226.89417 -1672.54358 -67.29382 412
1220.14514 -1663.04614 -32.57999 441
1340.64038 -1839.26721 -13.45889 408
1210.77539 -1671.31995 -66.30574 413
1204.15234 -1660.98254 -32.11016 442
1328.70044 -1847.07812 -13.58600 441
1195.32104 -1669.48792 -64.83672 413
1188.30432 -1659.54517 -31.02524 443
1195.85547 -1670.80957 1.06522 432
1179.41382 -1668.21570 -64.05665 414
1173.00623 -1658.14697 -30.47248 444
1320.33179 -1883.55737 -15.33733 408
1164.20874 -1667.13696 -63.40804 415
1157.40503 -1656.12317 -29.41792 445
1317.85303 -1905.14221 -16.26542 491
1148.41248 -1665.57178 -62.19466 416
1142.05823 -1654.74548 -28.51042 446
1308.07117 -1916.27649 -16.81478 477
1133.40784 -1664.29431 -61.11179 417
1126.77930 -1653.33704 -27.88977 446
1294.51270 -1920.65088 -16.61273 446
1118.45862 -1662.79980 -60.61850 417
1111.72241 -1651.64087 -26.86211 447
1277.05273 -1918.97302 -15.80561 447
1103.21838 -1661.07642 -59.25903 412
1096.74683 -1650.35327 -26.55286 448
1100.47180 -1656.32910 4.95137 450
1087.98230 -1658.98376 -58.60710 412
1081.94580 -1648.90759 -25.67318 449
1086.07471 -1655.56006 5.41523 451
1073.39587 -1657.36890 -57.65937 408
1067.44287 -1647.22827 -24.70871 450
1071.65686 -1654.11023 6.24545 452
1058.60034 -1655.90283 -56.82935 409
1052.75696 -1645.81372 -24.20789 451
1057.26892 -1652.73962 6.64900 453
1044.49976 -1654.84631 -55.89449 410
1038.01440 -1644.29028 -23.37832 452
1042.52026 -1651.65869 7.37429 454
1022.77576 -1653.09131 -55.18727 411
1016.49335 -1642.28149 -22.71438 459
1020.81250 -1649.81030 7.38307 455
1008.69720 -1652.29285 -54.51523 413
1002.50439 -1641.85083 -22.54281 460
1006.73145 -1648.60718 8.27853 455
994.72205 -1651.31030 -53.67243 418
989.57202 -1641.77136 -21.88274 473
993.40796 -1648.46423 8.56809 475
994.07843 -1649.79138 39.67012 475
981.60614 -1651.26758 -53.39009 423
976.87244 -1642.43848 -21.59900 478
980.97260 -1649.55688 8.87045 479
981.67725 -1650.98010 39.90957 476
969.01123 -1651.45618 -52.89417 430
964.55933 -1643.88403 -21.00926 480
968.59784 -1650.80652 9.38115 479
970.45398 -1654.31641 39.57512 484
956.64777 -1652.69226 -52.14395 430
952.45294 -1645.27112 -20.73307 484
956.95508 -1653.81421 9.17919 485
961.88086 -1662.01343 39.78756 484
944.43427 -1654.14648 -51.95919 432
940.69873 -1647.00110 -20.05479 486
948.06732 -1660.96082 9.41479 487
952.78644 -1669.94043 39.62717 484
932.28619 -1655.92847 -51.51077 434
928.70630 -1648.94885 -19.76896 489
938.58398 -1668.01892 9.16698 486
948.79279 -1687.75391 38.70070 376
920.47351 -1658.23413 -50.78994 434
917.09332 -1651.01257 -19.80427 489
934.09393 -1684.45227 8.04778 377
946.73724 -1709.35876 38.01500 376
174.47919 -349.54504 -38.60244 434
906.02698 -1653.69482 -19.19789 485
931.43201 -1704.96008 7.01577 376
944.00885 -1730.66174 36.84517 374
897.46643 -1662.53821 -50.14472 437
894.26727 -1656.03333 -19.13369 488
928.50348 -1725.30237 5.92344 374
941.64856 -1752.15955 36.36390 373
886.20544 -1665.40601 -50.34441 437
883.08319 -1658.63684 -18.79846 489
925.44360 -1746.32288 4.67587 374
938.65662 -1773.72754 35.20934 372
874.86469 -1668.10046 -49.64528 437
871.74750 -1660.96130 -18.54817 491
939.97406 -1804.30115 1.01979 455
936.01538 -1795.86133 34.60351 371
863.97632 -1670.67078 -49.70238 440
861.03339 -1664.24390 -18.46256 491
925.42096 -1801.77026 1.46500 455
933.04791 -1818.72534 33.12672 370
853.16132 -1674.02441 -49.25247 440
850.00323 -1667.12927 -18.49489 492
914.14520 -1806.16870 1.56364 448
930.17053 -1841.75854 32.25213 369
842.21490 -1677.14893 -49.52830 444
839.34790 -1670.87854 -18.18443 490
907.07806 -1819.69629 0.80935 447
927.11462 -1864.49670 31.54487 465
831.59552 -1681.16882 -49.15112 444
828.35443 -1674.47400 -18.48223 490
899.51575 -1833.33997 0.21174 446
820.59894 -1684.48364 -48.89946 444
818.27313 -1678.61304 -18.33425 491
892.48895 -1847.16040 -0.23342 445
810.25208 -1689.04028 -48.96699 446
807.69183 -1682.77649 -17.92031 491
881.28784 -1853.38428 -0.39268 263
800.02606 -1693.10535 -49.25795 441
797.34222 -1686.73132 -18.36214 486
868.20239 -1854.48303 -0.18613 263
789.67780 -1697.48474 -49.28377 441
786.67712 -1690.49377 -17.89868 486
855.13239 -1855.43701 0.20802 263
779.38165 -1701.97278 -48.91729 441
776.31824 -1694.44885 -17.91626 486
768.76886 -1705.98193 -48.80295 441
765.74298 -1698.51013 -18.26360 483
758.20953 -1709.87854 -49.22102 451
755.26819 -1703.01721 -18.15228 483
747.88141 -1713.98218 -49.14805 451
745.04291 -1706.94824 -17.77449 482
737.39551 -1718.51111 -49.25401 459
734.57336 -1711.67773 -18.05970 478
726.81860 -1722.28967 -48.81860 459
724.61688 -1716.38074 -18.03517 476
718.97284 -1733.76624 -49.55295 261
714.40936 -1721.17236 -18.43177 473
704.05878 -1726.07922 -18.48229 470
17406.71484 -48946.32422 -6716.46436 1000
694.28033 -1730.73438 -18.51996 470
684.13544 -1736.00061 -18.38329 470
7086.05566 -52884.95703 13486.54199 1000
2001.39160 -37031.85547 -2912.41284 1000
-561.86676 -23057.22852 507.99335 1000
-5603.69336 -63412.22656 -11456.14355 1000
-593.12512 -3149.82739 -26.11642 430
-592.45441 -3150.20581 27.02779 475
-593.27606 -3151.31226 79.99052 497
-592.98785 -3152.19385 132.54904 495
-593.31049 -3154.84619 184.68170 469
-1023.15613 -2565.88062 -5.08733 388
-1426.77686 -1977.20422 9.83308 450
-1425.97778 -1975.69153 50.55310 486
-1424.78711 -1975.17578 91.72818 486
-1424.23047 -1974.36267 132.14168 486
-1424.05872 -1973.29224 172.96581 499
-1423.12048 -1972.66089 213.87689 499
-39230.33984 -45240.03906 -7753.71973 1000
-4547.24121 -2530.09619 132.70438 428
-3977.25146 -2091.30542 131.99335 395
-3399.30981 -1686.94006 132.25029 473
-256.79932 -74.75779 35.43333 321
-254.65613 -72.02928 36.06118 321
-252.69806 -69.42552 36.77146 322
-272.94687 -73.49387 37.76174 318
-253.01445 -67.24982 36.75061 352
-270.70593 -70.72177 38.40937 321
-254.90468 -65.40649 36.26401 351
-269.42963 -68.11980 38.87758 345
-290.57010 -72.16270 40.23960 318
-256.81088 -63.53624 35.91702 351
-271.10312 -66.13823 38.45911 345
-288.55984 -69.28480 40.84699 318
-258.60278 -61.69862 35.49582 350
-273.09604 -64.23104 38.05605 347
-289.16983 -67.06813 40.70938 341
-260.72696 -59.76233 34.97984 326
-275.18033 -62.22163 37.60233 346
-291.08731 -64.87316 40.34448 341
-266.39539 -58.46440 33.50184 320
-280.51382 -60.74232 36.41765 323
-33634.82422 -1729.39734 4578.96484 1000
-195.92163 -10.76702 53.31235 324
-195.91183 -8.96833 53.29316 324
-51071.74219 -1679.80029 4330.15137 1000
-195.85738 -7.12825 53.31349 324
-195.88686 -5.37692 53.34689 324
-195.89732 -3.57123 53.26926 324
-195.86223 -1.76721 53.27423 324
-195.76370 0.01485 53.29478 324
