# .PCD v.7 - Point Cloud Data file format
VERSION .7
FIELDS x y z rgb
SIZE 4 4 4 4
TYPE F F F U
COUNT 1 1 1 1
WIDTH 1037
HEIGHT 1
VIEWPOINT 7040.727539 -1924.212158 142.631851 -0.641721 -0.105543 -0.102928 0.752636
POINTS 1037
DATA ascii
-17460.48633 1030.49890 1002.88043 467
-17536.89258 1142.03625 715.90826 452
-17398.16016 1134.86914 998.33270 468
-17472.64258 1248.76965 714.64203 462
-17343.93750 1237.03333 997.66156 473
-17413.11328 1353.36060 715.85852 462
-17289.33789 1340.86816 994.22839 474
-17358.96680 1457.07300 712.82520 463
-17233.80664 1446.11292 994.79156 475
-17304.83398 1560.71924 713.56244 463
-17175.99609 1546.88831 992.53943 475
-17249.29883 1662.16589 709.75385 464
-17121.87305 1647.34180 987.17438 476
-17194.84570 1760.81799 707.57025 464
-17070.73633 1748.22937 987.63495 476
-17144.52930 1864.26917 707.51587 465
-17017.06641 1851.74426 982.60486 477
-17090.35352 1964.52209 705.43958 465
-16965.05078 1950.61157 982.79767 478
-17035.92578 2066.74780 704.54315 466
-16910.46875 2049.75879 979.72638 478
-16983.62109 2167.31177 704.77209 466
-16859.81055 2148.46924 976.24731 479
-16927.51562 2266.15845 700.86371 467
-16803.02148 2251.16504 974.61420 479
-16873.64648 2365.52490 700.81439 467
-16754.14648 2350.04810 973.01593 477
-16821.42773 2462.44653 698.95587 468
-16702.90430 2445.63574 973.31494 477
-16771.00586 2560.39307 696.86151 468
-16651.13281 2542.80908 968.84570 478
-275.58005 58.21722 33.28790 319
-16717.64258 2659.09448 696.08508 469
-16596.31836 2642.09814 967.36536 478
-269.24661 59.47508 34.92979 326
-283.62103 61.90734 37.56978 323
-16666.69531 2755.15771 696.67706 469
-16546.44141 2736.20557 966.74847 479
-264.77908 61.08008 36.02526 350
-279.32120 63.58105 38.54229 346
-295.37152 66.29518 41.24630 341
-16614.71289 2855.67847 691.54865 470
-16495.48047 2834.79614 967.47748 479
-262.82715 62.90457 36.39227 350
-277.20917 65.49183 39.00809 345
-293.52921 68.35454 41.58200 340
-16563.17188 2949.37891 693.87103 470
-16443.26562 2929.16064 964.33954 479
-260.80914 64.83644 36.83939 351
-275.39877 67.49168 39.31053 345
-295.16895 71.16068 41.04441 318
-16509.61914 3045.71875 691.03107 471
-16395.12305 3022.72168 961.91711 480
-258.86896 66.70139 37.21661 351
-275.49759 69.82784 39.19681 321
-16458.87891 3141.17700 691.97467 471
-16343.11523 3121.41602 958.74359 480
-257.39847 68.62370 37.51168 325
-277.30780 72.58583 38.55552 318
-16407.53906 3237.71851 689.56482 472
-16292.40527 3213.68408 958.12085 481
-259.16742 71.23709 36.86494 322
-16357.48633 3333.44409 685.99438 472
-16244.47168 3307.26196 954.92511 481
-261.09897 73.89435 36.16874 321
-16308.64453 3424.76343 684.64221 472
-16194.81445 3400.87842 956.43384 482
-263.06393 76.58315 35.52777 321
-16257.82910 3518.95850 686.62036 473
-16141.20508 3497.82275 953.58887 482
-16205.26562 3615.87085 683.44678 473
-16094.03223 3591.32690 954.14557 482
-16157.41309 3710.66479 684.22736 474
-16043.65137 3683.29614 948.97852 483
-16104.56348 3803.83179 683.00452 472
-15995.41504 3773.56982 950.55060 483
-16059.47070 3893.24390 680.91937 473
-15945.49609 3869.39648 947.64557 484
-16006.57031 3985.73853 680.47467 473
-15894.30176 3958.78589 946.84851 484
-15957.20312 4081.69800 678.29065 474
-15848.01367 4050.54199 944.35870 484
-15906.48242 4173.51270 679.37036 474
-15797.30469 4143.71631 946.47510 485
-16502.14453 4325.33789 1261.54114 478
-16521.23828 4332.19141 1544.02319 404
-15856.63574 4265.10254 680.05884 474
-15748.49902 4236.83203 941.58301 485
-16428.91211 4418.03027 1258.04883 479
-16448.81641 4420.67383 1540.63660 404
-15810.72852 4355.07471 675.68219 475
-15702.20410 4327.70508 944.21344 485
-16358.81250 4507.79199 1255.02185 480
-16374.60156 4509.03223 1535.63867 405
-15759.50391 4447.64795 676.52411 475
-15650.18848 4418.22559 941.41699 486
-16286.60059 4595.96631 1251.30029 480
-16295.86816 4599.87500 1535.16443 405
-15711.66895 4536.00049 674.78699 475
-15602.37305 4506.25195 941.40674 486
-16218.31250 4684.09766 1249.05750 481
-16225.60059 4685.29785 1528.04016 406
-15663.62500 4630.20508 676.02734 475
-15557.77148 4598.87012 939.55670 486
-16150.17773 4772.31689 1248.69434 481
-16150.57129 4773.01465 1523.62012 406
-15613.33398 4721.30029 675.40576 476
-15506.18164 4689.28271 936.18744 487
-16078.46094 4858.35596 1245.58801 482
-16079.02539 4859.59131 1522.84705 407
-15567.09277 4809.15039 675.15747 476
-15458.41602 4776.17285 937.64893 487
-16013.84863 4946.57715 1239.45422 482
-16008.71387 4944.75732 1518.52112 407
-15515.99707 4901.88232 672.65613 476
-15411.56836 4866.87451 937.11017 487
-15949.14355 5033.97803 1238.37231 494
-15938.34961 5034.84131 1517.23096 415
-15468.71875 4988.03760 673.32819 477
-15366.07715 4955.53955 933.77722 487
-15896.15820 5125.29346 1239.27966 495
-15885.38672 5122.86670 1512.59436 416
-15421.55371 5082.40283 670.19592 477
-15318.17676 5046.49512 934.43079 488
-15843.29883 5217.54883 1237.55786 495
-15835.20703 5217.18359 1510.85352 416
-15371.62500 5170.96533 673.05896 477
-15269.27246 5135.99268 934.87268 488
-15275.91113 5139.21533 1197.15369 386
-15784.92188 5307.56738 1508.78613 495
-15326.46191 5258.12012 671.96375 477
-15223.63770 5223.84277 932.85681 488
-15226.26953 5227.42090 1199.54309 387
-15734.50586 5397.29932 1509.67688 495
-25689.03711 8794.62695 2823.45215 1000
-15275.53223 5349.67725 669.82007 478
-15172.45898 5313.44238 931.25861 488
-15177.52441 5313.46143 1196.80273 387
-15680.82422 5490.57324 1505.28613 496
-15228.51758 5437.86914 667.33569 478
-15125.37793 5399.99561 930.55457 489
-15125.66309 5399.03662 1193.64697 437
-15631.30957 5581.27393 1503.01550 496
-15182.22656 5525.77051 667.61945 478
-15080.20410 5487.57178 930.56567 489
-15077.51562 5486.98389 1192.24854 437
-15581.25684 5669.66455 1505.14880 496
-15135.64355 5613.09912 669.78162 478
-15034.47461 5578.25195 929.89331 489
-15030.43750 5579.24365 1195.71179 429
-15532.27930 5760.50049 1502.65466 496
-15087.18555 5701.77148 667.99573 478
-14985.73145 5667.25732 929.12146 489
-14984.76660 5666.45264 1194.16907 429
-15478.78125 5849.64844 1502.67859 497
-15038.32031 5792.60547 668.08521 479
-14937.04004 5753.58008 928.08575 489
-14938.34668 5753.40869 1191.05090 428
-15382.56348 5923.35645 1496.02710 330
-15460.58105 5953.75879 1776.31555 497
-15639.00391 6020.84229 2072.97363 367
-14989.65234 5880.88379 666.52252 479
-14893.67383 5843.53271 928.44055 490
-14894.50098 5840.05420 1192.33301 428
-15326.42090 6012.81104 1492.29053 330
-15408.40039 6043.76709 1778.01318 497
-15535.43359 6091.42627 2065.30200 461
-14945.22949 5970.01660 664.78796 479
-14847.25098 5929.96436 925.29059 490
-14846.64941 5931.76367 1188.06946 428
-15332.91406 6123.16846 1499.00525 497
-15359.41211 6133.12256 1774.86536 497
-15550.62207 6208.81738 2075.12939 394
-14897.42188 6056.12744 664.14545 479
-14800.14941 6016.13867 923.85126 490
-14804.42676 6016.22168 1189.71838 429
-15256.35449 6203.86084 1492.29883 439
-15245.21289 6198.60889 1765.38318 439
-2798.35791 1188.37109 133.21025 498
-2805.51929 1192.16956 184.51587 408
-14847.61816 6142.18652 666.38885 479
-14750.90137 6102.55957 924.89447 490
-14755.62793 6106.13965 1188.52612 429
-15142.21094 6262.70410 1486.56360 440
-15127.06055 6259.69092 1756.70776 440
-14804.20801 6231.48389 665.43396 479
-14704.47852 6189.10449 926.58496 490
-14711.29395 6193.36279 1189.70166 429
-15021.83496 6323.92969 1479.31555 441
-15009.45410 6321.33691 1749.26221 441
-14753.76074 6317.53320 662.56726 479
-14658.19922 6277.14697 925.72791 490
-14901.88574 6382.65771 1205.04236 498
-14936.15430 6396.20947 1473.96960 498
-14926.11523 6392.20068 1744.63965 498
-15040.75488 6441.62207 2027.66602 356
-14709.05664 6408.85205 662.29132 480
-14611.19727 6364.95557 925.24475 491
-14854.96094 6468.74072 1206.17358 498
-14886.38574 6484.39209 1476.80359 498
-14874.59180 6478.68652 1740.69836 498
-14986.43945 6525.30664 2025.69092 391
-15586.64258 6788.99023 2387.95776 414
-15577.02051 6784.99805 2668.65527 413
-15572.00000 6783.02246 2952.59399 413
-15568.84375 6780.88916 3242.90796 330
-14658.47363 6494.39307 665.75763 480
-14565.77246 6450.24609 924.91180 491
-14804.58887 6557.59912 1203.75256 498
-14808.03125 6557.95605 1473.45276 498
-14796.15820 6555.82715 1736.61890 498
-14933.45898 6615.15625 2025.14685 391
-15133.45117 6702.29541 2328.35986 485
-14613.37793 6582.54297 662.62146 480
-14518.92969 6536.85059 920.68768 491
-14754.12402 6643.87842 1203.49817 499
-14762.42871 6646.34277 1471.85620 498
-14750.19141 6642.57910 1739.98511 498
-14882.16699 6701.17529 2023.64368 391
-15083.14844 6790.40723 2327.85010 485
-14567.53320 6667.53076 662.20343 480
-14471.94922 6626.50000 922.88702 491
-14708.00879 6731.23242 1202.79285 499
-14713.75195 6736.57617 1469.98328 499
-14702.58789 6728.81445 1737.97400 498
-14832.51172 6790.77734 2022.78113 391
-15033.43359 6882.33496 2326.21094 485
-14520.24512 6756.03516 661.92389 480
-14427.13965 6713.06152 923.77502 491
-14657.18750 6818.83301 1202.58997 499
-14665.03223 6821.00732 1470.83459 499
-14651.72266 6817.38770 1735.07495 499
-14779.84570 6877.72168 2019.57239 392
-14982.79297 6970.44043 2321.41772 485
-14472.40723 6842.72021 663.32251 480
-14379.56641 6798.30615 923.47198 491
-14609.05859 6907.87500 1200.80200 499
-14614.07227 6910.67383 1470.65076 499
-14604.41211 6906.18994 1734.29663 499
-14732.13574 6963.57471 2021.51062 392
-14936.70410 7059.50928 2322.72876 486
-14427.75586 6929.25830 664.12659 480
-14332.12402 6884.80029 923.20026 491
-14561.73730 6995.62012 1201.65515 499
-14569.21875 6996.93262 1469.32959 499
-14556.61035 6994.35596 1734.62512 499
-14680.74707 7051.74072 2021.63599 392
-14379.72266 7017.28027 664.70020 480
-14285.84570 6973.26367 919.44824 491
-14510.91895 7081.89648 1198.79102 499
-14517.41406 7084.79834 1466.17676 499
-14506.25586 7082.21533 1732.49048 499
-14631.25684 7139.69531 2018.14429 392
-14331.74023 7103.27002 660.62036 480
-14238.18555 7059.04443 918.79871 491
-14461.69336 7169.54639 1201.61475 499
-14497.89941 7187.13281 1469.19397 499
-14487.57910 7182.47363 1737.91333 499
-14580.45996 7226.79004 2017.15283 392
-14287.08008 7191.30566 664.05878 480
-14195.66895 7143.66699 921.81097 491
-14417.37109 7257.57715 1199.64917 499
-14449.12012 7271.49121 1470.70618 499
-14438.11523 7266.37158 1737.50854 499
-14527.87891 7314.28662 2015.21838 392
-14237.18359 7279.49219 664.29370 480
-14146.17773 7230.27783 919.79779 491
-14367.74609 7344.78174 1201.02905 499
-14253.30273 7285.59277 1453.87744 418
-14213.75098 7265.20605 1714.46411 393
-14478.36914 7398.95361 2014.75867 392
-14189.25488 7366.59375 664.13220 480
-14098.75391 7316.55908 920.79510 491
-14318.71680 7428.47070 1196.83435 499
-14352.63184 7445.47705 1467.15454 499
-14340.18359 7441.35693 1737.29028 499
-14429.52148 7489.29102 2015.09326 392
-14143.24512 7449.51123 661.41461 480
-14053.79395 7406.63379 922.58197 491
-14272.15430 7519.48633 1200.41772 499
-14304.55176 7532.87744 1468.38647 499
-14290.69434 7529.29590 1733.65906 499
-14381.45117 7575.45508 2016.17920 383
-14095.22754 7537.86523 661.78143 480
-14008.29492 7491.89062 922.04852 491
-14223.72559 7605.87402 1196.51758 499
-14252.41406 7621.64941 1468.58044 499
-14242.76074 7615.09131 1733.13904 499
-14326.23438 7662.33887 2012.96423 383
-14050.92188 7624.04053 662.43005 480
-13962.67480 7576.09912 921.13794 491
-14174.14746 7691.41016 1198.36780 499
-14239.28906 7727.95654 1471.12170 463
-14232.39258 7722.70068 1738.82837 462
-14340.89160 7784.24561 2021.85803 365
-14005.59766 7712.90430 661.31299 480
-13917.19141 7663.62598 920.63104 491
-14125.10449 7778.49902 1199.91113 499
-14248.93652 7843.52783 1477.83850 462
-14236.91992 7839.43408 1745.33142 462
-14355.55273 7906.22559 2031.82947 364
-13956.36035 7798.63721 663.45374 480
-13870.03906 7752.04346 919.67773 491
-14075.74316 7864.57959 1196.72070 499
-14234.12891 7952.47803 1481.03064 479
-14245.42969 7957.15771 1752.11511 461
-13907.20801 7887.32275 659.59839 480
-13820.37695 7837.24854 919.48407 491
-14027.12695 7952.46191 1198.50146 499
-14214.43750 8057.86865 1480.49719 479
-14251.69141 8077.51416 1757.36426 460
-13864.59375 7970.56689 659.65875 480
-13776.65332 7924.12695 922.12213 491
-14016.94141 8060.73975 1199.34790 424
-14196.26074 8162.96191 1482.89771 478
-13816.12988 8057.74023 663.32166 480
-13730.12891 8006.86084 922.52582 491
-14015.05078 8177.09814 1205.63855 423
-14180.78125 8268.18066 1487.75024 478
-13769.44238 8147.29004 662.69312 480
-13682.29785 8095.30469 918.88214 491
-14019.16406 8293.67773 1206.84448 422
-13720.36914 8232.37305 662.25732 480
-13634.80371 8180.41064 921.58044 491
-14014.62402 8407.93066 1214.35083 405
-13674.52344 8319.79297 659.86084 480
-13590.42188 8267.74121 920.86975 491
-13987.07520 8508.19336 1215.63672 405
-13629.00684 8408.38574 661.90173 480
-13542.02246 8356.06055 921.93091 491
-13963.87695 8612.00781 1214.64612 404
-13581.35156 8493.18555 660.63318 480
-13497.51074 8442.85742 922.88245 491
-13939.50098 8717.33984 1218.80176 404
-13534.74023 8579.53711 662.88495 480
-13450.98535 8526.53613 923.68079 491
-14777.20605 9362.62109 1287.17969 421
-13485.61914 8666.38770 664.29346 480
-13404.11230 8617.06641 923.33014 491
-14724.20020 9459.01270 1286.11218 421
-13440.69043 8754.85254 661.66193 480
-13354.87305 8703.22070 921.84631 491
-14670.03027 9549.68066 1287.95703 421
-13390.20020 8844.10840 662.05920 480
-13309.58203 8787.14941 921.79773 490
-14615.39160 9644.07129 1289.07581 421
-13346.25879 8929.00684 665.06854 479
-13261.78223 8876.68750 922.62390 490
-14564.21289 9742.37305 1287.20911 421
-13296.82812 9018.63379 663.53961 479
-13217.58008 8961.87109 924.35468 490
-14506.76660 9830.96094 1291.69836 421
-13248.44531 9106.62305 663.57806 479
-13170.19629 9048.68359 924.17963 490
-14454.94043 9925.81152 1291.47388 421
-13199.77246 9191.76562 664.67944 479
-13120.58203 9137.11035 923.73682 490
-14399.68457 10023.67578 1289.51477 421
-13156.28613 9279.55078 663.48425 479
-13076.46094 9224.65723 923.74384 490
-14348.35742 10118.13770 1290.46472 421
-13105.48145 9369.06738 665.25732 479
-13028.31152 9312.08691 926.63513 490
-14294.57324 10210.99805 1292.10181 421
-13060.39746 9456.43555 666.00024 479
-12982.46973 9398.42480 926.21985 489
-14238.08691 10303.17188 1290.79968 420
-13009.85254 9542.54785 667.52728 478
-12931.99609 9485.41309 927.09210 489
-14187.49316 10400.79297 1290.65283 420
-12963.89453 9632.70020 666.17639 478
-12884.98145 9575.75000 926.54565 489
-14131.52441 10492.96973 1295.86133 420
-12913.01367 9723.04883 666.67242 478
-12837.38672 9665.56934 928.77374 489
-14075.48242 10592.02246 1292.07080 420
-12864.73242 9811.76562 668.82672 478
-12787.87891 9750.64062 930.30096 489
-14022.11035 10683.11426 1295.32544 420
-12817.31445 9899.23730 668.50287 478
-12741.64941 9839.58496 927.74957 488
-13967.32227 10779.84180 1295.19385 420
-12769.89160 9988.51367 669.69952 477
-12694.08594 9926.44629 928.06854 488
-13914.84668 10876.57129 1297.79602 420
-12719.49219 10076.42773 666.45886 477
-12648.29492 10016.45312 933.04370 488
-13858.54395 10973.43945 1298.08777 420
-12672.50977 10167.71191 668.30670 477
-12596.90430 10107.14258 929.76245 488
-12626.13477 10255.76270 671.72589 477
-12548.34180 10196.16992 931.98865 487
-12575.04395 10343.71484 671.21899 476
-12500.43652 10286.72168 932.25250 487
-12526.16992 10436.69531 671.39117 476
-12453.91895 10376.72949 936.10083 487
-16845.88086 14179.82715 -4258.77051 1000
-12477.81836 10525.28125 670.93274 476
-12404.64746 10465.93457 934.06287 486
-12429.26660 10613.74707 670.72534 476
-12354.62891 10554.86523 936.94171 486
-12378.68066 10707.33789 674.84753 475
-12304.96777 10644.43457 937.10413 486
-12333.90234 10801.85938 672.84900 464
-12256.21680 10734.47852 935.94116 485
-12297.57617 10899.59961 675.96124 464
-12208.28223 10824.96777 938.74475 485
-12258.72949 11001.42480 674.54529 466
-12161.31250 10920.68359 941.92438 466
-12220.80371 11104.41016 678.40723 466
-12125.63086 11021.04102 942.62646 466
-12181.02051 11207.00098 678.73492 465
-12086.70410 11124.08691 946.79327 465
-12142.68164 11310.06738 678.22632 465
-12047.04590 11224.51562 946.28094 465
-12105.18457 11415.91797 679.60864 464
-12011.32422 11327.99707 947.47980 464
-11973.33398 11294.92383 1217.06848 484
-12077.75391 11532.36621 684.17297 423
-11971.49023 11429.81641 950.02167 464
-12061.19922 11655.06543 684.48846 401
-11934.45215 11534.87305 950.94897 463
-12048.00000 11792.38574 688.18066 400
-11894.13867 11640.35645 957.08771 464
-11887.43750 11632.89551 1227.16431 385
-12039.25879 11926.67090 689.84119 399
-11863.74414 11756.04004 959.15900 423
-11844.22070 11735.19629 1229.78174 384
-12032.25000 12064.58301 695.12146 399
-11843.88770 11883.90430 963.44336 422
-11802.03418 11842.28809 1232.92285 384
-12038.13086 12220.26367 695.72357 372
-11827.22363 12011.72754 964.42139 422
-11763.75977 11946.67383 1235.01465 382
-11807.11621 12137.09570 970.28345 421
-11735.53613 12061.80469 1241.77026 448
-11791.46191 12270.16113 975.37103 399
-11703.91309 12181.91113 1246.57056 446
-11789.84277 12421.12793 977.01996 373
-11683.21387 12311.82227 1249.59729 446
-11801.92773 12584.82324 985.59888 372
-11670.15723 12451.24707 1256.82129 344
-11809.85547 12751.72168 988.82642 371
-1307.08716 2175.71997 132.09105 304
-1260.31055 2132.31665 132.16794 354
-1297.90698 2191.11304 174.64661 342
-1229.65686 2112.88208 132.45200 356
-1290.71570 2210.10303 174.69398 287
-1237.24268 2154.33228 90.52105 338
-1202.06775 2097.65894 132.07883 373
-1286.93188 2234.06763 175.13495 308
-1203.20532 2127.77393 91.42736 335
-1178.40637 2087.37964 132.38667 374
-1279.57141 2252.49097 175.67957 305
-1169.70056 2102.18091 92.28120 271
-1154.88208 2077.41357 131.82741 375
-1132.33887 2068.66724 92.93423 349
-1132.27429 2068.76172 131.92944 387
-1107.07471 2055.05786 92.91661 350
-1111.79614 2063.01880 132.39575 349
-1082.36548 2041.38586 93.18879 351
-1091.80542 2058.77515 131.90109 350
-1060.14185 2032.25708 93.60915 413
-1072.69116 2054.01758 132.14516 350
-1039.22339 2024.42822 94.28510 414
-1054.86804 2052.64404 132.10881 292
-1019.72284 2017.96155 94.09206 424
-1073.69202 2116.66113 132.27322 435
-1000.41528 2012.54041 94.72258 425
-1054.44873 2111.92847 132.20015 436
-1053.75342 2111.44775 171.14487 436
-981.21570 2006.93799 94.88538 426
-1035.57288 2107.18921 131.81917 437
-1032.30676 2102.30493 171.18674 442
-962.97437 2001.91492 95.14532 436
-1016.09064 2103.09741 132.11491 438
-1030.45410 2129.56055 171.69547 379
-944.69904 1998.02686 94.89533 437
-1006.45715 2115.67407 132.15302 412
-1024.80884 2151.80957 171.78912 378
-927.27905 1993.44287 95.35023 439
-1001.20599 2137.61475 132.38678 411
-1019.69946 2173.86304 171.98227 377
-909.32495 1989.52771 95.66953 440
-962.71722 2094.38550 132.28328 441
-1014.42548 2196.77417 172.46147 376
-892.30865 1986.01941 95.43185 441
-944.18671 2090.53784 132.06276 442
-1009.21228 2219.76685 172.68683 375
-874.87872 1982.09558 96.12103 442
-923.20734 2079.90454 131.93462 443
-922.98132 2078.90674 170.20454 443
-858.29901 1977.91309 96.36008 443
-909.19482 2082.77124 131.90651 406
-907.33331 2079.90088 169.93669 407
-841.43591 1974.26099 95.96033 443
-903.82013 2105.30713 131.82112 405
-902.61890 2102.47070 169.98273 405
-842.50214 2008.31946 59.33548 432
-824.91699 1970.52856 96.35181 444
-902.17883 2135.58740 132.08514 480
-901.43359 2133.69214 170.82385 446
-825.16010 2003.74878 59.83415 413
-808.60529 1967.11389 96.64758 445
-834.83008 2024.94373 132.22748 447
-873.01996 2108.10278 245.79652 359
-808.52277 1999.65527 59.94564 414
-791.78375 1963.24585 96.93139 446
-818.54199 2020.66101 131.83759 448
-818.10065 2020.14429 168.07652 448
-853.77380 2098.92358 245.14301 402
-855.64624 2103.72119 283.50708 480
-791.52637 1994.92432 60.79399 414
-775.60175 1959.58875 97.00499 447
-803.70795 2022.12415 132.29172 395
-803.39600 2021.20398 168.35315 395
-848.47552 2122.23682 246.19159 401
-775.23566 1990.47375 60.94432 415
-759.86914 1956.25244 97.05930 448
-792.68036 2031.27478 132.29636 450
-795.34967 2036.59412 168.48094 347
-843.37482 2146.57666 247.43750 311
-758.33856 1986.28711 60.96484 416
-743.84937 1952.34241 97.20229 449
-794.19354 2069.12183 132.16130 398
-790.26056 2059.78442 168.48813 377
-824.98645 2140.46729 361.79285 398
-740.86310 1978.18457 61.81495 312
-728.51611 1949.10400 97.42852 450
-788.93341 2092.04663 132.24503 397
-784.98792 2082.11182 169.23224 376
-723.77087 1971.29919 62.38260 313
-712.40533 1945.46326 97.70869 451
-783.34717 2115.38135 132.27144 396
-779.36694 2105.51855 169.60818 375
-706.79657 1965.01416 62.40562 313
-697.37469 1941.80725 97.37515 452
-728.03442 2017.08057 132.13812 453
-774.26514 2129.48657 169.65268 374
-690.16638 1958.35010 62.97716 313
-682.08197 1938.50330 97.53525 429
-772.02832 2162.62207 132.25563 399
-719.19672 2031.03577 167.94867 373
-717.83441 2027.92261 203.80626 467
-717.32043 2025.30542 239.20004 454
-673.86420 1952.40771 63.54166 314
-666.98187 1935.71655 97.64905 430
-766.05475 2186.25635 131.81223 398
-713.56946 2053.89746 167.84706 372
-711.34485 2047.93567 240.42188 325
-710.05817 2043.55090 275.88104 271
-708.24951 2040.40247 312.14008 476
-657.04510 1946.12244 63.60660 314
-652.18811 1932.21887 98.11710 430
-708.06409 2077.46606 168.12820 371
-641.19293 1940.01172 64.15496 314
-637.25549 1929.54639 98.03535 431
-702.67468 2101.44653 168.71689 370
-625.03412 1933.79993 64.48094 315
-622.19025 1926.44641 98.56153 432
-696.82385 2125.65063 169.14320 369
-609.68262 1928.24207 64.59547 403
-607.96606 1923.32385 98.72742 433
-691.19623 2150.55835 169.16466 367
-686.04858 2135.80591 318.76492 473
-595.07104 1924.07422 65.13766 403
-593.43671 1920.50366 98.71944 433
-579.91095 1919.98547 65.03337 404
-578.80878 1917.03967 98.40632 434
-564.99622 1916.02051 65.59908 405
-564.65210 1914.19019 98.57650 435
-550.55328 1911.97156 65.89697 405
-550.57166 1911.55444 98.70472 435
-536.12994 1908.14893 65.90218 406
-536.23907 1908.41858 99.22306 436
-521.66931 1903.97705 66.18364 407
-522.71881 1905.38391 99.04135 437
-509.33759 1904.15381 66.69693 438
-509.37445 1905.57056 99.25735 465
-496.64905 1905.71289 66.72643 439
-497.22757 1907.85571 99.13158 405
-484.92264 1909.30920 66.58501 351
-485.37213 1911.66553 99.26910 405
-473.07455 1913.55762 66.35709 350
-512.87311 2046.96240 97.26056 371
-501.73270 2055.48291 61.60608 263
-507.08261 2073.01392 96.86486 368
-489.92242 2062.13086 61.64978 263
-501.20007 2100.21973 96.24751 367
-478.03900 2069.09229 61.41103 263
-495.09924 2128.26294 95.70594 365
-469.20288 2086.85034 60.81364 368
-483.05695 2137.69775 95.73133 465
-460.69357 2105.64209 60.38340 363
-468.26663 2133.95093 95.64856 466
-459.38541 2153.65356 59.26906 350
-454.11856 2134.09570 95.53700 469
-440.80237 2135.81226 96.01059 469
-427.21063 2137.39038 96.05137 470
-413.60645 2140.08960 95.86665 395
-10313.57910 47204.44531 -7040.21191 1000
-17.59312 854.68549 18.47457 435
-18.18169 858.85583 32.16225 375
-11.65492 851.47461 18.90846 478
-12.14182 853.54028 32.86404 436
-12.28055 856.17944 46.99294 436
-12.73997 859.10406 60.97126 376
-6.19435 850.34607 19.04306 498
-6.38542 851.83740 33.15675 498
-6.78850 853.75592 47.14656 479
-7.02416 855.50562 61.11319 478
-7.18462 857.64465 75.23205 474
-7.52235 859.98846 89.40965 436
-7.93811 864.88147 103.31718 296
-0.99907 850.74792 19.19193 494
-1.22242 852.26270 33.14742 494
-1.40651 853.73114 47.19189 494
-1.59346 855.18182 61.40762 498
-1.62315 856.90588 75.39752 499
-1.83181 858.31726 89.52702 498
-1.94652 860.03711 103.46439 498
4.23924 852.79694 18.90643 465
3.89957 854.15686 33.16156 465
3.74496 855.75989 47.07659 465
3.76469 857.38123 61.07144 464
3.34498 858.84955 75.22202 465
3.31703 860.44745 89.43029 467
3.17930 861.90790 103.40087 420
9.04559 856.99597 18.39923 414
8.92234 858.86426 32.45187 414
8.72295 860.93695 46.72476 414
8.27140 863.51416 60.80645 348
13.22103 868.59509 16.98624 273
8398.88574 21642.77148 4348.36279 1000
34532.36328 30237.76172 -2880.50952 1000
56061.64844 39629.85156 12594.56055 1000
2898.27905 1314.64551 -20.87230 451
2994.66260 1337.38013 -78.07012 290
2913.00513 1299.91809 -20.98140 450
2986.30688 1312.10339 -76.70634 290
2927.59766 1285.39294 -21.15582 457
2977.95801 1287.41602 -75.25081 290
2942.45093 1271.56604 -21.56672 456
3180.88428 1378.21936 20.76945 302
2974.05933 1264.29260 -74.96043 429
2958.44238 1257.65112 -22.23190 456
3161.05493 1347.09448 21.93506 435
2991.95923 1250.72705 -75.34473 429
2975.06201 1243.97852 -22.87116 460
3156.54077 1321.93481 22.32337 436
3008.83032 1237.96558 -76.09325 418
2992.27295 1230.78125 -23.31967 460
3151.99561 1298.33630 22.42382 436
3027.74927 1224.01379 -76.83404 418
3009.72729 1216.85876 -23.87743 458
3147.18457 1274.05603 23.14034 437
3047.65771 1211.86230 -78.08955 407
3027.39648 1202.73499 -24.51135 460
3142.28174 1250.29175 23.39201 438
3069.51440 1199.20154 -78.48460 400
3046.79956 1189.91724 -24.54298 451
3137.87695 1226.47070 24.10703 439
3091.34033 1186.36743 -79.46727 398
3067.42456 1176.99109 -26.00365 445
3133.07056 1203.37659 24.66055 440
16324.38184 6309.23486 -3633.18433 1000
3114.71069 1174.70520 -81.43459 383
3089.66333 1164.36694 -26.84671 440
3129.02026 1179.68079 24.89207 440
3140.36890 1162.86572 -82.60374 381
3112.95410 1152.14856 -27.68336 434
3135.87622 1161.24194 24.53031 485
3170.27734 1153.18433 -84.09314 362
3138.80347 1140.31116 -28.32514 421
3150.88867 1145.50037 24.22786 414
3204.16333 1143.59680 -85.38264 363
3166.49927 1130.24548 -29.02034 409
3181.54443 1135.09058 23.78729 382
3241.74390 1135.19250 -87.85783 362
3202.95483 1122.15979 -31.15627 378
3278.94604 1126.56189 -89.66360 370
3242.20801 1113.80859 -32.96171 377
3314.02393 1117.38342 -92.05959 369
3282.19336 1106.30688 -34.19011 376
3353.03906 1108.40491 -93.87210 372
3322.75366 1098.18860 -36.04915 375
3393.84497 1099.45190 -96.29341 371
3363.88452 1089.18921 -37.54549 373
3434.21899 1090.39368 -99.29564 370
3405.80298 1080.84900 -39.60942 372
3449.30298 1072.21704 -41.55502 370
3493.18213 1064.08215 -43.99150 369
3538.10449 1054.60278 -45.83775 368
1833.30334 350.82315 -43.30534 487
1838.29504 351.91248 -14.27423 487
1842.73254 352.87292 14.55589 452
1835.30334 340.36368 -42.79816 486
1840.24927 341.16611 -14.03405 485
1847.14038 342.39261 14.82208 393
1847.18665 331.64365 -43.85824 324
49732.16016 9370.09375 119.65703 1000
2864.93799 -163.40387 -96.31479 466
2875.49170 -163.99785 -51.43357 365
2861.64844 -180.39191 -95.93635 474
2873.46265 -180.91212 -51.05828 378
11728.17285 -973.32776 129.64293 1000
3871.21509 -455.97675 -55.35320 364
3825.87866 -474.40610 -53.75677 421
3859.48169 -501.68164 -117.27058 350
3810.86060 -495.50079 -52.71193 477
3845.32617 -523.68738 -117.13165 492
3802.52002 -517.37762 -52.85800 458
3809.47363 -542.05945 -115.13728 295
3792.63330 -539.90631 -52.42652 423
3787.77246 -562.03186 -113.75952 363
3784.27075 -561.54828 -52.32306 428
3770.68970 -582.27606 -113.01608 423
3776.79175 -583.71173 -51.35822 399
3757.57397 -603.86401 -112.48537 427
3770.43872 -605.74457 -51.92610 406
3745.21338 -623.92694 -111.25401 466
3764.30664 -627.50714 -51.72480 351
3734.84766 -645.64935 -111.25735 470
3759.38770 -650.19452 -51.88223 351
3724.35742 -666.39526 -110.53171 471
3781.25610 -677.84662 -53.12450 255
3714.63623 -688.07550 -110.13486 494
3790.75000 -702.03918 -53.16866 325
3859.85010 -715.90344 68.28139 289
3706.39038 -709.90363 -110.26505 494
3755.64502 -718.91467 -52.27204 492
3782.09546 -724.32910 70.14024 290
3697.65601 -730.98566 -109.15497 496
3745.79004 -741.14899 -51.25626 492
3814.14209 -754.86090 6.59928 327
3736.23950 -738.14301 70.22694 423
3691.27100 -752.65912 -109.12575 496
3735.96753 -762.07257 -51.36301 493
3745.10474 -763.32825 9.19854 354
3731.56616 -761.29401 70.21502 423
3684.11865 -774.30688 -109.05526 497
3725.35986 -782.56122 -51.02623 493
3726.95068 -783.08057 9.97974 499
3727.36255 -783.65820 70.70670 423
3678.17236 -795.50867 -108.92064 497
3719.88501 -804.92096 -51.19316 499
3723.49268 -806.36151 10.23088 499
3723.81543 -806.17120 70.93674 423
3670.83301 -817.82574 -109.04732 498
3715.92676 -828.20056 -51.53260 499
3719.19312 -828.47363 9.45648 499
3719.53491 -828.63782 71.05767 423
3665.62305 -839.40631 -109.54826 498
3711.97266 -850.05267 -50.73307 499
3714.52197 -851.14917 9.60017 499
3715.47705 -850.82654 70.47069 423
3660.71704 -861.52576 -109.53741 498
3703.50049 -871.22992 -50.60000 499
3704.86157 -872.07080 10.34120 499
3712.04297 -873.32062 71.05647 423
3722.42310 -876.77765 131.52109 485
3725.42456 -876.45526 192.25009 485
3655.89355 -883.19977 -109.48367 498
3698.71436 -894.20483 -51.27615 499
3702.10645 -894.36798 10.16006 499
3707.49365 -895.97565 70.74835 422
3650.45581 -905.58008 -109.41018 497
3694.35376 -916.27319 -51.09798 499
3697.36938 -917.69159 9.26355 499
3703.62769 -918.81256 70.74829 422
3646.94556 -927.89148 -109.48294 497
3690.91577 -939.08032 -50.83240 490
3693.41943 -939.28082 9.59519 490
3700.44995 -941.17261 70.59742 422
3642.81689 -950.36176 -109.11524 496
3691.38770 -962.73926 -51.76461 499
3694.78589 -963.60516 9.10858 499
3695.96948 -964.45410 70.07272 422
3638.50659 -971.74988 -109.01962 496
3687.30225 -985.82397 -51.43315 499
3690.68994 -985.98828 9.27326 499
3692.12964 -987.18542 70.19814 422
3633.99463 -994.82587 -110.13581 496
3683.64062 -1007.81531 -52.00998 498
3686.90405 -1008.98242 9.82033 498
3687.99365 -1009.15417 70.85563 422
3630.51489 -1016.98962 -110.10697 496
3679.18726 -1030.69788 -51.31056 498
3682.24268 -1031.81189 9.71622 498
3683.73242 -1032.38208 70.74842 422
3844.38843 -1078.48401 131.48511 275
3626.48608 -1038.65833 -109.40717 496
3674.91479 -1053.68188 -51.74998 498
3677.91675 -1053.97241 9.06042 498
3679.35864 -1054.95886 70.24580 422
3786.42651 -1085.78625 131.09024 494
3622.58374 -1061.03711 -109.79728 496
3676.16406 -1077.14673 70.08543 422
3618.71606 -1084.05298 -109.78680 496
3614.07031 -1106.82031 -110.15828 495
3807.18311 -1166.60229 131.73494 460
3794.62720 -1162.70874 195.15746 471
3610.33862 -1128.93787 -110.81529 495
3787.60962 -1186.31653 131.68587 358
3606.53394 -1151.33191 -110.78517 495
3601.60010 -1174.21216 -111.37459 495
3597.48853 -1196.66541 -111.18470 495
3593.93994 -1219.38562 -111.40908 494
3589.95508 -1241.80542 -111.39420 494
3756.73462 -1301.80981 -59.94516 420
3759.01855 -1301.96423 4.44914 420
35510.63672 -12824.76172 -8657.69629 1000
3585.36646 -1264.90295 -111.93690 494
3740.96362 -1321.52283 -59.36472 496
3581.08740 -1287.77795 -111.70969 494
3621.67773 -1302.49121 -53.30074 494
3577.26611 -1310.03381 -112.78567 493
3572.97363 -1333.58020 -113.00806 493
3630.12573 -1354.59509 -54.08728 495
3569.08301 -1356.60254 -112.91949 493
3769.59082 -1434.99939 -62.59618 351
3564.77954 -1379.33850 -113.41713 492
3620.76245 -1401.25269 -54.45269 495
3560.50391 -1402.58264 -114.06387 492
3604.30762 -1420.21191 -54.75231 300
3607.82544 -1446.17847 -117.84109 494
3648.65332 -1463.12915 -57.48659 497
3653.09863 -1490.69409 -121.28054 434
3637.89429 -1483.81140 -57.22863 497
3635.64136 -1509.02734 -57.23735 475
2301.56470 -1674.15002 -95.65797 489
2308.64722 -1679.40906 -50.05547 455
2292.76538 -1689.41736 -95.76410 444
23844.91211 -22794.18359 7240.68994 1000
1490.17896 -1698.98230 -84.70701 418
1471.13464 -1696.39697 -83.25507 405
1454.48669 -1698.05688 -82.45883 413
1446.38831 -1688.18677 -45.63142 416
1435.94580 -1695.96155 -81.32116 414
1427.59412 -1686.03735 -44.27184 423
1417.21350 -1693.82507 -79.90607 415
1409.34314 -1683.95874 -43.52853 424
1425.62048 -1704.37268 -9.63867 411
1398.80066 -1691.69312 -78.57161 414
1387.70898 -1677.44666 -41.59924 406
1407.24268 -1702.08862 -8.82144 430
1380.34570 -1689.37817 -76.97848 416
1370.03015 -1675.66260 -40.60026 385
1388.88892 -1700.34570 -8.05409 461
1362.79370 -1687.52625 -75.92149 417
1352.70728 -1674.38428 -39.78743 432
1381.77222 -1712.38086 -8.66902 391
1345.05591 -1684.93860 -74.92111 416
1336.73633 -1674.79224 -39.13200 278
1345.49951 -1686.07019 -5.55455 363
1326.82593 -1682.86401 -73.34859 417
1320.20837 -1673.58923 -38.40954 434
1240.33264 -1686.33411 -137.25652 417
1309.75110 -1680.53125 -72.57695 418
1302.96838 -1671.52344 -37.20042 435
1374.11621 -1768.92822 -11.02093 399
1292.48730 -1678.45825 -71.11047 409
1286.08801 -1669.83301 -36.42786 436
1387.75244 -1811.92151 -13.97801 416
1275.85876 -1677.08154 -69.97849 409
1269.27307 -1668.19385 -35.33494 437
1385.49573 -1832.49585 -14.89971 415
1259.04321 -1675.50598 -68.79839 410
1253.07288 -1666.61792 -34.23847 438
1261.26514 -1678.36987 -2.03569 337
1243.00000 -1673.85388 -68.03324 411
1236.42383 -1664.49109 -33.86338 439
1244.44751 -1676.12341 -1.42179 451
1227.01648 -1672.18872 -67.11392 412
1220.60400 -1662.86719 -32.58295 440
1365.87439 -1876.92590 -16.45685 410
1210.93567 -1670.82996 -65.86362 413
1204.75818 -1661.35278 -31.71384 441
1363.71631 -1898.46545 -17.61385 409
1194.81970 -1669.08630 -65.08706 414
1188.80676 -1659.76526 -31.24574 442
1357.00134 -1914.02551 -18.26056 480
1179.47546 -1667.78748 -64.16196 414
1173.18396 -1658.11316 -30.05700 443
1348.79822 -1927.17981 -18.96283 443
1163.83105 -1666.23914 -63.25917 415
1157.35742 -1656.61597 -29.41335 444
1330.39221 -1925.61877 -17.88757 444
1148.08179 -1664.84045 -62.02560 409
1141.77625 -1655.03430 -28.62575 445
1145.50049 -1660.75684 3.30621 447
1132.58130 -1662.42371 -60.99419 410
1126.86560 -1653.49951 -27.84625 446
1131.42920 -1660.43604 3.98556 448
1116.74255 -1660.09119 -60.10085 411
1111.78125 -1651.80737 -27.07838 447
1116.06116 -1658.90710 4.55849 449
1101.93127 -1658.60034 -59.26281 407
1096.91162 -1650.25098 -26.21023 448
1101.05676 -1657.68005 4.74911 450
1087.15906 -1657.44788 -58.13128 408
1081.61328 -1648.76013 -25.65746 449
1086.32483 -1656.53528 5.57282 451
1072.50696 -1656.00098 -57.69352 409
1067.34814 -1647.11365 -24.60150 456
1072.11182 -1654.78003 6.01877 452
1057.97095 -1654.62012 -56.72555 411
1053.09790 -1646.29370 -24.28955 457
1057.38623 -1653.53870 6.54397 453
1044.19897 -1654.10974 -55.75631 416
1040.05652 -1646.89197 -23.65953 471
1043.98730 -1654.05432 6.88110 473
1022.19220 -1652.61475 -54.68936 428
1018.92877 -1646.59106 -22.64222 478
1022.70374 -1653.80139 8.27469 477
1009.20398 -1653.47778 -53.93089 429
1006.25842 -1647.92908 -22.16176 478
1009.90204 -1655.04028 8.14598 477
996.69202 -1654.64880 -53.56851 429
994.02032 -1649.45020 -21.69360 482
999.78711 -1660.43445 8.59017 486
984.25647 -1656.46680 -53.06223 431
981.65857 -1651.71130 -21.47852 485
990.28040 -1667.41235 8.37763 487
972.01331 -1658.07190 -52.56581 432
970.13416 -1653.85693 -21.44713 486
981.44971 -1675.33289 7.88148 378
960.32379 -1659.93958 -52.43095 433
958.37836 -1656.11304 -20.80114 489
979.37366 -1696.11987 6.75831 381
948.59509 -1662.24878 -52.00954 432
946.36987 -1658.22510 -20.83816 489
976.86426 -1716.45691 5.64743 380
936.72510 -1664.42053 -51.53097 436
935.13959 -1661.26892 -20.32062 491
973.68994 -1736.32471 4.76909 383
925.03003 -1667.30249 -51.24048 436
923.33911 -1663.81140 -20.04085 492
971.27069 -1758.10632 3.46454 378
983.64355 -1783.00366 34.62204 376
913.82501 -1669.82446 -51.21048 436
912.31451 -1666.93738 -19.68688 494
968.24609 -1779.03564 2.38729 376
980.86786 -1804.80457 33.59837 375
902.71423 -1672.86218 -50.92792 439
900.87738 -1669.79468 -19.52326 494
965.72748 -1800.85010 1.34724 375
978.69012 -1827.78430 32.96295 374
891.28656 -1676.01636 -50.38143 439
890.20062 -1673.41858 -19.44938 495
962.37634 -1822.12939 0.28040 373
975.74475 -1850.35608 31.96493 373
880.24402 -1679.70361 -50.44194 444
879.50934 -1677.39050 -19.71186 495
958.64252 -1843.59973 -1.19599 263
869.75500 -1683.31653 -50.10053 444
868.41852 -1681.26575 -19.52812 490
953.03510 -1860.79395 -1.64379 289
858.86261 -1687.56506 -50.37053 446
858.11658 -1685.30786 -19.59049 491
946.30621 -1876.01758 -2.78972 285
848.70844 -1691.62671 -50.37055 446
847.70831 -1689.18921 -19.36054 491
838.09967 -1695.66101 -50.32662 446
836.77740 -1693.44922 -19.23931 491
827.36639 -1699.78455 -49.92068 446
826.20557 -1697.48633 -19.03795 491
817.14703 -1704.10522 -49.95743 446
815.94147 -1701.80542 -19.06018 483
806.53729 -1708.62817 -50.06255 441
805.09491 -1706.18982 -19.11765 483
795.65491 -1712.49341 -49.72907 451
794.73395 -1710.28259 -18.86762 482
785.19141 -1717.15063 -49.76899 452
784.28442 -1715.07849 -19.16552 478
300.17273 -543.61420 45.70735 1000
774.82025 -1721.15771 -49.80403 459
774.05109 -1719.75110 -19.28642 478
764.13300 -1725.59375 -49.78242 460
764.00671 -1724.80908 -19.14406 474
753.79730 -1730.13403 -50.13531 460
753.71466 -1729.56836 -19.52528 474
749.24176 -1750.62549 -51.89860 262
743.35150 -1734.74329 -19.22012 471
733.08423 -1739.65198 -19.37923 470
15194.82324 -48266.21094 12810.30566 1000
3294.39624 -31725.17188 7027.06250 1000
-552.67096 -3149.58081 -24.46282 427
-553.13226 -3150.46240 28.32014 473
-553.43079 -3151.42822 80.50661 497
-553.54169 -3154.08032 133.37401 496
-554.30530 -3155.97534 186.25931 471
-5980.57910 -23250.68359 -4640.74268 1000
-968.17529 -2565.74609 133.22130 254
-966.26562 -2561.84033 178.19829 400
-11953.15820 -17412.12305 -4073.71387 1000
-1380.78186 -1966.38074 12.50367 484
-1379.87402 -1964.97925 52.79120 485
-1379.15771 -1963.98364 92.49753 499
-1378.72180 -1963.61584 132.91777 499
-1377.91040 -1962.32739 172.77617 499
-1377.64038 -1961.86353 212.99028 489
-7753.18896 -5267.89600 288.21765 1000
-34297.61328 -19865.89453 4706.53760 1000
-4513.15332 -2511.34814 132.80585 366
-3922.08984 -2094.92529 133.05933 451
-3358.55957 -1667.47412 132.77202 494
-257.17148 -74.95268 35.34231 321
-255.07721 -72.28319 36.07603 321
-253.08461 -69.63677 36.67671 322
-273.37604 -73.69592 37.70733 318
-253.19168 -67.38818 36.79588 352
-271.03955 -70.89162 38.46990 319
-255.06213 -65.58221 36.35503 351
-269.52319 -68.24442 38.93433 345
-290.97772 -72.36307 40.28361 318
-256.84070 -63.67590 35.98561 351
-271.29089 -66.35454 38.59467 345
-288.97549 -69.50933 40.85669 318
-258.80551 -61.77082 35.52206 350
-273.20813 -64.34887 38.12570 347
-289.34558 -67.12996 40.78535 341
-260.65268 -59.86301 35.15110 326
-275.25302 -62.35229 37.66881 346
-291.28885 -65.09550 40.46152 341
-266.20850 -58.51001 33.70389 320
-280.42102 -60.83380 36.48217 323
-298.31940 -63.73071 38.91232 256
-272.56613 -57.28584 32.02105 319
-27122.44727 -1562.95557 1919.29224 1000
-196.22610 -10.89578 53.35647 324
-196.25099 -9.07768 53.36230 324
-196.24178 -7.26383 53.36660 324
-196.20268 -5.52930 53.29255 324
-196.20946 -3.67955 53.34448 324
-196.13391 -1.87028 53.30788 324
-196.09818 -0.06430 53.33888 324
