# .PCD v.7 - Point Cloud Data file format
VERSION .7
FIELDS x y z rgb
SIZE 4 4 4 4
TYPE F F F U
COUNT 1 1 1 1
WIDTH 648
HEIGHT 1
VIEWPOINT 4168.894531 -4094.295898 129.351898 0.000068 -0.131161 -0.007863 0.991330
POINTS 648
DATA ascii
-31925.86719 4263.45850 4406.86768 1000
-277.88757 57.90045 32.76797 265
-271.29782 59.18883 34.45252 321
-285.58459 61.45503 37.20649 323
-265.83740 60.48986 35.85383 327
-280.18100 62.95606 38.43163 346
-296.19809 65.61608 41.18964 341
-263.71112 62.30841 36.28440 350
-278.10184 64.89285 38.85886 347
-294.30026 67.73588 41.51912 340
-261.83801 64.26401 36.70793 351
-276.26483 66.90609 39.27294 345
-294.97446 70.30775 41.33106 318
-259.93616 66.11717 37.15679 351
-275.37329 68.99226 39.44799 321
-258.11792 67.95366 37.55430 349
-277.08273 71.71735 38.91730 318
-259.03040 70.39127 37.17281 321
-282.28299 75.03367 37.44740 260
-261.03476 73.01022 36.54541 321
-263.13083 75.67891 35.78991 320
-34904.33203 27554.35352 -10179.04004 1000
-47860.40625 37752.10938 -11906.99609 1000
-11973.18848 14810.84375 3317.15405 1000
-31665.98438 49917.99219 -7562.91895 1000
-20184.32227 51276.78125 6553.04199 1000
-6893.21777 33634.89062 4695.38330 1000
-279.15253 1947.89502 36.82847 479
-280.11859 1954.63049 69.25046 479
-281.61356 1961.48657 101.49158 438
-267.19644 1949.87988 36.69868 489
-268.22610 1956.92969 69.12981 458
-269.78055 1965.42834 101.47558 458
1284.32812 15389.77441 396.05042 469
1276.37842 15303.53516 646.88678 489
1374.77991 15354.28027 396.25894 473
1370.08826 15271.18262 643.77399 489
1468.38818 15318.53906 394.61761 476
1460.43799 15236.25098 641.70831 489
229.33960 1467.28357 36.41739 296
1559.35339 15289.74316 394.27548 477
1551.86255 15201.44727 640.60150 489
237.21068 1453.84607 37.30604 475
237.36148 1457.83740 60.96688 429
238.04153 1462.82446 84.91985 382
1651.03064 15257.61621 392.47406 477
1644.59485 15168.92578 643.40198 490
245.51105 1450.97742 37.43080 494
246.25226 1454.82483 60.93506 493
246.59340 1458.43127 85.08066 488
246.94678 1462.21204 109.01146 491
1741.60693 15223.52637 392.53046 477
1732.99133 15140.61816 639.18445 490
254.92856 1452.98572 37.05866 466
255.57924 1458.19409 60.86194 417
256.32645 1465.31799 84.84596 279
1833.92334 15190.32812 390.49722 478
1824.96326 15106.09570 641.78900 489
1926.66516 15160.37988 392.87582 478
1914.88403 15076.75098 639.05707 490
2017.18152 15131.51172 389.29254 478
2006.79016 15044.47559 638.05225 490
2106.55493 15096.82227 392.91431 478
2095.39233 15016.63574 636.09662 490
2197.55591 15066.32324 389.15823 479
2185.27661 14985.08398 635.53857 491
2287.50488 15034.22754 390.29373 479
2272.96021 14954.21582 634.60449 491
2375.57495 15006.04883 389.47879 479
2364.45752 14924.51758 635.45465 491
2462.80859 14972.68750 390.95215 480
2450.77588 14894.25391 634.96912 492
2553.72266 14943.53906 390.32983 480
2540.43042 14860.87207 634.30188 492
2640.50708 14911.74805 389.26309 480
2627.34253 14831.82812 633.20319 492
2732.14160 14878.13574 388.84891 480
2717.97534 14802.46582 631.24945 492
2820.73169 14848.75781 386.60672 481
2803.63159 14769.70508 630.98700 493
2909.19360 14819.39453 384.96722 481
2891.24585 14740.21387 633.27588 493
2994.72290 14788.15723 387.95718 481
2979.67896 14708.48633 629.30005 493
3085.33081 14757.88184 386.40073 481
3070.29224 14679.96191 630.48364 493
3173.74780 14725.52930 383.88144 481
3157.34399 14648.98730 629.68152 493
3261.81226 14695.56445 385.66663 482
3242.28296 14620.52246 627.08020 494
3348.15479 14664.86133 383.49112 482
3329.76392 14589.77344 626.90344 494
3433.81177 14632.27734 385.63028 482
3418.31763 14558.67480 627.18506 494
3520.98633 14603.75879 385.95438 482
3503.37085 14527.46973 627.67169 494
3610.64233 14570.89648 385.51450 482
3591.69385 14499.06738 629.12451 494
3695.75317 14541.28711 383.04886 482
3680.38330 14470.16016 627.35773 494
3782.75781 14512.34961 383.68283 482
3764.53955 14438.38379 624.49823 494
3873.40308 14482.49316 385.07080 483
3851.63525 14407.62109 623.89642 495
3957.47119 14452.74609 382.42633 483
3938.23853 14379.61133 625.03436 495
4043.71533 14419.05957 381.45667 483
4023.83374 14348.44629 623.49921 495
4130.42920 14391.81934 382.22519 483
4112.99170 14317.16211 623.19861 495
4219.73242 14362.09180 382.00644 483
4197.69287 14289.16016 626.03107 495
4306.54150 14329.80078 383.77890 483
4285.02100 14260.34863 622.77289 495
4390.81494 14298.18262 382.19113 483
4372.87158 14227.79297 625.18854 495
4586.04297 14942.52441 905.69763 494
4478.92676 14269.01465 380.06598 483
4455.51221 14200.85938 622.79163 495
4670.96875 14894.89355 904.98682 494
4567.51514 14239.03027 381.17334 483
4542.16504 14170.16602 624.05438 495
4758.09814 14846.33887 903.46625 494
4653.40674 14208.64160 379.13599 483
4628.75830 14138.44824 622.09387 495
4839.63916 14801.09180 902.49084 494
4738.16602 14177.37109 379.04382 483
4715.26172 14111.68945 623.99707 495
4925.27148 14751.96973 898.41254 495
4824.00488 14149.24805 380.17142 483
4802.32275 14081.63672 620.91919 495
5009.57373 14705.69336 899.82916 495
4912.18555 14116.36523 379.02420 483
5099.06201 14672.19824 644.19275 495
5096.21387 14657.26953 897.26227 495
4998.03271 14086.76465 378.44601 483
4976.19238 14019.20898 621.74457 495
5179.30029 14612.03516 897.40088 496
5082.21875 14057.08691 378.88745 483
5058.67627 13991.50391 621.91425 495
5262.91748 14562.56445 895.02869 496
5169.87500 14028.73438 378.70084 483
5147.23779 13961.87500 622.19531 495
5349.95068 14517.34180 896.11731 496
5258.90332 13998.17676 381.35950 483
5233.30029 13929.86328 622.48792 495
5436.42725 14482.88965 894.98187 499
5342.66553 13966.78516 378.24652 483
5320.31885 13900.41895 622.92468 495
5526.04199 14449.22461 895.23364 499
5429.83154 13934.83496 380.64362 483
5406.79150 13869.53516 620.05383 495
5613.14600 14417.77441 895.47339 499
5516.82275 13904.70215 379.17847 483
5492.34082 13842.37988 620.83942 495
5702.83350 14384.27734 896.02521 499
5601.79736 13875.64551 379.98129 483
5576.04004 13809.79395 620.94202 495
5791.08057 14352.35645 892.66339 499
5688.22754 13844.18457 377.45682 483
5663.83350 13783.75098 623.77667 495
5883.47021 14323.86816 895.92847 499
5775.53857 13816.70020 378.20523 483
5750.95996 13754.05273 620.99048 495
5972.06934 14289.12305 895.06561 499
5862.55029 13783.40332 381.50760 483
5836.12598 13723.12598 622.59106 497
6059.87500 14258.17480 894.23785 499
5950.08643 13754.56738 380.70264 483
5924.03711 13692.75879 621.42206 497
6108.94873 14129.10742 888.23682 498
6164.56299 14263.38672 1149.42407 499
6037.84180 13724.34473 379.12442 483
6007.20361 13662.87207 622.58820 497
6199.40576 14096.90039 889.47821 497
6254.77100 14229.26172 1149.31458 499
6122.99609 13694.75781 377.34671 483
6095.08203 13634.53223 622.30518 497
6285.15625 14064.00391 888.92841 490
6343.69141 14198.16699 1151.85205 499
6430.48633 14387.05469 1422.82971 308
6210.05176 13662.61230 380.34140 482
6181.84375 13603.94141 622.78845 497
6378.54102 14033.63477 889.80853 490
6435.52246 14163.96289 1152.07068 498
6491.43848 14286.08203 1417.08191 470
6536.54297 14388.17676 1686.99316 381
6298.99902 13631.16211 378.99170 482
6269.95166 13574.13672 623.55023 497
6466.79932 14005.76758 888.44672 490
6524.13818 14130.55859 1151.44995 498
6591.13574 14283.88184 1421.73914 349
6382.04443 13602.99023 379.59924 482
6355.65869 13542.97754 621.62073 497
6599.08447 14064.47754 894.68719 498
6603.18213 14079.13965 1150.25732 469
6601.56201 14074.85547 1407.42432 469
6473.47949 13571.25586 378.10605 482
6442.82324 13512.80566 624.56006 496
6670.81299 13995.67969 892.18829 470
6666.75195 13989.85742 1147.93762 470
6666.00000 13988.23340 1399.64661 469
6558.29785 13542.37305 378.05408 482
6532.25879 13481.22266 623.78613 496
6733.03711 13908.68848 891.74646 471
6734.31396 13904.12207 1142.85730 470
6733.21826 13903.58398 1397.59814 470
6646.01025 13508.37891 380.22891 482
6619.24902 13452.46094 623.16760 496
6796.73340 13822.43848 887.61023 471
6798.16064 13822.04102 1142.30652 471
6793.89600 13819.99023 1393.31641 471
6732.69580 13478.77148 377.71210 482
6707.39551 13423.22949 624.14825 496
6863.87842 13741.33984 887.34436 498
6863.17627 13736.42773 1137.43652 498
6859.83984 13736.81934 1388.68958 497
6994.00049 14010.83301 1670.26794 479
6819.76221 13449.68848 380.08362 481
6792.54102 13389.54297 622.28528 496
6950.67383 13710.41797 887.97449 498
6949.40674 13705.13184 1139.26196 497
6949.85742 13704.52148 1389.19641 497
7086.32178 13975.60352 1672.27661 479
7307.20361 14422.81445 1988.51782 468
7309.87939 14421.72266 2257.29004 468
6907.76172 13416.09570 381.10464 481
6882.53760 13363.33984 624.45612 496
7036.19043 13665.23535 887.97449 275
7025.34863 13645.20410 1135.82068 497
7038.20312 13671.39258 1391.35474 497
7130.94727 13848.64062 1665.01257 474
7130.02734 13851.16895 1919.26392 345
7128.53467 13849.85840 2178.29834 345
7131.51025 13850.77930 2437.51807 344
6995.95801 13385.58496 378.08960 481
6967.33447 13330.44336 624.37299 495
7121.38330 13628.43164 884.82465 275
7113.16504 13613.59375 1139.17737 497
7125.99512 13641.13086 1393.95496 497
7265.13428 13909.24707 1674.03113 479
7087.43701 13354.78516 381.76343 481
7057.85059 13301.26270 626.43121 495
7204.20654 13587.74609 888.29950 275
7205.10693 13580.08594 1139.66943 497
7218.76855 13608.41797 1393.77576 497
7358.40918 13876.93066 1677.04138 478
7175.32715 13324.79883 378.76282 481
7145.36963 13272.16211 626.60535 495
7294.72949 13553.51270 887.92133 497
7295.50635 13551.25293 1139.56726 497
7307.20312 13576.54590 1394.51550 496
7448.25488 13844.04688 1675.45349 478
7261.41797 13293.90723 381.99622 480
7234.53809 13238.06836 625.89703 495
7382.56934 13520.31934 886.14575 497
7383.40381 13517.97559 1140.92444 496
7393.94824 13541.38184 1393.10681 496
7539.26318 13811.09961 1678.93481 478
7350.40527 13262.10742 381.32721 480
7319.47314 13210.18945 627.38660 494
7472.91699 13489.31543 889.51788 496
7471.58740 13486.42676 1139.15002 496
7488.08594 13508.19824 1397.44495 496
7629.96777 13772.96582 1680.51917 478
7438.33105 13232.37500 381.10641 480
7410.84277 13180.38867 625.61292 494
7564.13135 13456.40137 887.09058 496
7563.53516 13455.23535 1141.00867 496
7576.80273 13475.39355 1395.07947 496
7721.31348 13743.64941 1682.38855 478
7530.66797 13198.97266 381.46411 487
7497.12793 13147.86523 624.56964 494
7655.06689 13425.41406 890.33221 496
7651.55420 13419.26270 1142.16284 496
7609.94189 13345.96777 1388.77539 389
7815.69043 13709.30078 1683.30042 468
7619.67969 13169.69922 380.13675 487
7588.38135 13117.73438 626.60913 494
7761.19629 13417.93848 889.43896 496
7759.98730 13412.67480 1142.94592 495
7623.59277 13179.58496 1377.14478 390
7907.77588 13675.27734 1684.43726 471
7708.84619 13138.57812 379.63379 487
7676.75684 13084.63379 626.31482 493
7849.75684 13383.72754 890.39948 495
7846.74854 13382.75684 1148.20825 495
7677.16943 13086.58105 1374.01355 495
8001.76953 13641.84082 1686.87549 471
7799.17334 13106.15137 419.05951 487
7766.32715 13053.41211 665.04352 493
7880.91260 13248.09082 926.40973 424
7825.16162 13150.97461 1168.46484 326
7767.88770 13049.15430 1409.91541 495
8094.31982 13607.79590 1727.47266 471
7889.31592 13073.68164 417.90161 486
7855.87598 13021.36523 665.99567 493
8032.88574 13316.48145 929.12701 495
7913.84521 13115.35547 1170.11230 352
7853.03564 13018.10059 1409.61938 494
8186.64062 13571.79785 1727.66785 470
7977.78662 13042.34863 415.68683 486
7947.47900 12992.16504 666.49200 492
8123.64404 13280.87012 933.21887 494
8123.01367 13280.21680 1187.96985 494
7942.25977 12985.89062 1413.46082 494
8282.04395 13542.45996 1728.13770 470
8066.86865 13010.55664 419.09714 486
8038.16699 12958.11328 667.38794 492
8214.21777 13251.40625 931.22906 494
8213.19141 13246.41602 1187.20667 494
8033.93896 12951.55371 1414.39001 494
8376.06445 13511.49609 1732.00928 441
8159.15430 12980.46387 418.95435 485
8126.83838 12927.42773 667.21497 492
8332.72070 13256.07129 936.01959 429
8330.59180 13252.77344 1193.73364 429
8352.12402 13285.55957 1451.08887 424
8495.99609 13516.86621 1738.68530 441
8248.38477 12950.06152 417.04074 485
8215.20605 12895.99512 667.73694 491
8446.20215 13263.94824 939.29486 457
8458.93066 13280.33105 1198.32996 427
8484.33887 13320.38965 1461.71472 423
8339.52539 12918.02344 418.08853 485
8309.68945 12864.45996 666.83575 491
8561.92871 13261.03418 940.05121 456
8594.77051 13308.45312 1201.53650 426
8623.13184 13350.77051 1468.00085 422
8430.27734 12884.66113 419.30719 484
8400.53711 12833.64941 667.29248 491
8674.54785 13259.51660 945.00531 455
8706.28320 13308.43164 1206.33569 454
8525.57715 12855.43262 420.63379 484
8488.82617 12803.71777 669.40570 490
8789.81250 13259.20312 947.73541 454
8822.72559 13306.84570 1210.27515 453
726.85748 960.45667 20.82616 439
728.48065 963.03387 39.69907 438
730.52423 965.99634 58.48230 379
8613.70996 12821.19629 418.37805 484
8581.92090 12769.14941 666.73096 490
8909.53711 13256.71582 948.83490 453
35229.54297 52785.81250 16168.54102 1000
730.77948 953.68097 21.26398 499
732.24768 955.52338 39.97971 480
733.41626 957.44904 58.69418 480
734.85718 959.31305 77.56313 480
736.26343 961.27673 96.42328 479
8707.59961 12787.43359 418.52417 483
8674.98145 12737.14355 667.22321 490
9052.23340 13300.45312 954.67883 438
736.73584 949.75793 20.99570 493
737.88000 951.43097 39.95778 492
739.50568 953.48956 58.80524 492
740.60510 955.25092 77.55309 474
742.26392 957.47882 96.58256 463
8801.06738 12758.27246 418.65674 483
8768.26172 12707.76172 669.41974 489
744.33252 948.03192 20.71192 462
745.74664 950.44464 39.61302 412
748.02588 953.62274 58.50997 411
8893.62402 12724.54395 417.10083 482
8859.53613 12675.39844 670.51562 489
755.77209 951.98553 19.83140 345
8988.37793 12694.17090 417.70007 482
8951.17090 12643.09277 671.07440 488
9080.71680 12661.24414 419.90869 482
9044.86426 12611.09961 669.93469 488
9172.49707 12625.11230 420.12125 481
9139.30371 12576.31445 671.48517 487
9270.64355 12594.36230 420.34555 481
9233.03711 12545.17969 673.77191 487
9362.64844 12561.31152 419.38916 480
9327.30566 12512.60156 672.98096 487
9456.14453 12529.32129 420.33127 480
9420.84082 12479.58691 675.12280 486
9552.45312 12493.17480 422.05112 479
9519.21777 12448.38281 675.11768 486
9710.18066 12544.34863 163.59555 469
9647.19434 12463.29980 419.28394 479
9612.48047 12414.35352 674.21606 485
9804.96680 12507.54785 163.17136 468
9743.09473 12427.08789 422.52664 479
9710.36230 12380.80469 679.07672 485
9902.86426 12476.91895 164.36824 468
9841.41895 12394.77539 422.15298 478
9803.78223 12348.78027 678.72272 484
10000.88281 12442.41504 162.10728 467
9937.55957 12360.31250 423.33371 478
9903.58887 12314.99023 679.40100 484
10100.64746 12408.36230 165.63826 467
10037.26758 12327.85840 422.85120 477
10000.21191 12282.35742 679.27026 483
10199.68066 12373.40625 163.87764 466
10133.43555 12292.11133 422.72781 477
10094.45996 12247.41406 678.61151 483
10296.19043 12339.83008 161.09439 466
10231.13184 12257.72461 421.47043 476
10191.51270 12214.32520 682.05701 482
10393.06641 12303.95801 161.74770 465
10330.32520 12222.61719 422.40646 476
10290.13184 12176.21191 681.89600 482
10495.46777 12267.41504 161.41830 465
10429.17871 12191.70996 423.72980 475
10389.11621 12143.59375 685.31635 481
10593.77246 12232.05566 161.94936 464
10528.77832 12155.85449 423.41769 474
10490.47461 12107.59668 683.14832 368
10694.60547 12199.45703 160.55975 464
10630.11621 12122.45801 425.04822 474
10593.74609 12075.73047 683.94696 367
10798.08008 12163.70801 159.96422 463
10726.68750 12085.30273 423.88232 473
10696.34180 12043.33008 685.84155 367
10897.83887 12128.82520 160.22903 463
10830.90430 12049.98730 427.75687 473
10797.56055 12012.09668 690.06818 367
11001.24414 12093.26855 159.77190 462
10932.49121 12013.68750 426.06772 472
10901.70801 11979.96484 689.78015 366
11100.91406 12053.98340 161.63326 462
11035.32129 11976.86426 428.18951 472
11005.59082 11945.82910 689.56836 366
11206.10059 12021.32812 163.23949 461
11135.51855 11941.66211 424.92322 471
11111.07227 11916.46387 692.90430 366
11310.59570 11985.21289 159.28691 461
11239.08984 11907.03027 426.90497 470
11216.78418 11881.29492 694.81592 365
11415.25000 11948.35449 160.58798 460
11342.89941 11870.27148 427.89716 470
11320.95410 11845.78320 695.12836 429
11516.65527 11909.87109 158.82921 460
11448.89355 11834.66504 429.05554 469
11423.93066 11810.33301 696.78418 428
27560.86914 28286.98242 -3033.74243 1000
11630.86719 11878.16895 160.14537 443
11550.00977 11798.49023 428.91394 469
11526.24512 11774.52246 698.66107 428
11745.38184 11851.70508 160.30775 442
11655.13477 11763.11523 429.61411 468
11633.69824 11738.60059 698.81049 427
11862.81445 11828.21582 160.98763 442
11770.09668 11733.12598 431.68170 443
11738.22363 11697.60156 697.81580 427
11982.81738 11799.20020 160.32524 442
11889.23047 11707.29688 429.26514 442
11844.36816 11660.47559 701.02991 426
12104.84180 11777.22949 157.79877 441
12012.17871 11682.41113 430.68442 441
11959.54199 11628.82422 703.39203 394
12227.97168 11750.36035 159.95503 440
12134.74414 11658.40527 434.92358 441
12071.31250 11601.52246 704.35175 393
12371.33887 11746.89160 157.81062 394
12255.53809 11631.99023 435.13397 441
12190.96973 11568.07422 708.62274 393
12539.03125 11759.32227 160.44641 371
12379.65039 11610.15137 435.60715 440
12306.90332 11541.38379 709.89270 437
12709.30371 11775.73438 158.92871 370
12502.42773 11581.86230 434.06555 440
12439.58887 11521.28711 708.83203 436
12885.93164 11794.92383 157.24158 369
12650.60645 11576.23047 440.03333 393
12571.07227 11502.31055 712.56793 438
12809.44531 11581.61230 440.37589 392
12708.07520 11487.02734 718.85211 437
50689.26172 45509.86328 -4225.93701 1000
12971.33203 11579.04785 442.35544 391
12842.83594 11467.57520 717.72229 436
13143.71387 11595.97754 445.38733 369
12983.53906 11449.29004 722.59332 317
13350.15820 11633.45508 444.27426 341
13135.06934 11443.91016 726.62177 284
13593.93652 11701.46680 450.14224 276
13702.46582 11794.62695 747.47351 468
20220.94141 7530.58447 1198.69592 1000
3652.13867 878.01813 12.70734 473
3663.06665 880.15808 72.36280 429
14129.43066 1844.67627 3191.16333 1000
4906.98633 -403.97208 51.69772 470
4890.68359 -432.07013 52.14680 471
4874.41357 -461.38812 51.80250 453
4862.98486 -489.03452 51.77484 460
4853.94678 -518.28595 52.31644 395
4848.60498 -546.90430 51.83353 392
4844.69482 -575.85162 52.31469 390
4847.10840 -606.29346 52.36786 436
4938.06250 -648.54211 51.08795 269
4880.81396 -669.76868 51.11957 499
4878.86182 -700.11328 50.65785 499
4988.62500 -777.83789 48.48660 498
4877.89014 -789.47565 51.48113 498
4869.62305 -818.99683 50.85031 498
4926.60596 -829.22675 130.79567 498
4873.74609 -910.49280 50.24069 277
4829.82812 -932.89874 50.62259 497
4980.98877 -1025.38293 130.33842 497
42243.88281 -21761.21094 5567.31689 1000
3766.99658 -1926.66125 -5.68719 498
3775.47412 -1931.31348 61.74084 498
15246.23340 -9041.76367 1280.91528 1000
4777.61084 -4964.13867 19.11426 419
4720.11133 -4965.15869 19.01643 419
4666.03369 -4965.50635 19.85671 420
4610.59766 -4968.76758 21.00389 421
3548.47632 -3847.07129 -38.17078 498
3556.45654 -3856.36865 46.70375 413
4569.33398 -5046.07861 19.12285 415
4792.63770 -5362.91162 12.74153 424
4740.35156 -5368.47607 15.29481 423
4625.99170 -5369.00049 15.00361 327
763.25336 -1031.86011 -9.75919 434
763.26703 -1032.06335 10.67420 434
763.69592 -1032.62256 30.96454 434
763.91565 -1032.77356 51.37678 434
764.36176 -1033.44727 71.34143 373
764.67883 -1033.77612 91.56950 373
764.99646 -1034.48682 111.78258 373
765.26801 -1034.80115 131.99731 373
765.72198 -1035.80054 152.50249 300
766.57935 -1037.10120 172.67401 300
756.63080 -1035.39734 -9.75782 465
756.72882 -1035.45349 10.62779 465
756.77679 -1035.45618 30.99327 465
756.75555 -1035.70984 51.43752 465
756.71155 -1035.80457 71.59487 466
756.77057 -1035.88257 91.67113 466
756.98383 -1035.89697 111.86546 494
756.88385 -1036.04724 132.34694 494
757.13446 -1036.26465 152.47723 494
757.24408 -1036.32947 172.67754 494
757.07550 -1036.32446 192.72641 494
757.26025 -1036.58179 213.20676 493
757.52417 -1036.75989 233.53671 493
3207.42212 -4966.92480 -59.99460 288
25040.89258 -47147.20312 11538.07227 1000
3077.98486 -5907.53809 9.77100 385
3031.77026 -5905.35547 9.69608 336
3022.93921 -5979.11182 8.72064 359
3011.70410 -6049.44434 8.94636 497
2841.39307 -5879.08398 12.27205 441
2830.76953 -5858.26807 118.90723 413
2790.47827 -5866.90674 12.21791 442
2787.56763 -5858.32373 118.84195 413
2735.29907 -5837.43994 -91.51279 362
2746.57080 -5863.82959 13.44502 478
2743.59253 -5859.46094 118.80202 413
2688.48291 -5832.37256 -89.88200 365
2699.67480 -5857.49658 14.51430 478
2699.50464 -5854.11816 119.71598 435
2644.24683 -5828.04883 -89.75147 370
2658.07007 -5859.07080 13.50190 479
2657.61987 -5860.13916 119.50797 414
2601.13940 -5828.20850 -89.32465 370
2615.68481 -5859.81494 15.50892 348
2613.69629 -5854.96387 119.37173 435
2559.21436 -5826.88867 -88.30172 370
2575.44336 -5864.55615 15.24783 480
2572.89868 -5860.43262 118.54428 415
2517.32812 -5825.92383 -87.16890 376
2533.30127 -5864.47363 15.82420 481
2530.66382 -5860.69629 119.78426 416
1385.44812 -3165.21753 12.69112 288
2490.38501 -5863.86230 14.87553 481
2488.98535 -5859.18652 119.63561 416
1375.08777 -3196.38989 -44.33304 265
1328.86877 -3081.10034 16.70387 309
1419.93823 -3308.05884 66.51194 465
2476.83521 -5932.49072 118.97282 332
1341.72974 -3169.77759 -42.43196 297
1302.84729 -3069.93213 17.06775 419
1396.61121 -3308.90234 66.91698 465
2472.27979 -6028.70605 118.33992 339
1319.64111 -3170.96460 -42.13404 297
1289.34290 -3092.08569 16.37293 421
1374.26929 -3310.81689 66.35567 465
2416.22095 -5995.79980 223.58417 439
1297.53674 -3171.20020 -42.03378 297
1276.37134 -3115.11621 16.55888 421
1350.90588 -3311.32788 66.39104 466
1276.26782 -3172.24097 -41.19007 297
1263.97913 -3140.62329 15.07110 416
1328.14990 -3312.72290 67.25566 466
1262.70996 -3197.12939 -42.04680 377
1251.81995 -3166.51489 14.50142 417
1305.31665 -3314.66357 66.94594 466
1252.07227 -3229.84424 -43.29047 364
1239.69128 -3193.21997 13.92823 416
1283.43164 -3315.04761 66.84498 467
1242.56946 -3266.56128 -45.02485 358
1226.97693 -3222.51514 13.67028 408
1260.77258 -3316.63696 67.54706 467
1233.84192 -3304.43994 -46.77010 352
1216.72717 -3255.77271 12.84745 389
1238.40759 -3318.27417 67.38704 468
1227.84143 -3353.54126 -49.46673 320
1206.90613 -3292.81665 11.22788 384
1218.47412 -3328.03418 67.35227 464
1198.20337 -3335.23633 10.46163 362
1204.97595 -3356.23535 67.52074 353
1195.22925 -3395.40161 7.84794 313
2045.21021 -6004.14844 15.90321 499
1197.73169 -3473.83667 5.83560 297
1202.34705 -3563.22510 2.90263 310
1211.90503 -3673.54224 -1.35882 302
5743.86816 -28112.00391 -1330.16028 1000
7693.53662 -43271.58594 -2828.56372 1000
242.99515 -1531.55176 3.12752 491
242.66946 -1532.09558 28.52897 491
242.97398 -1532.26831 53.56197 491
243.09914 -1533.15137 78.77164 491
242.90155 -1533.30957 103.96503 491
243.05211 -1534.11353 129.32063 491
243.19238 -1534.50134 154.59697 491
243.09943 -1534.80237 179.79750 491
243.21288 -1535.26404 205.09415 490
-260.13370 -2034.20435 -5.73764 398
-259.95541 -2034.43359 27.80026 398
-260.24582 -2034.39136 61.47111 398
-260.27509 -2035.11865 95.24693 398
-260.28357 -2035.48022 129.53874 453
-260.03094 -2035.78357 163.17770 453
-260.31866 -2036.53015 196.74739 453
-8403.70312 -11071.71289 1960.07202 1000
-40048.42969 -49744.10547 2185.12329 1000
-56391.21094 -14640.78711 -14483.80469 1000
-29642.24609 -6935.53809 2635.39282 1000
-263.56616 -74.97943 36.10493 321
-261.58011 -72.33086 36.84825 321
-259.64145 -69.71389 37.46225 322
-279.84708 -73.80750 38.45742 318
-259.67093 -67.44788 37.54181 349
-277.81677 -71.04349 39.15528 321
-261.56674 -65.63738 37.12601 351
-276.18033 -68.35766 39.67163 345
-263.52524 -63.78141 36.72353 351
-277.99466 -66.35943 39.29630 345
-295.70535 -69.61064 41.53121 319
-265.39771 -61.87805 36.30634 350
-279.86465 -64.34829 38.98196 347
-296.01578 -67.22041 41.59739 340
-268.68182 -60.16348 35.52920 326
-282.86145 -62.52994 38.31350 324
-274.50092 -58.82771 34.12809 320
-288.57608 -61.14972 36.89789 323
