# .PCD v.7 - Point Cloud Data file format
VERSION .7
FIELDS x y z rgb
SIZE 4 4 4 4
TYPE F F F U
COUNT 1 1 1 1
WIDTH 653
HEIGHT 1
VIEWPOINT 4169.340332 -4092.216309 127.882507 -0.000432 -0.130641 -0.003632 0.991423
POINTS 653
DATA ascii
-20753.38477 2387.55615 2209.46704 1000
-277.50406 57.91562 32.96475 319
-271.18484 59.25537 34.48443 321
-285.42108 61.54439 37.32929 323
-265.80893 60.59290 35.92838 327
-280.18665 62.98159 38.52025 347
-296.22308 65.75360 41.20292 341
-263.75720 62.42235 36.38097 351
-278.17105 65.03758 38.99491 347
-294.40637 67.85422 41.58395 340
-261.83844 64.35993 36.76376 351
-276.34845 66.99635 39.27111 345
-295.16449 70.47236 41.33484 318
-259.92755 66.20335 37.14792 351
-275.53580 69.13416 39.44380 321
-258.16507 68.04219 37.51562 349
-277.30576 71.75420 38.87093 318
-259.27499 70.50719 37.13525 321
-284.38937 75.60873 36.92368 260
-261.24643 73.11475 36.53411 321
-263.24170 75.80548 35.81510 320
-8090.40088 3481.34326 1313.52930 1000
-1860.56470 1144.83289 584.95459 1000
-10464.14844 7296.71094 2055.27515 1000
-27556.62109 28572.09180 -6364.08838 1000
-6556.75098 7863.83447 -356.77991 1000
-20045.60156 37459.92188 8660.96094 1000
-293.18887 1958.42273 3.30524 309
-278.74789 1947.71045 4.16844 480
-279.41248 1953.26562 36.59048 479
-281.09311 1961.05371 68.76404 455
-266.48267 1949.88953 3.85009 490
-268.03937 1956.18811 36.31614 459
-269.36224 1964.02063 68.54268 418
-257.36258 1969.00452 2.87040 264
1187.67395 15365.97461 396.32297 473
1290.11938 15428.95605 141.88251 469
1281.33398 15324.40723 396.41635 473
1378.38049 15391.14844 142.07779 472
1370.71448 15289.86035 395.98956 487
1473.67505 15358.70020 143.50287 476
1464.50952 15258.80566 395.73587 488
229.14291 1461.32300 12.11698 369
229.79532 1470.60950 36.00013 296
1564.25024 15322.44531 142.48106 476
1555.79626 15227.25977 394.51703 488
237.21248 1453.57654 12.70723 475
237.74748 1457.90295 36.58143 475
238.39751 1462.47583 60.42003 443
238.59598 1467.26306 84.22160 430
1655.10791 15290.62500 141.61282 476
1647.80518 15193.48633 393.90771 489
246.20654 1451.91260 12.70439 494
246.41687 1455.90002 36.40763 493
247.11046 1460.71948 60.58947 491
247.70291 1464.59351 84.29759 466
1747.24036 15260.76074 141.89984 477
1738.83752 15162.89746 393.01993 489
255.34897 1454.31421 12.40890 418
256.11603 1460.49829 36.32594 418
1838.13733 15228.25586 144.35513 477
1829.46191 15131.85938 391.32141 489
1927.88867 15197.70508 142.16026 477
1916.23157 15101.26074 392.52048 490
2019.21277 15166.34375 142.09593 478
2008.30554 15071.06738 388.98917 490
2110.46777 15135.47656 143.15311 478
2099.13818 15038.88184 391.19940 490
2202.28271 15103.94922 139.48834 478
2188.11719 15009.67773 389.20496 487
2290.97900 15071.35059 141.07828 479
2278.57153 14978.92773 388.94876 488
2382.89966 15041.86523 143.41084 479
2364.90576 14948.21875 390.35696 488
2469.00952 15010.92969 141.16138 479
2455.90625 14914.21484 389.88831 488
2559.93457 14977.77051 142.41731 479
2542.97095 14885.87402 389.59009 488
2646.76831 14949.21680 141.50154 480
2631.05981 14855.62012 387.54877 489
2737.37720 14916.16992 138.79500 480
2720.97021 14825.68066 386.09970 489
2825.18652 14884.20508 139.07327 480
2810.76978 14794.68652 386.86450 489
2916.41797 14856.13184 142.24689 480
2897.44629 14764.01953 387.61765 489
3003.81274 14824.39648 138.99553 480
2988.31616 14733.10547 383.99344 490
3091.14258 14791.78711 139.52411 481
3073.49927 14702.27344 384.10974 490
3178.82812 14760.29395 140.68349 481
3161.36182 14672.82910 383.33420 490
9307.01660 42709.00000 -8535.43652 1000
3266.85010 14731.33398 140.88672 481
3248.26514 14644.87207 384.65964 490
3356.34888 14699.25488 138.03625 481
3335.62671 14614.08594 382.14935 490
3443.46582 14670.44336 140.65981 481
3423.27441 14580.89844 382.78583 491
3532.94238 14641.98926 137.55794 481
3509.56714 14553.00098 383.94348 491
3617.42651 14609.76465 138.92407 482
3596.62134 14520.72754 382.81308 491
3708.20728 14578.01855 137.80267 482
3683.87939 14491.39648 382.16415 491
3794.48633 14547.50586 140.31648 482
3771.01538 14462.06055 383.31958 491
3881.63574 14516.60742 139.17300 482
3861.26123 14433.85742 381.54016 491
3970.85547 14489.18164 136.74725 482
3946.35864 14401.12695 382.17902 491
4057.08960 14456.95215 136.15660 482
4034.38062 14374.14844 382.42383 491
4141.68262 14428.89941 136.84825 482
4119.13721 14344.01562 382.21301 491
4227.89795 14396.65137 135.74483 482
4204.56445 14314.13867 381.72012 492
4316.72363 14368.24805 138.76476 482
4292.37842 14283.64551 382.14084 492
4405.26367 14334.79199 139.14107 483
4378.99414 14254.53125 381.37109 492
4589.20947 14950.04492 647.61047 494
4593.26465 14961.78516 905.62317 413
4490.85889 14307.53516 135.69980 483
4463.30127 14224.57910 380.49597 492
4671.93018 14902.27734 645.99316 494
4677.67871 14909.69629 904.50244 414
4576.32471 14278.10352 136.27478 483
4553.50439 14194.10840 379.81403 492
4761.30176 14856.26465 646.21246 494
4759.88916 14860.26074 903.09100 414
4665.78809 14246.38281 134.71976 483
4637.82373 14163.13574 378.54562 492
4845.47949 14807.73535 647.38458 495
4846.83350 14813.03125 900.82416 414
4750.56445 14214.86914 138.59428 483
4725.89990 14133.88770 381.82834 492
4929.58887 14760.87988 643.63477 495
4932.38330 14762.95508 901.57074 414
4836.62451 14187.23535 138.17226 483
4811.89648 14102.51367 379.54135 492
5012.68945 14715.02930 646.26233 495
5015.79834 14713.05664 898.12775 415
4924.23145 14153.50098 137.18147 483
4897.75879 14076.01660 377.95856 492
5097.83252 14665.03125 645.46844 495
5099.97119 14667.14062 897.50403 415
5012.19727 14127.28418 135.90390 483
4982.96484 14044.90723 380.45062 492
5181.36865 14620.77051 643.72821 496
5183.70508 14618.15039 895.04724 495
5095.98730 14096.05469 134.36137 483
5067.59326 14015.22168 377.40689 492
5265.67529 14574.08105 641.77374 496
5265.49268 14572.41797 895.36743 496
5184.84375 14066.14746 136.00877 483
5157.06885 13984.63770 380.32452 492
5352.60107 14525.49805 642.83417 496
5352.33984 14522.84668 896.48944 496
5271.67773 14033.31152 137.58800 483
5243.18750 13957.52441 377.84326 492
5441.51318 14490.55762 641.00464 499
5440.98975 14490.58203 892.77710 499
5358.73779 14004.78027 137.25412 483
5329.58447 13927.25879 380.38226 492
5529.07080 14457.41895 639.82965 499
5527.23535 14458.93750 893.28497 499
5442.98584 13973.70312 133.82439 483
5414.36572 13896.64258 379.76294 492
5616.83350 14427.77539 642.15546 499
5619.82910 14427.54590 893.83533 499
5529.20459 13944.02051 134.46581 483
5501.83936 13866.58008 377.79404 492
5708.78027 14393.64648 641.10199 499
5707.33740 14392.74414 894.90179 499
5618.24414 13912.04688 136.51180 483
5585.94629 13837.97656 378.83527 492
5787.66064 14338.60645 641.52942 482
5794.59082 14363.69531 892.34729 499
5703.44238 13884.95508 133.38849 482
5672.55322 13806.99512 379.52878 492
5862.09326 14268.73730 638.53723 482
5885.16895 14329.94531 894.71826 499
5793.85840 13853.76172 132.83153 482
5760.36426 13777.05859 379.26028 491
5936.06445 14201.24805 638.23523 483
5974.17090 14296.62988 895.20221 499
5880.62598 13822.55273 133.81253 482
5845.52441 13745.87012 377.96396 491
6008.73193 14131.58301 634.84003 483
6065.90430 14263.82617 894.45245 499
5965.57178 13794.41309 132.88431 482
5932.40186 13718.37305 376.35629 491
6081.77051 14063.03027 635.78143 484
6155.50391 14233.12012 894.60309 499
6054.14062 13764.26465 132.56044 482
6019.71484 13685.14258 379.32117 491
6152.07324 13993.04004 631.95715 484
6242.35693 14200.70020 896.44434 499
6141.18164 13730.18359 135.81104 482
6106.77588 13656.72754 380.10028 491
6225.89355 13927.39160 633.46643 499
6330.84521 14168.38477 894.48407 499
6349.01318 14205.60547 1152.29114 498
6427.42529 14378.75488 1422.02124 482
6229.29248 13699.72266 132.20235 482
6193.19287 13627.55469 380.12863 491
6316.41113 13895.37988 632.01715 499
6420.59326 14134.02051 893.28168 499
6438.55225 14177.19238 1152.44727 498
6497.93262 14309.56641 1421.61560 482
6313.82666 13673.33887 135.55472 482
6282.72168 13597.08203 376.86246 491
6402.55957 13863.79297 633.86896 499
6513.25928 14102.97656 894.96118 498
6530.30615 14141.76855 1154.20178 498
6614.90381 14328.43848 1425.70032 348
6400.44531 13642.35059 134.95796 482
6367.06494 13564.29590 377.01984 491
6489.48389 13832.17969 634.39825 499
6603.51904 14072.50391 896.29492 498
6608.67822 14083.14551 1149.85535 469
6488.02490 13611.40137 135.05064 481
6457.11328 13537.09473 377.26736 491
6578.60596 13801.71582 632.53851 498
6671.20752 13999.98828 892.75977 470
6672.29980 13999.18262 1149.23914 470
6732.15869 14128.00000 1412.36804 372
6576.28467 13579.06348 134.26067 481
6543.95215 13506.59180 377.34024 490
6666.24414 13770.46387 634.15741 498
6737.44043 13911.58203 889.33704 470
6738.24756 13911.56934 1142.05310 470
6794.29053 14034.65430 1409.52759 372
6663.87793 13547.24023 134.34341 481
6629.40283 13476.55078 378.24365 490
6756.28174 13737.65332 635.24054 498
6802.59521 13825.46680 888.45245 471
6797.90674 13824.75391 1141.09937 471
6854.12891 13943.71387 1406.26367 373
6754.11768 13518.66309 134.86342 481
6719.06641 13443.56250 376.37619 490
6844.37988 13706.85254 633.34821 498
6866.28613 13746.66016 886.28455 498
6868.11377 13748.68750 1138.50244 497
6915.08154 13848.67871 1398.92700 373
6841.70996 13489.62793 133.59726 481
6805.94678 13415.05078 378.61957 490
6934.24609 13672.84180 633.40082 498
6955.62451 13715.62402 885.19641 497
6956.21777 13717.43555 1139.76404 497
7002.78076 13815.59570 1398.53320 389
7115.20508 14033.52539 1680.74597 484
7316.46582 14435.44434 1988.48108 496
7318.26318 14438.78320 2259.87305 496
6931.49854 13459.00293 133.95918 481
6890.68750 13382.84375 380.43561 490
7021.43164 13642.62988 635.42908 498
7033.12793 13656.44824 885.72565 497
7029.14111 13655.77539 1134.83838 497
7093.35596 13780.73340 1401.35742 389
7203.67578 14000.43164 1680.03723 484
7018.78857 13427.21094 132.75487 480
6981.97070 13356.52246 380.55356 489
7112.30127 13608.39844 634.71173 497
7118.90820 13624.65527 885.66309 497
7121.52051 13624.10059 1135.93140 497
7184.25244 13751.77246 1400.81287 389
7298.98926 13968.89258 1681.26453 483
7106.47363 13396.87500 131.91351 480
7070.27295 13323.09082 376.68509 489
7200.21338 13578.74707 636.30853 497
7208.88477 13591.00684 888.14722 497
7209.45752 13593.01953 1140.14343 497
7273.41016 13718.72949 1403.16223 389
7366.78906 13895.08691 1675.49719 453
7194.29004 13363.03125 133.55115 480
7157.18115 13294.44531 380.03067 489
7290.80566 13544.96582 633.09918 497
7299.34033 13561.20801 887.34882 497
7298.16748 13560.07910 1138.54492 496
7365.02637 13685.85742 1401.27234 389
7478.66064 13899.61230 1681.89221 483
7284.34180 13332.46777 131.09641 480
7245.51953 13262.06543 377.88797 489
7380.25977 13510.10156 633.55176 497
7387.02295 13527.33984 888.63104 496
7390.23633 13526.07324 1138.69128 496
7456.98877 13653.49805 1404.08154 389
7573.66211 13869.60449 1682.36804 483
7374.69873 13302.72852 131.36401 480
7335.78369 13232.46582 378.15118 488
7470.49609 13480.97266 633.28595 496
7476.80859 13495.30859 887.35962 496
7477.92773 13496.02930 1139.25391 496
7547.56250 13621.79395 1405.59949 389
7462.68848 13273.14062 130.32747 479
7424.86328 13202.64160 379.49216 488
7557.54053 13447.56738 634.17615 496
7569.09473 13462.83789 890.05621 496
7567.36084 13463.10449 1139.84277 496
7638.60303 13590.27344 1405.17859 388
7549.77539 13239.47070 130.14095 479
7510.98975 13169.87891 379.83282 488
7651.00684 13414.16504 637.41339 496
7658.04297 13430.52930 890.31982 496
7656.31299 13428.37891 1142.28345 495
7729.23877 13556.83887 1407.39270 388
7639.73535 13211.68262 133.87256 479
7603.22559 13139.49023 378.71048 488
7741.04297 13380.91992 634.78168 496
7763.63330 13423.71094 891.42535 495
7765.39355 13422.53711 1145.81201 495
7823.98975 13524.46289 1409.91113 388
7729.74463 13176.44727 130.19666 479
7689.26123 13107.06445 377.39401 487
7828.36377 13348.50293 637.60852 495
7855.31543 13392.94336 891.17914 495
7853.89697 13392.86230 1147.53955 495
7912.24170 13494.85254 1410.83435 388
7820.33301 13145.47461 180.14229 478
7780.64844 13078.17188 425.83655 487
7918.95410 13311.78906 685.85168 495
7876.21387 13238.22070 932.78406 424
7850.91260 13193.98145 1183.43713 386
8003.90283 13454.43848 1458.99976 388
7909.89258 13116.39453 181.38881 478
7871.22949 13046.84570 426.07388 487
8010.79102 13281.60645 687.59869 495
8036.40723 13320.38477 941.92621 495
8034.75830 13319.38867 1197.81677 494
8096.45459 13425.52344 1464.15918 388
8001.69629 13081.63281 179.68748 478
7958.46680 13012.57031 427.20905 487
8101.03613 13248.71289 685.90613 495
8130.05273 13287.31445 940.79724 494
8126.18311 13288.35938 1198.02747 494
8192.33496 13389.48828 1462.45471 379
8093.36230 13052.09375 176.70912 477
8051.08398 12984.02246 428.32611 486
8193.42871 13214.23340 685.28284 494
8218.68945 13255.62891 944.66528 494
8218.86816 13254.73047 1199.38879 494
8298.81934 13381.78516 1465.64185 342
8182.51855 13019.77734 180.02954 477
8139.57812 12950.17578 426.90134 486
8285.32617 13181.90137 685.33484 494
8338.96191 13263.61328 945.69257 429
8339.31348 13262.44727 1201.28906 428
8439.95605 13427.54785 1476.59521 341
8274.48047 12987.91211 177.55934 477
8229.42090 12920.56641 429.84213 486
8374.48730 13147.54980 687.41333 494
8470.72852 13291.83887 952.01300 428
8467.51562 13291.95898 1207.64819 427
8584.71094 13474.64062 1484.79541 431
8367.44531 12957.45898 176.64554 476
8324.52441 12888.21387 429.72583 485
8470.08203 13115.29980 690.20343 493
8585.15332 13298.43652 953.34308 455
8602.42578 13321.42969 1214.88696 426
8457.80762 12923.17188 177.77515 476
8415.57715 12856.96973 428.86914 485
8573.28027 13098.21387 690.54041 396
8700.17773 13297.36914 955.61786 455
8734.70996 13348.27441 1222.49890 454
728.10034 974.31683 20.09478 305
8547.51270 12893.03320 177.40672 476
8506.34277 12825.22656 427.94138 485
8702.34766 13121.99414 692.61841 395
8814.16113 13294.71777 958.03583 454
727.79340 961.31079 21.22933 438
729.27899 963.57843 40.03849 438
731.59131 966.86780 58.91970 379
733.96088 970.38153 77.59025 489
8640.15625 12861.09473 176.41301 475
8595.42871 12794.60742 427.30267 484
8834.22168 13144.57324 692.76208 395
732.11926 955.01172 21.52278 498
733.58636 956.77808 40.13756 498
734.78772 958.87238 58.92434 498
736.08636 960.52783 77.90056 498
737.50214 962.50232 96.87274 497
8736.10840 12829.11133 176.38603 475
8687.69434 12763.04980 430.09955 484
8963.34863 13168.32324 698.67810 394
738.32172 951.47113 21.53661 493
739.53876 953.37994 40.10793 493
741.46777 956.29468 58.99164 468
742.86566 958.09955 77.79420 463
745.19403 961.38342 96.65533 346
8825.83496 12794.35742 178.03036 475
8782.04785 12726.97266 430.41608 483
9097.57227 13189.54297 701.20172 389
746.32159 950.74780 20.89098 413
748.83319 953.99677 39.59019 412
8918.18457 12763.16699 175.88812 474
8873.29199 12697.37793 427.41779 483
9014.80957 12731.74512 177.24968 474
8967.28809 12664.68945 428.61972 483
9107.87891 12698.68848 177.33781 473
9062.15039 12633.97852 427.96594 482
9203.52441 12666.23535 177.55215 473
9156.87305 12601.08301 430.85663 485
9296.63086 12632.96680 175.60164 473
9248.73926 12568.51074 428.91476 484
9392.15723 12599.87598 176.95236 472
9345.61230 12536.50684 430.40601 484
9486.41992 12568.71094 175.01808 472
9438.59961 12501.45410 431.95560 484
9579.80273 12534.48633 173.42244 471
9533.28125 12466.59766 432.21173 483
9675.70312 12500.77637 172.89122 471
9628.19238 12435.32520 428.59979 483
9772.42578 12464.80176 172.48898 470
9723.91504 12402.79590 429.18384 482
9871.52441 12430.49023 174.69153 469
9820.44238 12368.15332 430.98996 482
9969.80078 12399.63379 172.63448 468
9916.07324 12337.19238 433.02689 481
10067.36328 12366.16211 173.30873 468
10015.80469 12301.87402 431.64572 481
10161.91406 12330.24805 170.65741 467
10112.47461 12268.42383 430.59662 480
10262.32520 12294.35742 172.77353 467
10209.59766 12235.84961 430.54025 480
10358.92480 12261.22852 170.26755 466
10308.22949 12198.98926 432.90784 479
10459.14648 12225.15723 171.99591 466
10410.12012 12165.95508 431.41809 478
10561.96289 12194.78711 173.03136 465
10506.99902 12131.82812 434.62396 478
10660.62305 12156.71387 171.84108 465
10607.63281 12097.61035 433.92218 477
10761.18066 12124.59375 171.26567 464
10709.75879 12062.73633 431.99753 477
10863.23242 12088.21973 170.34369 464
10807.01758 12026.71094 432.90179 476
10963.08789 12049.71191 172.12723 463
10908.25684 11989.21191 435.52368 476
11067.80762 12015.04395 170.77452 462
11011.02832 11954.20215 435.83286 475
11169.08398 11980.04395 168.71024 462
11112.91406 11921.07227 437.27914 477
11274.16504 11944.62598 168.94838 461
11218.19531 11882.31348 434.44064 476
11376.47266 11908.30273 168.38603 461
11320.10059 11848.83008 438.55258 475
11480.58691 11870.91504 169.48706 460
11423.95703 11810.53711 437.12106 475
11585.68359 11833.40918 168.53880 460
11531.79883 11776.98047 439.47739 474
11702.99219 11810.89258 169.62619 444
11636.11133 11740.58691 436.65631 474
11825.33691 11783.93848 166.99161 444
11742.10742 11702.16309 436.65155 473
11942.30957 11763.94629 168.74080 443
11855.81055 11672.64746 440.94952 449
12068.81445 11740.18457 170.26067 442
11976.31836 11648.51465 440.06329 448
12188.61035 11715.41992 168.00877 441
12095.11035 11622.76758 441.89301 447
12312.43457 11689.44336 168.36890 440
12218.07324 11596.84277 440.40958 446
12450.27832 11674.30859 168.67226 394
12343.34277 11571.34082 443.34833 445
12606.62988 11678.60059 166.61667 393
12470.34277 11548.04590 444.32568 444
12777.40039 11692.45996 169.13449 370
12591.99121 11523.23828 445.57019 443
44541.64062 40496.41797 -8663.56836 1000
12953.03320 11709.67871 168.68303 369
12738.42090 11513.90234 448.38834 393
13155.26074 11747.49707 168.68587 341
12897.07422 11513.25879 448.54391 392
13059.14941 11516.13574 449.43359 391
13223.58887 11518.81152 449.56091 390
13422.62598 11550.76465 453.04514 341
13646.59668 11601.40820 459.42056 340
3654.79688 901.49957 13.10037 356
3652.42261 878.19043 13.07732 473
3664.79565 880.61932 72.85877 431
10232.82520 -100.51081 -1036.69873 1000
4909.36963 -404.48978 51.13254 462
4890.47168 -432.53702 51.02390 463
4871.14502 -460.22678 52.40707 471
4858.49512 -489.21490 52.29478 484
4846.69531 -517.83356 52.64190 485
4838.56543 -546.08124 52.35900 463
4831.62354 -575.03217 52.27899 462
4824.55029 -603.68286 51.61055 464
4819.85352 -632.43408 51.82829 464
4815.43799 -660.60016 52.03418 388
4812.91602 -690.46887 51.75456 388
4810.12646 -720.01965 51.55641 388
4807.81543 -749.53687 52.33842 388
4806.42578 -778.42639 51.55987 387
4805.46533 -808.40692 51.85325 387
4929.93115 -829.39819 129.75674 350
4802.63281 -836.91016 52.21902 445
4801.26758 -867.27295 51.45705 387
4799.51758 -896.02545 51.25513 387
4797.59424 -925.28174 51.63822 387
4795.54248 -955.86383 50.84545 387
4793.27881 -985.49799 51.91800 386
4983.15332 -1025.43921 130.19434 333
4790.95166 -1015.48175 51.68780 386
4788.30664 -1044.78162 50.48491 386
4786.50049 -1074.93323 50.44020 386
4784.99121 -1104.62256 51.57853 386
4782.34766 -1133.89111 50.78882 386
4780.01172 -1164.53296 50.78680 386
4777.99121 -1193.91553 49.92600 386
4776.72900 -1224.65222 50.89389 385
59406.03516 -23158.33984 4271.67139 1000
3773.01489 -1930.45776 61.82632 480
45609.29297 -31910.49805 -3540.11475 1000
51549.94922 -37018.84766 -12510.84277 1000
53735.23047 -44390.44922 6957.83594 1000
4672.19873 -4734.79541 22.08086 467
4649.53369 -4769.81982 21.56319 445
4630.07227 -4808.19141 20.85671 441
4611.15234 -4847.57373 20.54819 441
4594.75098 -4888.87549 21.13293 429
4579.12695 -4933.06885 21.18152 417
3553.45068 -3852.35229 46.36843 495
4562.51367 -5038.80566 19.40220 388
4564.75732 -5102.17627 19.79834 386
4564.94336 -5167.40527 18.17228 393
4567.01416 -5233.91992 17.57302 398
37381.03125 -44124.33203 -12362.40137 1000
762.77966 -1031.06604 10.72269 434
762.68445 -1031.05737 31.05131 434
762.61530 -1031.10559 51.30793 434
762.68744 -1031.15552 71.58080 434
762.92712 -1031.53174 91.82834 373
763.12671 -1031.77734 111.91271 373
763.18378 -1032.07361 132.28563 373
763.26947 -1032.31665 152.37064 373
763.53894 -1032.38025 172.49358 373
763.62823 -1032.64001 192.59024 373
763.77795 -1032.81189 212.93327 300
764.23535 -1033.49683 233.27469 300
755.86975 -1034.17310 10.93373 465
755.65765 -1034.17859 31.22055 465
755.74597 -1034.28467 51.43084 465
645.68964 -1001.22656 -58.64500 466
755.56232 -1034.04834 91.73520 466
755.65375 -1033.94922 111.91338 466
755.64136 -1033.78333 132.07765 466
755.64447 -1034.02271 152.14619 494
755.51776 -1033.99963 172.40572 494
755.44305 -1033.84265 192.68465 494
755.57959 -1033.91431 212.93092 493
755.60236 -1033.90186 233.11227 493
3076.63257 -5905.48877 0.25555 323
3018.73755 -5878.28125 1.49758 401
2964.79175 -5860.82910 3.36127 436
2914.04248 -5848.32422 2.85236 443
2865.66431 -5839.56934 3.32087 498
2817.13306 -5828.87061 5.47740 460
2772.44873 -5827.36377 4.72520 464
2787.93994 -5859.54004 109.36232 470
2726.07300 -5819.09180 6.04601 469
2744.90356 -5861.83057 109.52726 478
2794.45264 -5971.65918 216.32693 478
2681.51196 -5815.66113 5.39088 474
2699.44775 -5854.96094 109.67352 478
2639.31421 -5814.87207 6.33838 478
2657.35889 -5856.31104 109.78133 479
2595.75244 -5816.12646 7.71139 478
2614.50195 -5857.87256 110.02705 348
2555.20020 -5816.17920 6.85566 479
2574.30835 -5862.03418 110.25694 480
2512.19189 -5815.76270 8.03701 479
2531.17090 -5863.07129 111.29205 481
1425.16870 -3262.21533 62.27257 295
2489.63428 -5861.43457 110.06892 481
2512.33813 -5918.92188 214.25482 481
1328.57996 -3080.23315 11.79098 278
1404.79858 -3270.35376 62.25653 499
2487.26685 -5962.00195 110.49741 482
2478.52173 -5941.12256 215.23538 482
1306.51233 -3080.79370 12.75058 310
1384.71021 -3280.26831 62.05782 499
2490.22754 -6073.59912 110.83150 341
2437.30542 -5941.42432 215.05602 491
1290.03015 -3093.37646 12.02729 407
1365.62939 -3288.63330 62.12904 499
2420.88818 -6006.17285 215.02844 334
1278.30981 -3121.12012 11.59334 390
1396.35742 -3429.52271 59.66754 484
1266.64795 -3148.74512 11.08782 389
1370.03723 -3424.41260 60.36241 457
1255.34900 -3176.37744 9.53276 388
1443.12439 -3689.66455 54.34153 464
1243.65295 -3205.50757 9.32892 380
1274.02429 -3290.51147 63.19436 445
1232.58447 -3237.91895 8.14854 370
1248.46301 -3282.70020 63.29531 446
1223.34387 -3275.73755 7.35794 356
1219.43665 -3264.84692 63.93339 255
1215.34436 -3317.10156 5.30232 348
1208.62354 -3299.14771 63.39833 379
1210.15308 -3370.99561 3.50666 308
1200.54614 -3340.22852 62.52032 365
1213.65161 -3452.37183 0.76444 305
1197.46472 -3401.03540 61.47721 313
1218.10364 -3537.16040 -2.13652 307
1202.51697 -3488.65186 59.83174 280
1220.98584 -3624.23145 -4.64272 312
1208.23938 -3581.77856 57.97610 310
1226.40039 -3719.95703 -7.61412 304
1212.17480 -3676.43384 56.09925 309
2301.35889 -14698.53711 815.47229 1000
242.84749 -1530.78259 1.44440 459
242.89752 -1531.31873 26.72956 491
242.97339 -1531.22351 52.04874 491
242.75011 -1531.70996 77.16116 491
242.65668 -1531.83643 102.36926 491
242.76825 -1532.11597 127.41628 491
242.80803 -1532.70288 152.81050 491
243.10780 -1532.66663 177.88858 491
242.78586 -1533.31189 203.12813 491
243.16302 -1533.31909 228.39996 490
52.00891 -3616.94165 3.41927 1000
-259.73520 -2034.42944 -8.17858 398
-259.70474 -2034.32532 25.78411 398
-259.82446 -2034.34033 59.15973 398
-259.84509 -2034.59424 93.46018 398
-259.97864 -2034.86975 127.24703 398
-260.20508 -2035.17261 160.71992 398
-259.74591 -2035.18433 194.77110 398
-259.94147 -2035.49817 228.16537 405
-261.94043 -74.70897 36.01448 321
-259.92874 -72.04331 36.68933 321
-258.00058 -69.37792 37.32106 324
-278.11636 -73.47261 38.40884 318
-258.34833 -67.30407 37.35838 352
-276.03751 -70.74402 39.03270 321
-260.30243 -65.43693 36.95597 351
-274.73364 -68.16473 39.49573 345
-262.20490 -63.58522 36.54597 351
-276.53519 -66.16322 39.09441 345
-293.88452 -69.33961 41.43954 319
-264.11221 -61.69587 36.15021 350
-278.48267 -64.22884 38.73884 347
-294.45004 -67.01311 41.40480 341
-267.34406 -60.02858 35.41152 326
-281.43814 -62.35025 38.12401 324
-297.66327 -65.13187 40.70124 315
-273.14459 -58.72198 33.90233 320
-287.05139 -60.95421 36.68308 323
