# .PCD v.7 - Point Cloud Data file format
VERSION .7
FIELDS x y z rgb
SIZE 4 4 4 4
TYPE F F F U
COUNT 1 1 1 1
WIDTH 711
HEIGHT 1
VIEWPOINT 4169.975586 -4089.627686 127.944283 -0.001104 -0.130282 0.001935 0.991475
POINTS 711
DATA ascii
-277.18579 58.08048 33.05070 320
-270.90381 59.34526 34.65818 321
-285.23029 61.69510 37.34501 323
-265.65280 60.66464 36.01402 350
-280.15607 63.16086 38.53846 347
-296.19058 65.86678 41.21624 341
-263.69547 62.53605 36.40014 351
-278.13531 65.16374 39.02869 347
-294.36725 68.02457 41.60406 340
-261.82349 64.49146 36.80694 351
-276.31543 67.05393 39.29026 345
-295.35040 70.63062 41.20603 318
-259.96906 66.34530 37.25435 351
-275.72876 69.32137 39.38931 321
-258.22006 68.22871 37.57110 349
-277.54105 71.96368 38.86945 318
-259.52435 70.69006 37.09400 321
-261.51962 73.28329 36.49826 321
-263.53113 75.97800 35.82386 320
-15853.66602 5994.02734 1820.40271 1000
-18702.40039 11373.51855 -3843.66626 1000
-36719.48828 36198.16406 2726.78003 1000
-18839.28711 21843.07422 2535.71851 1000
-20916.68945 25151.86133 8380.94336 1000
-278.98361 1951.04980 3.21976 480
-280.11655 1956.29980 35.99538 477
-281.40204 1962.43982 68.07683 381
-266.95309 1953.56482 3.26811 460
-268.32751 1959.54773 35.67320 451
1190.16675 15407.18945 141.93007 469
1290.14160 15471.90332 -113.49660 468
1285.64233 15368.72168 142.67603 473
1384.94238 15433.98145 -112.87266 457
1376.36377 15331.87402 140.49100 473
1376.99438 15328.42969 391.26935 466
1476.35718 15402.65039 -113.73464 455
1468.45142 15298.52637 139.66304 477
1464.39001 15275.99414 391.63480 461
229.40135 1463.86621 11.68290 368
1569.96252 15367.81055 -110.62518 456
1557.82776 15266.08398 142.26416 477
237.53595 1455.32690 -11.77562 496
237.78477 1456.40552 12.22754 475
238.16971 1460.97839 36.22301 474
238.72433 1465.82068 60.18044 474
239.04410 1470.37744 84.17924 441
1659.28906 15337.51270 -113.52284 456
1651.98071 15233.82910 139.69016 477
246.60710 1454.32263 -11.55013 495
246.78795 1455.28601 12.57356 494
247.20670 1459.99109 36.20285 493
247.74210 1465.06372 60.18716 468
248.41505 1470.61218 84.08449 425
1751.51672 15304.49707 -111.53717 456
1739.65344 15201.68750 141.32910 478
1938.83826 17012.70312 419.47476 466
256.05151 1460.14880 12.06094 418
1844.41516 15273.65820 -109.66734 456
1834.13489 15172.65430 140.62196 478
2034.89917 16940.43555 421.89502 467
1937.01880 15239.75781 -110.53418 457
1923.32446 15140.27539 138.12984 478
2024.47607 15207.47461 -109.66305 457
2013.17310 15107.19824 139.91402 479
2115.05884 15175.55371 -109.27973 457
2103.44458 15079.42578 138.26253 479
2206.45215 15143.35156 -110.49061 458
2193.72852 15047.49219 141.27531 479
2297.69653 15111.93457 -110.70258 458
2284.48779 15014.53320 138.48396 479
2388.82471 15080.82227 -110.89297 458
2372.89111 14982.93457 140.25829 480
2477.77515 15051.53711 -111.60635 458
2461.67749 14953.30762 139.05557 480
2740.48633 16724.12305 417.87903 298
2567.91016 15018.24316 -110.01144 458
2549.85229 14923.00391 140.60568 480
2841.58179 16676.04883 416.49133 412
2655.31226 14988.33496 -109.04252 459
2637.77881 14891.48828 137.96761 480
2940.07715 16637.07617 414.99792 412
2745.21118 14954.98730 -109.66019 459
2726.33496 14860.78223 138.20163 481
3037.74487 16601.25977 413.21393 443
2835.32568 14922.55176 -108.52631 459
2817.80591 14829.40137 139.99185 481
3137.83276 16562.98438 412.96683 444
2922.17651 14892.88281 -109.91444 459
2907.12598 14799.20117 137.86893 481
3235.20972 16529.82227 414.91141 444
3009.85645 14861.81055 -109.19202 478
2994.88770 14769.54199 139.89427 481
3331.45020 16494.78320 414.30914 444
3101.13867 14832.03418 -110.50922 479
3079.95679 14738.45703 140.11395 481
3077.83057 14728.59473 382.70044 301
3186.59644 14802.17969 -107.52735 479
3168.31738 14706.76660 136.03835 482
3167.24438 14691.30469 381.88681 301
3278.70825 14771.71875 -108.62008 479
3255.87378 14678.84570 136.39772 482
3252.69287 14656.11621 381.27707 301
3365.02734 14737.55371 -111.35559 479
3346.30200 14648.59277 138.93521 482
3340.24365 14622.66016 381.69745 301
3454.87231 14708.85449 -107.22801 479
3433.83472 14616.83691 139.08340 482
3425.65259 14588.73730 380.62408 301
3543.12354 14678.28125 -108.39724 479
3518.61353 14586.76855 137.30540 482
3513.05859 14554.17480 384.04874 302
3629.09570 14646.04590 -110.45903 480
3606.22583 14555.91504 138.30704 482
3597.09668 14518.46387 380.80249 424
3717.15454 14617.88086 -111.16660 480
3691.93091 14527.46973 137.44797 483
3684.93213 14485.10742 382.65137 424
3804.04028 14585.27441 -109.05677 480
3781.95020 14493.96289 137.89905 483
3770.00317 14455.00781 382.67020 424
3890.93945 14556.53711 -108.77615 480
3867.93579 14466.50977 137.62360 483
3858.68726 14425.88672 382.88321 424
3981.09790 14526.21680 -110.23431 480
3954.33643 14437.16406 136.67085 483
3944.56714 14395.57812 382.52438 424
4066.11182 14497.08691 -111.31642 480
4039.80737 14406.91699 137.32722 483
4028.54102 14362.27344 379.89743 424
4155.26416 14465.48438 -109.03096 480
4130.20068 14374.11133 135.34985 483
4116.09033 14329.88574 381.01184 424
4241.74463 14433.89453 -110.74189 480
4216.66504 14345.95020 137.12010 483
4201.14502 14300.76465 379.99225 424
15648.89453 52869.00391 -8025.20654 1000
4328.21924 14404.12109 -111.13284 480
4302.57715 14315.56348 135.67612 483
4287.33447 14270.93066 378.84885 424
4414.29248 14376.37500 -108.58886 480
4386.93018 14287.08008 137.40762 483
4373.06006 14238.58105 378.87494 424
4590.66943 14955.21680 648.09460 493
4501.20801 14345.93164 -109.25404 480
4475.84717 14256.52832 137.28862 483
4462.13916 14209.56836 379.85666 424
4675.39795 14910.70117 646.49261 494
4589.66895 14314.07129 -110.10999 481
4562.01074 14225.28027 135.15106 483
4546.61426 14177.99121 379.28265 424
4763.00586 14861.30176 645.54980 494
4676.51514 14284.25000 -109.58557 481
4647.95850 14194.97070 134.98878 484
4631.25049 14145.76270 380.40048 424
4845.64551 14815.47461 644.15601 494
4763.73242 14253.04492 -108.54124 481
4732.60596 14165.45508 135.23132 484
4716.76416 14114.33398 377.42532 464
4931.19092 14768.00879 644.73151 495
4849.90723 14223.55859 -110.71088 481
4820.92529 14133.39551 137.44626 484
4803.61328 14086.07812 379.55472 464
5015.91064 14720.14844 645.55164 495
4937.16992 14193.66992 -110.93652 481
4906.94971 14105.29785 134.07288 484
4888.71191 14054.83398 380.51047 464
5099.06201 14672.19824 644.19275 495
5024.29639 14163.84180 -108.10455 481
4993.70703 14074.54199 134.70299 484
4977.24268 14024.48438 379.40506 464
5183.52686 14627.04004 643.20892 496
5112.73438 14134.79297 -111.36030 481
5079.02637 14044.77930 135.41991 484
5062.46729 13993.37988 378.12842 464
5267.98877 14580.44727 643.55743 496
5199.49023 14103.24902 -108.76334 481
5165.98828 14015.51074 133.57120 484
5146.20947 13966.59570 378.86987 499
5351.93457 14531.33398 641.00391 496
5284.75098 14074.21777 -109.62839 481
5251.20947 13985.95312 133.22253 484
5236.20654 13933.75684 377.95383 499
5443.48242 14498.16699 642.76642 499
5373.87207 14042.13281 -111.44160 481
5339.81641 13954.35840 135.29587 483
5318.69727 13906.98535 379.26413 499
5532.19482 14465.29785 638.76398 499
5461.26514 14013.65625 -109.65777 480
5426.18604 13927.16113 136.37442 483
5406.36035 13873.92383 376.93930 499
5622.77100 14434.78906 639.32843 499
5545.84570 13984.02832 -111.40560 480
5510.77002 13895.28223 135.43318 483
5492.18359 13845.35938 376.10837 499
5708.61865 14403.59277 642.15741 499
5633.41699 13950.54492 -109.96174 480
5599.35693 13866.08301 133.64366 483
5577.20703 13814.62109 378.30576 498
5801.07617 14368.87500 639.48834 499
5718.44824 13921.61719 -111.98886 480
5684.58301 13834.34180 135.36127 483
5664.89404 13788.58008 378.86154 498
5888.07520 14335.62598 639.37714 499
5806.59717 13892.08789 -112.56608 480
5772.30225 13806.60840 133.31880 483
5750.29785 13755.15723 375.73245 498
5977.51172 14303.51562 641.02301 499
5894.07080 13860.20801 -113.60464 480
5856.72021 13774.84570 133.06763 483
5836.84131 13725.60254 378.49908 498
6066.36035 14274.00000 638.67920 499
5980.70508 13831.32227 -110.66872 480
5945.74512 13745.58887 134.73970 483
5926.19873 13698.30273 377.76151 497
6122.41895 14163.04004 637.77740 417
6070.40430 13802.40039 -114.18452 480
6031.39648 13716.23242 132.88548 483
6013.76855 13665.75586 378.99313 497
2722.27197 6281.06738 225.17636 417
6265.86768 14248.80078 896.81982 499
6159.39990 13773.07422 -113.79062 480
6120.44385 13686.26172 135.39590 483
6100.54297 13637.11523 378.16913 497
6304.87402 14102.33789 639.35425 417
6352.00293 14219.05273 895.82483 499
6429.77246 14387.04688 1166.55945 469
26938.37500 60923.03125 7800.56201 1000
6246.91064 13741.20605 -113.65990 480
6206.15723 13656.01855 132.40756 491
6183.30957 13609.33203 378.51303 497
6392.63037 14070.57227 637.57672 404
6441.62158 14182.33008 896.16754 498
6497.81836 14310.66309 1162.39343 483
6333.88721 13708.37109 -114.13155 480
6294.35303 13623.63770 131.76176 490
6272.97314 13576.56543 379.10638 497
6483.22705 14039.67969 637.12830 404
6535.48682 14151.39160 896.70813 498
6618.91016 14337.12305 1165.56409 294
6419.02930 13681.12500 -113.44742 479
6381.08691 13593.77051 133.39688 490
6357.40820 13549.33496 379.16443 497
6605.17627 14076.55469 642.08496 498
6609.07666 14089.77539 895.32104 469
6611.44873 14091.28516 1151.27686 469
6506.41162 13651.55762 -115.69448 479
6469.33740 13565.83594 131.33887 490
6445.10742 13517.88086 378.15738 497
6673.77539 14005.17969 637.84210 470
6674.63037 14007.20996 893.09338 470
6674.78809 14006.20703 1147.51135 469
6595.10352 13618.97656 -115.53072 479
6555.00391 13534.38672 133.82896 490
6532.79443 13489.17969 376.34546 496
6741.12158 13918.35059 639.29840 471
6740.66650 13918.18359 889.81012 470
6740.45605 13918.50195 1145.15784 470
6685.46191 13587.35840 -116.06987 479
6642.95068 13505.64160 133.01442 490
6619.24219 13456.70605 376.96518 496
6804.51123 13832.31836 635.41663 471
6804.13916 13835.28711 890.44135 471
6803.72412 13834.06055 1140.95227 471
6774.70215 13557.98047 -113.34397 479
6733.35107 13474.22363 130.97842 490
6710.43945 13428.10742 378.15503 496
6867.88037 13755.62109 635.88245 498
6871.66309 13757.11719 885.28082 498
6871.37598 13757.86230 1139.70093 497
7015.75684 14047.88965 1418.12585 479
6971.80371 13959.64160 2704.64722 443
6860.36865 13525.61816 -113.38506 479
6821.46680 13444.89551 131.46141 489
6794.92383 13396.91797 377.11566 496
6959.87598 13724.48535 637.04163 498
6957.99951 13723.23340 888.19391 497
6961.46777 13727.35449 1137.55823 497
7103.34668 14013.52344 1417.10571 479
7324.75195 14454.92285 1723.13269 364
7331.20996 14469.85059 1992.18176 282
6950.60010 13497.99219 -116.81886 478
6906.82324 13412.87598 134.08755 489
6883.42871 13365.33398 377.86331 496
7036.59521 13665.57617 635.33588 497
7035.88379 13664.20801 885.05927 497
7052.21436 13696.02637 1141.10754 497
7196.10303 13981.32129 1420.40381 479
7039.09619 13466.92773 -116.78864 478
6996.84717 13381.91504 134.56949 489
6972.03418 13336.00977 376.33035 495
7122.85107 13630.09570 634.17371 497
7124.32715 13631.12109 885.50519 497
7138.67822 13661.43457 1140.63098 497
7289.07227 13948.38965 1418.39050 478
7125.94922 13434.31543 -114.81068 478
7084.13477 13350.72168 132.63304 489
7060.10596 13308.59375 379.72491 495
7213.54736 13598.99316 635.07159 497
7212.76123 13599.65918 887.48285 497
7229.48096 13629.07227 1141.79553 497
7352.50439 13868.06738 1416.69690 467
7214.81348 13404.48047 -117.80465 478
7173.38965 13324.21875 131.53694 489
7150.07178 13274.75879 377.84662 495
7301.56152 13567.70117 633.60535 497
7301.63037 13570.50488 886.65143 497
7320.66113 13598.08398 1140.79163 496
7469.42334 13878.07812 1422.31714 478
7307.12891 13373.22852 -116.87611 478
7259.35352 13291.83984 132.75439 488
7236.35693 13244.21484 378.87491 495
7393.59717 13535.08789 637.79779 497
7392.41064 13536.58887 887.07178 496
7407.05518 13565.20020 1144.09875 496
7558.16895 13845.97656 1422.14124 478
7394.54346 13343.61426 -117.23400 477
7351.05859 13260.04883 134.16820 488
7326.14648 13217.09277 380.11819 495
7482.22900 13504.10059 638.07819 496
7482.11230 13505.60742 887.24323 496
7497.52246 13530.37012 1141.85938 496
7653.66602 13810.29395 1424.54797 469
7483.94482 13311.00781 -119.13827 477
7440.44824 13230.76562 130.37231 488
7413.87354 13185.83984 378.96857 494
7571.76758 13468.98926 635.22430 496
7571.72656 13471.00000 890.47107 496
7587.68311 13498.27832 1145.57837 496
7743.56055 13777.00684 1424.91772 469
7576.60498 13282.62988 -117.97762 477
7526.83398 13198.72266 131.55554 488
7504.09326 13153.46387 380.14380 494
7664.08057 13438.86328 638.59454 496
7665.70508 13439.43848 889.30847 496
7613.73975 13347.70312 1136.05615 389
7836.04736 13747.30469 1427.60840 468
7663.68506 13250.37500 -119.72079 477
7617.54980 13170.81055 131.49191 487
7590.81445 13124.79004 379.38800 494
7768.35986 13429.09961 635.96570 496
7769.53223 13434.99805 893.86328 495
7626.22119 13183.17383 1128.33008 391
7927.77148 13710.62109 1428.23132 468
7752.57227 13221.15723 -116.36930 476
7709.68896 13138.93750 130.26213 487
7681.80273 13091.15234 378.51892 493
7857.60791 13398.53320 639.87952 495
7861.81934 13399.64648 891.84015 495
7691.96631 13106.37109 1123.09570 495
8020.72461 13681.04102 1427.41626 471
7846.64062 13187.66309 -76.17938 476
7798.22021 13104.36523 175.67531 487
7772.48877 13060.27734 421.67773 493
7877.50830 13241.95801 678.67725 424
7831.32812 13160.26758 925.62817 491
7779.43945 13069.48633 1169.80103 495
8115.88965 13640.37109 1473.81970 471
7933.57764 13156.23145 -75.30175 476
7889.42676 13074.12305 173.33412 486
7859.49756 13027.63477 423.23584 493
8039.95996 13331.56934 681.00897 495
8043.58447 13332.39551 936.47479 495
7869.63770 13040.53320 1170.02734 494
8206.76367 13608.01172 1474.89148 470
8024.40186 13126.93164 -77.33604 475
7979.08301 13043.87695 175.27611 486
7949.93506 12999.48828 423.66611 493
8130.34229 13298.25000 682.19183 494
8132.52832 13299.97168 938.14355 494
7956.83984 13006.60449 1170.77881 494
8301.90039 13574.17871 1478.12183 470
8118.08838 13093.29199 -77.04832 475
8068.17383 13011.65430 173.36273 486
8040.83594 12968.07910 422.95462 492
8223.77344 13264.72461 681.59485 494
8224.11523 13265.82715 937.51984 494
8078.51416 13028.48926 1177.45654 296
8403.38184 13553.78125 1477.96948 440
8207.54102 13060.45410 -78.92937 475
8158.85010 12980.47070 171.47542 485
8131.89404 12935.97559 422.84299 492
8342.38672 13277.24219 684.11560 429
8343.58984 13275.94629 940.72778 428
8374.20508 13318.92676 1201.45630 424
8522.39844 13560.08105 1482.54773 441
8298.79102 13029.13672 -76.64545 475
8248.95117 12951.59863 172.69614 485
8223.05469 12906.36035 421.61172 492
8463.45117 13284.99023 687.18823 457
8475.36719 13308.18359 947.83905 427
8500.80273 13342.45117 1208.27942 343
8392.27344 12999.77344 -79.17424 474
8343.47656 12920.34082 171.91058 485
8313.05176 12873.36816 423.91843 491
8574.01172 13282.45996 690.12885 456
8610.88184 13335.79785 951.63287 426
8626.84277 13360.97168 1216.00464 349
8486.65723 12966.57715 -77.83102 474
8433.87012 12888.81836 171.04671 484
8406.02930 12842.85254 422.15652 491
8690.73535 13282.15430 692.48846 455
8723.30664 13336.20703 955.88300 454
724.73126 969.76379 1.28945 376
727.77789 974.18127 20.22230 304
8577.20898 12936.67676 -79.53720 474
8524.72656 12857.44336 172.73566 484
8494.82422 12809.07812 425.15234 490
8805.94336 13280.28320 694.82281 454
726.95355 960.03687 2.06278 479
728.26794 962.22729 20.85982 479
730.03760 964.30463 39.70861 437
731.67261 966.96100 58.77222 430
733.30280 969.45569 77.67123 377
8668.95312 12903.54688 -80.96670 473
8618.32617 12823.44434 172.98964 484
8588.47461 12778.69043 425.33878 490
8920.85840 13280.16797 694.71063 453
731.62537 954.59894 2.46837 498
733.03485 956.46185 21.07519 498
734.47144 958.62256 39.95481 498
735.87732 960.51123 58.83266 495
737.15375 962.59851 77.62054 498
740.09167 966.59143 96.76225 419
8761.45898 12869.74219 -82.60188 473
8708.17383 12790.53418 171.50713 483
8681.11719 12748.77441 422.98569 490
737.98315 951.17926 2.10219 493
739.37006 953.38525 21.10869 493
741.21191 955.72675 39.81339 464
743.07990 958.46069 58.60176 397
746.11316 962.81091 77.55727 347
8855.92090 12837.32129 -82.40200 472
8800.80664 12758.64062 171.31705 483
8773.94629 12715.17578 424.24307 489
745.88965 950.38245 1.67104 414
748.54956 953.99493 20.33250 413
8951.93848 12808.03418 -83.59221 472
8898.02539 12727.10742 173.76164 482
8866.90527 12682.65820 422.09973 489
9043.39844 12775.60840 -84.51020 472
8990.53809 12695.07031 172.11299 482
8958.80078 12652.10156 426.00961 488
9136.89941 12743.87793 -85.38784 471
9084.25684 12663.97852 169.29491 482
9053.50879 12618.94727 424.00769 488
9234.31152 12710.26855 -82.91261 471
9176.89551 12629.30078 170.48291 481
9145.34277 12588.55762 422.77820 487
9329.18262 12676.95117 -86.33660 470
9273.62793 12600.40332 172.53352 481
9240.36035 12554.13867 427.00485 487
9364.92969 12564.04297 168.65620 480
9333.65820 12519.95312 425.81866 487
9462.23633 12534.21484 170.35416 480
9428.56738 12489.61719 424.71988 486
9555.09180 12498.15137 167.95908 479
9525.72168 12457.14844 424.93079 486
9651.68066 12467.95215 169.14215 479
9619.15820 12425.32031 424.78351 485
9749.99609 12434.32422 170.47340 479
9715.53809 12391.32324 428.16571 485
9848.05273 12402.48926 168.02541 478
9813.22949 12355.94727 427.49536 484
9942.73047 12367.15039 167.97421 478
9909.14258 12325.62402 426.19318 484
10038.64355 12331.89746 170.57800 477
10007.01074 12291.10156 425.77557 483
10140.33789 12298.59473 170.46681 477
10101.55762 12257.77441 425.75690 483
10239.21289 12267.92188 168.06009 476
10201.19238 12221.54883 426.68332 482
10335.91406 12229.85645 168.63474 475
10301.66211 12187.40332 430.42163 482
10437.27246 12195.42090 166.95567 475
10400.53711 12155.15723 430.93356 481
10536.23828 12161.07910 168.52945 474
10498.23242 12118.37598 429.27078 480
10637.59277 12127.37500 166.41307 474
10596.65527 12085.48145 431.58423 480
10737.33594 12092.96777 165.81706 473
10698.81250 12050.34180 428.65320 479
10837.39258 12059.89453 169.31627 473
10798.25098 12017.68066 430.39368 479
10939.03516 12025.34668 166.72183 472
10901.16211 11982.16406 430.75708 478
11040.27051 11987.73828 165.33981 472
11004.61719 11945.31152 432.59018 478
11144.00000 11951.19336 167.72264 471
11105.83887 11908.78613 430.64465 477
11247.42773 11917.04492 168.06224 470
11209.68652 11875.43164 434.18179 476
11350.45605 11880.06348 166.33813 470
11312.13770 11840.41602 432.10916 476
11456.37109 11844.84375 165.47801 469
11414.97070 11802.01465 432.16611 475
11561.06055 11811.30273 164.54738 469
11521.27051 11766.39551 434.76773 474
11667.68945 11775.00586 166.99072 468
11626.17676 11732.39844 434.78860 474
11787.80664 11746.70410 164.20737 443
11736.04199 11696.54785 437.57147 469
11907.56055 11722.24414 167.62657 442
11846.90918 11665.77832 434.72412 468
12029.01758 11701.04980 164.96109 443
11960.81738 11633.55664 438.80762 467
12150.22559 11674.83984 167.60327 442
12074.99023 11602.14062 439.70584 466
12276.57227 11653.65039 167.39809 441
12191.96387 11571.60840 436.61511 447
12398.29883 11626.11523 164.89159 440
12318.14648 11550.31250 442.16702 444
12530.21973 11609.58496 163.97852 393
12449.27637 11529.92188 443.56134 443
12691.83203 11614.13574 164.57527 392
12580.35645 11511.11816 443.87601 442
12848.57617 11615.16895 164.71439 391
12716.04395 11492.31836 442.41992 441
13021.52637 11628.95020 166.35300 369
12850.74902 11475.97949 445.24066 440
13217.65332 11657.82422 163.54356 341
12988.43945 11453.04199 446.57455 439
13435.38965 11708.20215 163.78285 340
13138.12012 11443.30859 449.28400 382
13320.26270 11463.01953 449.97314 375
13519.53027 11493.63770 453.59073 374
13727.89551 11524.07520 457.52542 372
14056.44043 11654.02539 462.55786 288
59408.14844 24704.39453 7583.94482 1000
3653.59009 901.48920 13.34657 356
3653.47998 877.47821 14.26583 472
35923.90234 -357.29758 -3396.12183 1000
58633.74219 -3126.56226 10798.35254 1000
4913.32275 -405.50693 52.76748 381
4890.81738 -432.14703 52.18572 465
4871.16553 -460.79056 53.00899 466
4858.79346 -488.58658 53.09977 483
4845.33008 -516.56500 52.88651 484
4837.21582 -545.51300 53.79428 491
4827.77148 -573.94006 52.98328 491
4820.70068 -602.67932 53.26934 494
4813.81396 -631.04272 53.93905 462
4808.89746 -660.64667 53.98921 462
4804.37793 -689.11914 54.01714 463
4800.63428 -717.82605 53.03173 463
4797.65479 -747.77570 53.25985 462
4794.26025 -777.02350 53.63676 461
4793.08301 -806.16113 53.23567 461
4912.25342 -826.15662 210.63039 430
4790.98730 -834.60724 53.58621 461
4952.72412 -864.24725 212.47597 398
4788.65771 -864.70905 52.53662 461
4786.26123 -893.90826 52.81547 461
4784.16846 -924.04510 53.30050 461
4782.89844 -952.80646 52.54767 460
4779.86133 -982.57269 52.00776 460
4975.85107 -1024.51123 212.87692 315
4778.40967 -1012.13611 52.38937 460
4776.47266 -1041.25879 51.88534 460
4774.63037 -1071.81458 52.77346 460
4771.41309 -1100.93396 51.79749 459
4770.15381 -1131.33606 51.73046 459
4767.07910 -1161.01050 52.56340 459
4765.27832 -1190.86841 51.23826 459
4762.83301 -1220.69800 51.89271 459
4765.61279 -1252.17041 51.25039 436
4775.27734 -1286.24304 50.61037 435
19727.67578 -9093.73828 3697.19800 1000
3769.75366 -1928.62451 62.97992 484
49873.51172 -43833.87500 3369.48071 1000
4775.74609 -4962.83301 130.61946 418
4718.71582 -4963.12598 130.73160 419
4663.87793 -4964.98535 131.04208 420
4609.05469 -4965.43359 130.59314 421
3549.00464 -3848.03564 45.62310 497
4573.73730 -4988.16699 131.00781 444
4568.10400 -5044.57812 130.76331 415
4568.01904 -5105.26074 130.23792 414
4737.59424 -5366.42969 130.69603 423
4574.46387 -5242.10449 130.23534 343
4621.29004 -5364.19873 130.27415 354
761.80518 -1029.42798 31.44009 434
761.56537 -1029.45056 51.51238 434
761.42432 -1029.13855 71.69122 434
761.49969 -1029.02087 92.05162 434
761.44971 -1028.89294 112.03575 434
761.11884 -1028.72131 132.07893 434
761.33612 -1028.62744 152.40594 434
761.17322 -1028.53076 172.47525 434
761.02618 -1028.45801 192.42603 434
760.95850 -1028.31433 212.87660 434
760.91229 -1028.14551 233.04250 434
760.67175 -1028.24023 253.22363 434
754.94690 -1033.10352 31.30513 465
755.03375 -1032.87915 51.62984 465
754.73743 -1032.77734 71.79296 466
754.83496 -1032.64551 92.01871 466
754.65228 -1032.50122 112.05614 466
754.30450 -1032.19299 132.07275 466
754.15631 -1032.04431 152.10501 466
754.28735 -1031.93579 172.32530 466
754.14911 -1031.72461 192.51393 466
753.95398 -1031.60474 212.73969 466
753.68665 -1031.33911 232.68314 465
753.77612 -1031.15796 253.14117 465
3068.14502 -5890.22949 113.83396 433
3016.41968 -5876.94434 112.53711 420
2967.98022 -5867.28662 113.34697 406
2919.99243 -5863.12256 113.81778 390
2874.90869 -5861.00830 113.47906 351
2839.24243 -5877.15723 113.42063 441
12455.57715 -26826.77344 -6338.22607 1000
2789.47192 -5864.20703 113.99759 442
2785.40088 -5856.90088 218.91037 477
2744.84741 -5861.07715 114.16956 477
2741.99829 -5856.78760 219.55038 477
2698.00195 -5854.33057 114.31983 478
2696.74121 -5851.05615 218.48520 478
2656.83643 -5854.68262 114.12532 479
2653.74731 -5850.86230 219.10489 479
6867.54150 -15713.40234 -2171.47559 1000
2614.87012 -5856.00684 113.03337 348
2615.10107 -5857.29688 217.83101 479
2573.86816 -5860.72510 114.06296 480
2572.00952 -5856.52393 217.44980 480
2531.34937 -5861.93555 114.22209 481
2529.07300 -5857.58105 217.81616 480
1361.98657 -3108.28149 67.78040 289
2489.47119 -5861.84766 113.67808 481
2488.36890 -5857.69287 217.68166 343
1313.33264 -3043.34717 69.39792 486
1415.54431 -3297.79565 121.76878 465
2487.35425 -5961.04102 219.55450 353
2484.12158 -5953.87402 324.15656 482
1296.28992 -3055.82886 69.38725 444
1393.00439 -3299.03174 121.71734 465
2488.99048 -6072.34766 219.77835 341
2453.64722 -5982.77539 324.66122 434
1283.43506 -3079.13013 68.93240 443
1369.65613 -3300.23779 121.75574 465
2414.99731 -5994.36084 324.52997 467
1270.73267 -3102.17554 68.15522 438
1347.43823 -3301.39282 122.35456 466
1259.24902 -3128.47583 67.64548 365
1324.39856 -3303.24170 122.53458 466
1247.97534 -3156.16699 67.25822 422
1302.26318 -3304.71094 122.63648 466
1236.07874 -3184.95532 67.34669 356
1278.81396 -3305.32104 122.22724 467
1224.39368 -3215.41772 66.54645 352
1256.34521 -3306.87842 122.69670 467
1214.82837 -3249.97388 66.21029 364
1234.47546 -3307.57251 122.52978 468
1204.99963 -3288.36572 65.31181 353
1215.92615 -3320.48657 122.33844 455
1198.31812 -3334.90332 64.55424 336
1203.62012 -3351.05273 121.78368 360
1197.37732 -3400.94312 63.68261 306
1204.44067 -3422.21436 121.99948 317
2011.97510 -5898.48730 215.41969 454
1204.14185 -3494.24902 62.35563 308
1208.50635 -3586.33423 60.44048 304
1216.21277 -3688.87939 57.99221 305
6715.34570 -35165.64453 -1725.29102 1000
3492.83325 -20085.52734 -2946.92261 1000
2858.25952 -25898.70508 -6921.63184 1000
809.12732 -6740.18555 -778.50085 1000
242.71298 -1530.18640 27.53420 459
242.78293 -1529.99194 52.87434 459
242.69420 -1530.12500 77.77676 459
242.55080 -1530.08972 102.92735 459
242.72484 -1529.81763 128.10556 459
242.75426 -1529.98291 153.50848 459
242.41513 -1529.72400 178.78229 459
242.71188 -1529.90833 203.87326 459
242.58122 -1529.75610 229.05495 459
233.50851 -1534.94104 27.13495 313
233.44348 -1535.30286 52.32896 313
517.84631 -13065.98730 -1405.69666 1000
-260.27814 -2034.95459 26.48809 329
-259.88690 -2034.72815 59.88430 329
-259.92239 -2034.78259 93.98380 329
-259.66559 -2034.57727 127.79486 329
-259.66281 -2034.35559 161.68964 329
-259.66519 -2034.56042 195.39694 329
-260.12289 -2034.46204 228.90224 329
-6288.86133 -25680.99219 -6095.32178 1000
-23493.08984 -49354.22266 2730.00317 1000
-23442.53125 -49251.72266 4518.29688 1000
-949.72882 -888.55768 379.70004 1000
-29558.15625 -22947.84375 1335.09607 1000
-261.44931 -74.53459 36.01588 321
-259.40231 -71.85654 36.66314 321
-257.46854 -69.29842 37.32721 324
-277.55032 -73.32517 38.32768 318
-258.12900 -67.20731 37.28052 352
-275.48340 -70.60077 38.96265 321
-260.01846 -65.32876 36.87066 351
-274.49432 -68.11296 39.41159 345
-261.90524 -63.50773 36.47876 351
-276.22180 -66.10720 39.03365 345
-293.34378 -69.15186 41.37664 319
-263.75128 -61.63028 36.08164 350
-278.19788 -64.13425 38.59856 347
-294.18958 -66.91309 41.32583 341
-267.11469 -59.95973 35.21731 326
-281.22769 -62.32240 37.94675 324
-297.44498 -65.07433 40.62167 315
-272.94247 -58.66255 33.79451 320
-286.88766 -60.89270 36.66244 323
-51157.90234 -5155.35693 -12770.33594 1000
-31407.45898 -2003.04480 6947.86035 1000
