# .PCD v.7 - Point Cloud Data file format
VERSION .7
FIELDS x y z rgb
SIZE 4 4 4 4
TYPE F F F U
COUNT 1 1 1 1
WIDTH 651
HEIGHT 1
VIEWPOINT 4166.808105 -4085.780029 133.756897 -0.002359 -0.134553 0.007550 0.990875
POINTS 651
DATA ascii
-2616.68115 94.54911 135.72342 1000
-276.61099 58.41057 33.55368 319
-270.43362 59.69757 35.07989 326
-284.81461 62.10057 37.82301 323
-265.96161 61.14614 36.14867 350
-280.57825 63.70513 38.74734 346
-296.77521 66.48516 41.42369 341
-264.01978 63.11420 36.62339 350
-278.58331 65.69673 39.20901 345
-295.16132 68.60017 41.76931 319
-262.15784 64.92873 37.03553 351
-276.75754 67.65161 39.54881 345
-260.22937 66.87184 37.38845 351
-277.14697 70.02741 39.29812 321
-259.03131 68.87967 37.62729 324
-279.11630 72.81805 38.70979 318
-260.91425 71.43135 36.97314 321
-262.91986 74.02895 36.40228 321
-60836.95312 21229.68555 -6168.41357 1000
-1481.17822 3057.13477 527.49414 1000
-17235.00977 62062.34375 -12696.92383 1000
-12080.34766 55244.52344 5692.33936 1000
-279.48560 1955.46460 1.93843 434
-266.91617 1953.77515 1.86114 493
-267.83868 1959.86987 34.01633 496
-268.81665 1966.24365 66.58276 444
-256.41483 1964.39209 1.61989 350
-7352.39941 59338.98047 11000.41699 1000
1189.16125 15385.71191 127.26675 473
1291.95349 15444.55957 -125.12414 469
1280.80884 15348.24512 130.39520 473
1384.19214 15405.65137 -124.13487 472
1373.77856 15308.93750 130.17781 477
1472.68555 15373.62402 -125.41566 476
1465.18518 15279.73145 129.14708 477
229.98747 1465.83459 -12.89050 373
1566.89917 15339.43262 -120.78396 476
1559.09680 15247.11035 130.65894 478
237.90659 1455.67358 -12.02070 477
238.49582 1460.30139 12.03971 476
239.25146 1465.15027 35.89208 385
1660.37231 15306.97949 -122.45525 477
1650.59094 15213.26758 128.46344 478
246.88901 1453.37341 -11.54258 494
247.36407 1457.17834 12.27752 493
247.78203 1460.99219 36.07170 488
248.10091 1465.17834 60.02055 491
1750.94592 15274.55859 -121.10783 477
1741.85657 15184.84473 128.64246 478
256.29474 1455.59937 -11.97241 465
256.87341 1460.89746 11.86350 416
257.75833 1467.71289 35.59689 351
1841.33521 15246.74707 -122.08868 477
1832.83337 15150.49316 129.49271 479
1932.25989 15211.12207 -119.34980 478
1921.90076 15118.62109 129.20576 479
2023.07715 15180.95605 -120.15210 478
2010.76147 15088.77734 128.08267 479
2114.00854 15149.12598 -121.06664 478
2101.28247 15056.22754 129.99870 480
2205.97705 15116.55762 -118.57961 478
2189.31641 15027.85547 130.50385 480
2295.92822 15088.42676 -118.75480 479
2279.43701 14993.26758 131.70984 480
2383.83325 15055.87012 -119.96494 479
2368.46509 14963.74805 131.61238 480
2473.95996 15021.62695 -119.87955 479
2459.56421 14933.44336 131.61284 481
2562.06079 14994.56738 -119.06043 479
2546.03687 14901.08887 130.05238 481
2653.64917 14960.76562 -116.72154 480
2637.49194 14873.25684 131.56894 489
2740.17358 14931.06152 -118.40718 480
2724.03101 14839.21191 131.44838 489
2829.61060 14900.77148 -118.01619 480
2812.86987 14809.10645 130.82281 489
2919.11108 14866.44922 -119.30010 480
2903.93115 14777.47266 127.75290 490
3009.26440 14835.33887 -118.09595 481
2992.06494 14751.25293 131.75838 490
3096.81592 14805.94043 -117.69779 481
3078.88599 14718.35547 130.16537 490
3185.00293 14775.93457 -117.64037 481
3167.89722 14688.07812 131.87007 490
3270.17017 14745.92383 -118.36871 481
3252.52417 14657.05273 131.00912 490
3361.41553 14715.73438 -117.32159 481
3339.91406 14626.12598 130.96738 490
3446.16235 14682.98047 -116.63443 482
3430.17310 14599.26465 131.46526 491
3535.16235 14654.40723 -114.72619 482
3516.77954 14568.12109 131.72777 491
3623.84229 14621.54199 -116.63900 482
3601.78125 14539.04297 131.55800 491
3711.34351 14593.31934 -116.85556 482
3689.74487 14505.81348 130.24353 491
3800.20581 14563.46191 -115.10233 482
3776.54614 14476.89453 130.03909 491
3886.02197 14530.74121 -115.90788 482
3863.03833 14447.04004 128.94374 491
3972.81421 14499.82715 -113.94778 482
3950.98462 14419.09570 128.52460 491
4060.79395 14470.78320 -115.34466 482
4036.25464 14387.33398 130.31976 492
4148.78955 14438.80176 -114.86483 482
4126.31738 14357.43555 130.60808 492
4234.40771 14410.16699 -115.24351 483
4211.41846 14327.41797 131.73132 492
4321.53369 14379.56055 -116.09113 483
4299.04199 14297.11426 129.29640 492
4407.62061 14348.76074 -114.70770 483
4384.72705 14269.28320 131.93684 492
4594.50049 14962.84961 387.59857 494
4593.32715 14969.22754 640.08789 493
4494.10303 14316.52344 -112.88950 483
4470.31494 14237.46289 130.49095 492
4678.14941 14913.25488 384.57437 494
4678.09668 14921.12793 640.00482 494
4579.91602 14287.17090 -112.82600 483
4557.58252 14210.73145 131.89348 492
4762.50146 14868.22656 387.20242 494
4765.05029 14872.96484 639.74750 494
4667.92090 14257.62891 -114.62810 483
4643.58740 14180.53320 129.87833 492
4850.40576 14822.07031 385.48105 495
4849.77930 14825.53125 639.25061 494
4755.97119 14227.11719 -112.65086 483
4728.51416 14148.74219 131.97328 492
4936.36230 14773.98730 382.96518 495
4935.88965 14778.00000 638.42755 495
4844.08789 14198.56445 -115.20202 483
4816.92188 14120.59570 130.86699 492
5018.79492 14727.04883 385.83966 495
5019.19580 14730.11816 639.21893 495
4930.37402 14167.22852 -113.40948 483
4902.56836 14088.30664 131.79407 492
5106.13965 14677.49219 383.56372 495
5105.32275 14685.39160 636.63794 495
5014.97168 14136.19238 -115.47364 483
4990.05420 14060.75391 129.69484 492
5186.79004 14631.02930 384.37375 496
5188.39941 14634.56348 636.85724 496
5101.50977 14105.77930 -115.20403 483
5074.90039 14029.79199 131.42700 492
5273.74121 14585.71094 385.69162 496
5276.15527 14589.65723 637.70190 496
5189.96924 14075.39648 -115.93684 483
5160.47070 14001.88477 129.10323 492
5357.36279 14541.12988 384.01239 499
5357.71289 14545.32227 637.04297 499
5276.67725 14045.31836 -114.64805 483
5248.99365 13968.81543 130.87326 492
5447.89453 14509.12891 383.58301 499
5446.02588 14510.80469 636.39777 499
5363.69824 14015.69238 -114.30708 483
5334.35889 13941.60352 129.11186 492
5534.00488 14477.16895 383.04059 499
5538.28418 14478.16211 638.45691 499
5447.87012 13985.53027 -115.73399 483
5420.63477 13912.58691 133.11964 492
5625.62988 14442.68262 381.95209 499
5625.13672 14445.55273 636.05658 499
5535.01660 13955.25586 -113.34962 483
5509.03613 13879.12793 129.96172 492
5712.84131 14410.99023 386.29611 499
5714.87500 14416.91016 637.00555 499
5624.52637 13927.39062 -112.20670 483
5595.68994 13852.31250 129.53568 492
5792.38379 14349.27441 383.75720 482
5804.15869 14384.71777 638.10242 499
5711.84619 13895.50586 -113.36859 483
5681.31641 13822.42773 129.59737 492
5866.21484 14278.43848 382.23355 482
5894.69775 14352.93555 636.95380 499
5798.70703 13865.27344 -115.10215 483
5766.59326 13791.05176 130.41499 492
5937.00000 14210.36328 380.79059 483
5984.86523 14319.19043 637.62213 499
5884.34863 13835.20801 -112.89442 482
5852.98389 13761.92383 131.24815 492
6012.51758 14140.92676 383.65979 483
6073.78809 14285.60840 638.33936 499
5971.31104 13803.90039 -115.97066 482
5940.62402 13732.08105 132.39366 491
6084.14111 14069.60254 381.11832 484
6140.84814 14205.81738 637.34875 328
6057.01709 13773.30664 -116.31939 482
6026.27246 13703.21387 130.83745 491
6156.56152 14003.41211 380.43506 485
6230.89258 14174.88184 638.07855 328
6145.56201 13744.34180 -112.48643 482
6116.12793 13669.58887 132.04135 491
6236.57861 13947.64160 378.73157 499
6323.62109 14142.79785 638.54901 328
6362.82910 14234.18652 896.77429 498
6434.91309 14400.63672 1163.33923 482
6233.31689 13711.97363 -116.22140 482
6200.17529 13643.47656 130.36777 491
6321.98047 13914.84863 380.60114 499
6411.29590 14111.42871 636.48969 328
6453.21143 14203.24609 895.00238 498
6510.35205 14333.15723 1160.09595 482
6319.23438 13681.64160 -115.97836 482
6288.23535 13611.27930 130.62296 491
6413.73438 13884.59473 381.91687 499
6503.46436 14082.02734 637.33832 328
6542.18262 14168.21387 896.60461 498
6648.40625 14399.29395 1169.00818 294
6406.55615 13652.49219 -114.08168 482
6376.62305 13583.02441 130.78795 491
6499.85791 13851.84668 380.21045 498
6613.16357 14095.26465 642.08929 498
6614.03467 14102.11621 896.26611 469
6497.01025 13620.39355 -115.88455 482
6461.91797 13551.99023 132.83360 491
6586.62158 13817.38574 380.82642 498
6680.73633 14008.64355 640.75104 470
6678.37012 14014.09766 893.24615 470
6740.24561 14137.09668 1156.48804 371
6585.28857 13590.68457 -115.92760 481
6548.97510 13519.86621 131.38800 490
6679.16992 13786.47949 381.25018 498
6744.87061 13926.50781 635.85126 471
6743.22314 13925.71094 889.32397 470
6802.54736 14046.25684 1151.37354 372
6672.47510 13561.45801 -113.13284 481
6635.74268 13492.37402 133.90781 490
6764.18945 13755.79199 381.83438 498
6808.17188 13840.54785 633.28314 471
6808.24609 13844.55664 887.40051 471
6864.30420 13952.35254 1147.16870 372
6760.37354 13531.71289 -116.20261 481
6726.83350 13458.92969 132.10573 490
6855.55078 13723.77734 383.51822 498
1047.79028 2125.17700 77.45177 498
6880.94287 13772.43066 884.42297 497
6924.86816 13870.14355 1143.41492 389
6972.85107 13964.55762 1409.19299 465
6974.23486 13969.42480 1665.50183 465
6977.02051 13972.60449 1926.01636 465
6978.64893 13975.48730 2182.16895 486
6980.66553 13980.79102 2443.87695 486
6849.81201 13497.88867 -114.36758 481
6813.78223 13430.95312 131.86368 490
6944.65723 13692.87305 384.64029 498
6969.52686 13739.82324 636.81738 497
6969.30469 13740.55273 885.44562 497
7015.15186 13835.84570 1148.32043 389
7133.38818 14068.50293 1422.82886 484
6936.95215 13471.03516 -113.27106 481
6899.10645 13398.96191 130.72118 490
7031.16504 13658.77930 382.07281 497
7043.59912 13677.37012 635.86456 497
7044.75488 13682.57227 888.18170 497
7107.90771 13805.88379 1146.45398 389
7223.47363 14033.46191 1424.20300 483
7024.41504 13438.09961 -113.60509 481
6990.06641 13370.33789 130.24623 490
7123.64014 13626.10059 381.84229 497
7133.69775 13645.71191 633.74353 497
7136.02148 13650.94141 885.51453 497
7198.18701 13774.34082 1147.95459 389
7297.66260 13965.94336 1418.98035 453
7113.94775 13409.51270 -116.28200 480
7078.46191 13340.44434 132.71501 489
7210.04004 13594.74512 385.12476 497
7220.60791 13614.20020 635.23163 497
7221.95801 13616.69238 887.08215 497
7287.47949 13741.83789 1148.91467 388
7387.88965 13929.58301 1422.38953 452
7202.97705 13377.22070 -115.79236 480
7165.81006 13309.59863 134.03694 489
7302.84521 13561.14551 383.65787 497
7311.56299 13583.27441 636.23700 497
7312.62842 13585.15234 889.96185 496
7379.15576 13711.43945 1148.11780 388
7500.30127 13935.51367 1424.41565 483
7290.39307 13346.94238 -115.53185 480
7255.16406 13280.01270 131.08997 489
7390.25195 13528.65820 383.38748 497
7402.23096 13550.37891 634.60699 496
7402.96875 13553.82227 890.47351 496
7468.76270 13678.40332 1153.11096 388
7592.67578 13905.47363 1428.12195 483
7381.72949 13315.53711 -117.00420 480
7342.02930 13247.35352 130.90601 489
7479.27686 13499.67676 382.04031 496
7490.97070 13516.81543 637.41101 496
7494.27539 13519.91113 888.43280 496
7564.13037 13649.02832 1153.01392 388
7470.47607 13285.70801 -115.80977 479
7432.96289 13216.50293 132.88701 488
7568.97852 13463.00879 382.43982 496
7583.28125 13484.65723 635.91797 496
7585.11035 13488.29395 892.54645 496
7654.38525 13616.30078 1152.50012 388
7558.36084 13255.06152 -114.62029 479
7523.11084 13186.90625 130.81854 488
7662.30762 13432.97656 386.78281 496
7673.73779 13454.83301 637.03571 496
7675.65527 13458.44824 890.80688 495
7744.95508 13584.97656 1153.06836 388
7647.32861 13220.09375 -117.65356 479
7612.79443 13153.50000 134.58875 488
7752.42432 13398.38086 383.38519 496
7779.44678 13449.11230 640.40082 495
7781.40283 13450.42383 893.27710 495
7837.22314 13554.03320 1157.07520 388
7740.33643 13191.44629 -118.10085 479
7700.62598 13126.40137 133.09914 488
7840.99658 13366.90039 383.92944 495
7867.71631 13415.99902 639.18719 495
7869.16504 13416.75586 895.54633 495
7929.05664 13519.96582 1158.00403 387
7829.67871 13160.07910 -131.05801 478
7792.17627 13094.92969 117.02315 487
7935.67188 13335.19727 370.42532 495
7887.56104 13255.90723 618.70074 424
7866.85156 13222.68457 869.17499 385
8025.36621 13489.50684 1140.66211 387
7920.94434 13127.21094 -133.14888 478
7881.28662 13062.31543 116.72981 487
8024.14990 13302.36133 368.56332 495
8051.54395 13347.56348 626.86639 495
8053.95605 13352.35938 880.69165 494
8116.79004 13458.06934 1141.17627 387
8010.51221 13098.04980 -132.76137 478
7972.21045 13030.31445 117.80539 487
8114.70459 13267.98730 368.38461 495
8145.08838 13316.68750 624.40979 494
8147.63428 13319.38086 882.12567 494
8209.82812 13423.86816 1142.68933 379
15886.05566 26108.05273 5652.27002 1000
8101.26465 13066.63086 -132.33049 478
8063.27051 12999.75879 117.12749 486
8207.34473 13235.51758 369.82834 494
8237.62695 13284.61523 627.22998 494
8236.69336 13289.24609 883.59619 494
8329.21191 13432.16895 1147.22461 341
8193.05566 13034.76660 -136.53352 477
8154.50293 12969.73438 115.06725 486
8298.50684 13203.51953 371.61203 494
8364.16504 13307.59277 627.75879 428
8364.54785 13308.88379 886.23199 428
8471.14941 13479.19141 1155.05457 341
8284.13379 13000.46973 -135.62282 477
8242.79590 12938.08984 117.04431 486
8392.19824 13172.18848 369.06198 494
8494.81543 13331.02539 630.50897 456
8498.87793 13341.10742 890.40631 427
8376.35645 12969.90039 -133.80125 477
8333.47656 12907.08398 116.65551 485
8481.31738 13134.81738 371.06137 493
8605.53809 13332.56738 634.72095 455
8630.34766 13367.70020 897.39600 426
8468.29004 12936.09570 -136.28607 476
8426.91992 12875.69727 115.09499 485
8590.22656 13127.00098 370.25110 396
8721.65723 13332.31738 637.78833 454
729.00238 975.48694 -2.99719 385
8561.26855 12905.92480 -134.26349 476
8519.82520 12842.66699 118.47174 485
8723.59961 13151.34863 371.79150 395
8839.85547 13329.61328 638.88171 453
728.93762 962.40424 -21.10084 483
730.89990 965.86945 -2.22504 483
733.35492 969.08466 16.43199 443
736.04309 973.24963 35.34972 392
740.17828 979.50262 53.96246 485
8654.14062 12875.68457 -134.59398 476
8608.50391 12810.73926 114.64671 484
8851.66602 13174.80469 376.50006 394
733.91876 957.47864 -20.79168 499
736.06824 960.54333 -2.16638 498
737.90039 963.49915 16.93332 498
740.51855 967.03534 35.50731 496
742.30969 969.73175 54.61517 497
744.36371 972.59711 73.63297 497
8743.73535 12841.20898 -138.76253 475
8703.68359 12780.48926 117.73283 484
8985.87500 13198.92969 375.02307 393
740.24847 954.36682 -20.98362 490
742.47809 957.53906 -2.24142 490
744.88635 960.79572 16.62295 457
747.72424 964.63757 35.32541 454
750.20123 968.44525 54.26963 403
8839.49414 12807.94434 -136.16946 475
8795.27344 12747.33887 116.03892 483
9115.08887 13211.39844 378.91046 388
752.05634 958.40527 -2.75881 404
758.16229 967.24225 15.42115 260
8929.97754 12778.48145 -140.11980 474
8887.50000 12714.82617 117.69630 483
9023.45020 12743.48633 -139.33125 473
8981.46484 12680.60254 114.83847 483
9118.82910 12712.20508 -140.03091 472
9073.43359 12652.00000 114.77390 482
9215.31445 12677.88477 -139.62222 472
9168.36914 12618.99512 115.44048 482
9309.04102 12645.19141 -139.27911 471
9265.61914 12587.47070 118.18215 481
9404.83887 12615.73828 -140.87874 471
9356.24121 12554.29980 115.60076 481
9499.25781 12582.79688 -141.63515 471
9454.97168 12521.56934 114.92432 480
9595.13477 12548.16699 -141.85860 470
9550.07812 12487.27637 117.86848 480
9692.67969 12516.14062 -142.67683 470
9644.14648 12455.78418 114.19604 480
9785.18066 12482.42188 -142.84436 469
9739.38965 12422.63867 115.91188 479
9881.84766 12447.75586 -142.54494 469
9838.53027 12389.05859 115.76987 479
9980.09863 12411.66602 -143.59889 468
9933.51758 12353.80273 117.81208 478
10078.54199 12381.17090 -145.29977 468
10031.09863 12318.74707 117.56668 478
10177.83789 12347.57324 -144.95219 467
10130.06152 12288.63574 116.39045 477
10275.92578 12312.81543 -146.13791 467
10228.41406 12251.45703 118.14677 477
10375.73340 12275.05176 -144.47104 466
10326.03613 12219.08691 114.94884 476
10475.02734 12242.45605 -145.83163 466
10423.87305 12183.77051 114.56004 476
10573.53809 12207.13770 -149.71584 465
10524.43066 12150.06836 116.40979 475
10676.73535 12175.73828 -146.19673 465
10627.34766 12113.73926 117.46637 474
10775.00977 12137.13574 -151.14522 464
10727.25684 12082.88574 115.81318 474
10878.19043 12105.15332 -147.82529 464
10825.50977 12043.65039 114.14616 473
10980.89746 12066.28613 -150.25084 463
10929.97461 12012.48926 115.32034 473
11083.59668 12034.51660 -153.00381 463
11030.91211 11973.92285 114.91331 472
11187.35938 11994.73633 -152.27505 462
11135.91797 11938.05762 116.11258 472
11291.16504 11961.49023 -153.03635 461
11239.25000 11906.49707 116.55638 474
11395.62988 11924.25195 -153.51892 461
11339.85449 11867.21387 115.55405 473
11499.01562 11890.86719 -156.40709 460
11443.72070 11834.44824 116.27618 473
11609.56348 11854.97656 -153.88286 444
11552.60449 11794.53516 115.97496 472
11727.89746 11831.98633 -156.75975 444
11655.16797 11758.58887 115.12937 471
11846.55078 11807.05469 -159.25752 444
11763.76465 11724.24609 115.49741 473
11967.40039 11785.18164 -157.60143 443
11881.64844 11696.56836 114.38881 448
12088.46289 11759.26074 -161.79021 442
12002.40137 11672.97949 113.16978 442
12210.94434 11735.70215 -161.92978 441
12125.54785 11648.03906 114.79763 441
12337.50391 11708.57324 -163.56924 440
12245.59277 11622.97559 116.59503 440
12488.24219 11709.43652 -163.51196 394
12371.29688 11598.55957 115.63191 440
12649.61621 11718.27051 -166.33163 371
12500.47070 11577.69434 117.38297 439
12822.81250 11736.37012 -169.77902 370
12624.05566 11550.55859 115.67995 439
13000.72559 11753.14453 -169.02095 342
12783.62695 11554.33789 117.28635 393
13300.55566 11876.62988 -177.97916 277
12940.84961 11554.50195 115.81254 392
13106.13477 11557.44824 117.02873 391
13280.08203 11569.71387 113.96753 369
13498.10742 11617.42578 117.06837 341
13724.96680 11665.68164 114.62215 340
47978.26562 38007.34375 14324.92285 1000
3654.11719 901.21930 9.45403 464
40779.32031 -2915.99658 -2561.09912 1000
4912.54346 -404.85242 50.99740 453
4945.34473 -437.75989 -28.98394 434
4897.88770 -433.80008 51.23674 449
4911.51611 -464.06250 -28.02411 415
4884.47852 -461.68814 51.15235 388
4894.38770 -493.15024 -27.86457 477
4878.16260 -491.02216 51.76702 385
4879.21484 -520.14362 -27.07209 478
5045.24658 -538.87250 48.66042 391
4870.77197 -548.76337 -26.77443 488
4861.23486 -578.26312 -27.73097 488
4854.04492 -606.24042 -26.97316 489
4918.99219 -644.95392 50.90017 264
4887.68457 -671.46362 51.03765 499
4884.89697 -700.55048 51.22236 499
4929.47656 -768.04529 50.35984 498
4876.43799 -789.43085 50.45682 498
33209.81641 -5675.42139 -1532.05603 1000
4918.10449 -857.38910 210.33417 349
5026.82910 -909.01837 47.54615 388
4838.19336 -903.23151 51.02510 497
4852.02979 -937.13647 50.69788 497
4914.70361 -1197.98352 49.92371 412
38723.41406 -29640.66016 -669.16992 1000
49878.50391 -41193.05078 14083.84668 1000
45616.46875 -44232.94531 9545.05859 1000
46301.57812 -47742.42188 129.63919 1000
4765.29102 -4950.88184 131.45331 417
4708.29541 -4950.82520 132.49536 418
4651.79834 -4951.97754 132.79156 419
4598.51367 -4953.57666 132.14453 487
3550.76318 -3851.14771 47.42856 442
4576.89160 -4991.27832 132.52582 447
4569.26855 -5044.13721 132.51910 407
4568.27979 -5108.30273 132.35823 406
4574.26709 -5177.73730 131.67645 411
4572.13477 -5239.78760 131.71764 384
4571.66992 -5303.27539 132.36272 386
4571.10693 -5370.75537 131.49409 404
768.29974 -1025.53711 10.93051 371
767.72791 -1024.86218 31.61349 432
767.13177 -1024.10461 51.64688 433
766.77979 -1023.74957 71.97839 433
766.54376 -1022.87976 92.09334 476
766.23352 -1022.39282 112.34994 477
765.70483 -1022.26538 132.37553 477
765.49908 -1021.70685 152.19315 477
765.28418 -1021.14850 172.25951 498
765.14294 -1021.02191 192.37302 498
765.03156 -1020.77692 212.66585 498
764.68829 -1020.21808 232.78035 497
764.62341 -1020.01904 252.82573 497
760.40283 -1027.61182 11.32288 465
760.36603 -1027.65161 31.41168 466
760.62433 -1027.71521 51.70784 466
760.61981 -1027.47717 72.03199 466
760.56110 -1027.51501 92.16063 418
760.56592 -1027.68372 112.23752 418
760.81799 -1028.10498 132.30936 418
760.92377 -1028.39172 152.56505 352
761.21832 -1028.81396 172.44609 352
34099.69531 -60610.94922 2372.67310 1000
3063.20361 -5879.70166 128.87617 419
3009.56226 -5862.96484 128.72986 430
2957.68140 -5850.09473 128.68224 440
2910.05029 -5839.92871 129.82483 434
2860.91992 -5832.15186 129.01407 412
2815.22095 -5826.10742 130.06001 417
15877.77441 -33732.30859 5018.80664 1000
2770.37402 -5823.27441 128.56116 418
2783.68042 -5852.74951 235.41348 477
2725.16333 -5820.10010 130.08043 400
2739.84058 -5852.41895 233.77528 478
2681.28882 -5818.43018 128.97701 402
2695.69482 -5847.21924 235.00150 478
2639.21606 -5816.77148 129.87152 428
2652.50195 -5847.77002 234.21947 479
2595.48193 -5816.61865 129.33502 428
2611.39258 -5853.30762 234.42307 474
2552.68091 -5816.62256 129.51199 429
2569.78711 -5853.16504 233.57051 299
2510.50146 -5815.87793 129.49573 429
2527.47021 -5852.92676 233.83392 486
1351.47778 -3084.48486 75.97803 295
1441.83154 -3303.52368 131.06921 368
2487.74072 -5859.33203 233.26898 499
2527.16992 -5956.85059 340.49728 479
1313.57983 -3044.59912 77.46967 417
1412.71667 -3292.34155 130.57726 467
2497.25171 -5989.92041 235.66165 342
2489.91870 -5969.37451 340.43753 482
1298.80652 -3061.92896 77.27037 423
1390.58740 -3293.78174 130.44145 467
2498.49243 -6098.19922 236.29211 341
2433.81616 -5935.37500 338.14709 494
1284.31824 -3081.75488 76.67970 386
1367.22961 -3294.93970 130.96327 468
2409.91553 -5978.76074 338.95428 308
1271.75049 -3104.91919 76.72475 428
1344.51733 -3297.20337 130.90158 468
1260.29126 -3131.36548 76.50242 422
1322.27246 -3298.05078 130.59073 468
1248.43762 -3159.28320 76.15397 358
1299.85596 -3299.25342 130.76253 469
2279.79126 -5971.88525 234.36659 484
1237.05994 -3188.32007 74.92926 352
1277.17761 -3300.80688 130.97693 469
1226.62280 -3220.90186 75.11334 368
1255.27832 -3301.97876 130.39224 470
1216.55359 -3257.62915 74.76945 360
1232.48499 -3302.83667 130.69545 469
1208.35071 -3298.74048 73.46075 343
1216.10266 -3320.68506 130.81689 465
1203.66016 -3352.08545 73.46107 318
1207.31824 -3362.50879 131.31955 342
2037.90393 -5861.40625 230.28217 414
1207.51404 -3435.17090 71.35548 297
1210.99695 -3443.44238 130.83176 315
1214.39197 -3528.93408 70.46313 305
1223.50598 -3556.67651 131.07863 346
2035.55713 -6099.51270 233.92284 470
1221.70032 -3627.79541 68.66103 301
1228.16809 -3648.17554 131.35127 338
1230.35327 -3736.07983 67.35152 303
14935.15527 -61921.08594 10626.36328 1000
7602.26172 -46068.32422 6266.20068 1000
251.61424 -1526.31348 31.30112 337
251.23883 -1525.19336 56.39684 405
251.29442 -1524.16809 81.63326 405
251.09956 -1522.93396 106.56120 406
251.02139 -1522.24255 131.82849 458
250.75055 -1521.30469 156.80470 458
251.08440 -1520.61707 181.89082 458
250.93333 -1519.68750 206.94080 458
250.95787 -1518.78284 232.19383 458
250.83434 -1518.24841 257.11777 490
241.77234 -1525.50366 31.48608 443
241.93013 -1525.27173 56.55803 443
241.68063 -1524.91223 81.84946 443
241.89217 -1524.93152 106.73942 386
241.99855 -1524.64551 131.84285 386
242.02995 -1524.62756 156.72110 386
241.82983 -1525.39197 181.90182 314
-5626.86621 -42766.50391 5093.69092 1000
-258.59662 -2023.38599 64.90385 453
-258.06351 -2022.06628 98.75040 453
-258.19754 -2021.07056 131.85251 453
-257.72293 -2019.92322 165.69583 453
-257.31873 -2018.58923 198.96881 488
-257.20892 -2017.24646 232.57425 488
-256.89706 -2016.32629 266.02155 488
-14386.41211 -39188.88281 -1917.92273 1000
66.21865 -46.31752 139.05614 1000
-16481.32031 -30706.35352 7671.89160 1000
-50712.23047 -32756.47852 -14999.47461 1000
-262.83560 -74.84334 36.12403 321
-260.89853 -72.20483 36.78951 321
-258.93936 -69.62822 37.42054 324
-279.08789 -73.68978 38.45556 318
-259.07343 -67.35361 37.48812 349
-277.01733 -70.90288 39.05168 321
-261.00665 -65.51234 37.07280 351
-275.59375 -68.30925 39.59843 345
-262.91864 -63.63551 36.65428 351
-277.33087 -66.28699 39.24940 345
-294.96066 -69.49084 41.47823 319
-264.84933 -61.76752 36.22900 350
-279.28604 -64.27250 38.82991 347
-295.41263 -67.20662 41.55939 340
-268.01022 -60.06244 35.50769 326
-282.24756 -62.49131 38.20044 324
-298.67542 -65.32543 40.81510 315
-273.88168 -58.80292 34.00156 320
-287.88104 -61.06212 36.78805 323
-66382.87500 -7514.54053 -8671.70996 1000
