# .PCD v.7 - Point Cloud Data file format
VERSION .7
FIELDS x y z rgb
SIZE 4 4 4 4
TYPE F F F U
COUNT 1 1 1 1
WIDTH 756
HEIGHT 1
VIEWPOINT 4166.790527 -4086.282959 133.033478 -0.002372 -0.133003 0.006891 0.991089
POINTS 756
DATA ascii
-276.64359 58.34144 33.49548 319
-61317.12109 9777.41699 14718.94531 1000
-270.32141 59.59484 35.00956 325
-284.81381 62.02649 37.73718 323
-265.89270 61.13666 36.17226 350
-280.46567 63.66886 38.73255 346
-296.60382 66.39322 41.48314 341
-263.90048 63.06780 36.61355 350
-278.45850 65.65369 39.10933 344
-294.80698 68.51563 41.76145 319
-262.02017 64.87445 36.96765 351
-276.59827 67.58416 39.48946 345
-298.82605 71.69840 40.72458 258
-260.03665 66.79095 37.41806 351
-276.90497 69.91265 39.33770 321
-258.79166 68.71447 37.60936 324
-278.70413 72.62025 38.70782 318
-260.54300 71.34196 36.97928 321
-262.49826 73.89863 36.32264 321
-266.90659 77.10921 35.00359 261
-1278.89197 367.46497 415.27554 1000
-34474.60156 17041.09766 -475.41241 1000
-27474.59375 18100.12109 4484.41650 1000
-15964.53906 12004.43066 -848.43402 1000
-7720.99561 6380.09180 -693.43988 1000
-28533.58008 33875.85938 2303.42651 1000
-6786.59375 9110.37305 -618.65094 1000
-279.22507 1952.29199 0.79966 476
-281.60770 1963.65771 33.18309 374
-267.23654 1952.51184 1.21392 492
-268.20718 1958.60229 33.33484 496
-269.53070 1964.67957 65.93950 495
-257.06360 1964.98450 0.57024 348
-1831.31665 30142.81055 -6406.91846 1000
-1864.30371 30691.25977 -2912.16479 1000
304.53339 54517.64453 -5263.32910 1000
1192.01794 15410.39453 123.88450 469
1291.93872 15475.06055 -129.48653 468
1282.42432 15374.53125 126.66766 473
1387.09338 15441.58691 -125.81192 458
1376.42896 15336.04980 125.40701 477
1374.33423 15323.67578 377.50171 466
1475.71069 15410.15137 -126.71235 456
1467.31482 15304.79199 124.81023 477
1467.10938 15274.40723 376.08313 461
228.90437 1460.41052 -12.79232 372
229.92082 1470.60693 10.64119 299
1570.50110 15377.11719 -127.68996 456
1560.52661 15271.95898 125.09857 477
237.08458 1452.60120 -12.25425 476
237.54451 1456.71375 11.55453 476
238.21594 1460.86267 35.45766 374
238.53497 1465.60657 59.08450 433
1662.59839 15345.07031 -126.32607 456
1650.97290 15241.88477 127.13478 478
245.89209 1450.79529 -12.24899 494
246.28622 1454.55017 11.87236 494
247.12019 1458.53662 35.55708 372
247.32957 1462.26599 59.57453 493
248.32222 1470.16003 83.15575 303
1752.24231 15310.69531 -124.01824 457
1742.40271 15207.30078 127.86547 478
1939.56531 17006.34766 405.75952 466
255.25070 1453.09644 -12.36758 466
256.12604 1458.34741 11.19967 417
256.87289 1465.39587 34.92793 352
1846.36182 15279.43164 -123.59149 457
1834.05444 15177.26660 124.16184 478
2033.97766 16937.90039 402.05997 467
1937.31653 15246.14062 -124.97672 457
1924.10583 15146.54199 124.29686 479
2026.95544 15214.13574 -126.00055 457
2016.15295 15113.03906 124.52136 479
2117.63306 15185.31055 -122.49368 458
2104.97632 15081.73047 126.06269 479
2210.08374 15151.86914 -124.09030 458
2192.05103 15052.37109 125.35316 479
2296.56421 15121.11230 -124.38233 458
2285.07812 15020.32129 127.27299 480
2542.47437 16796.78125 404.56525 297
2389.19263 15085.96680 -122.74747 458
2374.09888 14989.56836 126.41484 480
2639.52393 16746.31641 401.52820 411
2475.80273 15057.44238 -121.56480 459
2460.99585 14960.46777 128.14513 480
2741.53882 16712.01758 404.25211 411
2566.84277 15023.47168 -120.98015 459
2552.80005 14930.01172 127.54247 480
2547.49414 14911.57520 373.83932 259
2657.56982 14993.89062 -122.98918 459
2639.37988 14897.71680 126.14088 481
2636.89380 14870.31738 375.33667 300
2747.87085 14962.37402 -120.72159 459
2728.77954 14868.33789 128.19588 481
2721.85327 14834.47363 372.57831 300
2836.84204 14931.75098 -120.62778 460
2818.82642 14833.73145 127.35154 481
2812.04785 14804.42285 373.30258 300
2925.64209 14899.06543 -123.46568 460
2906.31958 14806.78516 126.84948 481
2900.49585 14767.97656 370.82135 300
3014.48926 14868.78516 -122.21991 460
2996.37549 14776.35840 125.51560 482
2985.56152 14734.39062 374.63702 301
3099.36646 14835.57324 -121.65033 460
3083.05444 14742.65234 126.18734 482
3076.35132 14704.01855 370.54376 422
3189.97192 14806.89453 -119.64662 460
3171.97510 14712.00488 128.98157 482
3161.27148 14672.94141 374.30688 422
3278.11865 14772.26270 -119.53462 460
3258.26611 14684.62891 126.37276 482
3247.82495 14642.81934 371.40210 423
3367.43921 14743.72266 -120.99611 479
3347.29395 14654.45703 128.31894 482
3335.68481 14611.91504 371.11261 423
3453.59106 14711.50098 -120.66188 480
3434.81348 14620.71387 127.44414 482
3425.73779 14580.58496 371.05469 423
3540.11768 14682.68848 -119.56178 480
3520.02417 14591.12402 126.89406 483
3512.75537 14551.01074 372.41519 423
3631.60205 14649.86719 -119.05927 480
3610.04663 14559.62598 129.30640 483
3597.96436 14518.23633 370.18732 423
3719.69849 14623.24316 -117.44553 480
3697.40186 14532.39551 126.06484 483
3684.50757 14488.02344 373.52771 423
3804.91528 14591.94043 -120.49657 480
3783.56787 14499.42285 129.19353 483
3770.57837 14457.63184 373.64807 423
3894.81519 14559.11328 -119.72338 480
3871.41602 14469.19238 127.85722 483
3856.39087 14426.65527 370.95230 423
3980.50537 14529.26562 -118.20570 480
3957.75366 14439.75391 126.41298 483
3945.78467 14398.76465 373.40161 423
4066.56445 14501.36426 -119.88157 480
4042.50610 14410.47363 126.55141 483
4031.18433 14365.30273 371.64047 423
11390.70312 40218.83984 -8189.83447 1000
4156.97754 14471.27930 -119.07874 481
4131.63867 14379.41895 127.45798 483
4116.30615 14334.50391 372.08209 424
4240.54102 14438.39355 -116.19954 481
4216.32129 14348.88086 126.78213 484
4202.10938 14306.52832 371.45764 424
4330.73682 14407.40723 -118.91563 481
4301.63818 14321.09961 128.62271 484
4288.71826 14275.35938 370.45682 424
4417.17432 14378.75684 -116.15836 481
4388.70117 14288.67969 129.96883 484
4378.26514 14246.91016 373.20096 424
4590.92236 14959.54297 637.66772 494
4502.27246 14347.43066 -115.47482 481
4475.98975 14261.07324 130.44305 484
4460.78369 14216.44238 370.26828 424
4676.20703 14911.87500 641.32538 494
4590.10889 14319.85254 -115.95218 481
4565.10400 14228.30664 127.27810 484
4548.07520 14185.34180 372.23785 424
4761.16553 14864.45996 638.65021 494
4677.19092 14287.75000 -115.44848 481
4647.72900 14198.54395 126.93319 484
4636.80322 14152.77246 372.06128 424
4849.52002 14816.90137 637.55048 494
4765.72998 14257.86719 -115.67339 481
4734.27979 14168.16406 128.53693 484
4719.29785 14124.98145 373.09839 424
4932.87842 14771.20215 637.95898 495
4852.13330 14228.97070 -114.92923 481
4822.38379 14140.60840 130.72301 484
4808.80811 14095.83789 373.84467 424
5019.40137 14724.92969 638.63629 495
4937.69580 14199.19336 -115.63927 481
4910.08789 14110.25586 128.99863 484
4893.07178 14064.76660 371.62430 424
5103.98926 14677.53223 638.38837 495
5023.52832 14167.85938 -117.33902 481
4994.21436 14078.27832 129.42773 484
4979.10156 14035.01074 372.24118 424
5189.16211 14629.94336 634.05200 496
5110.97119 14138.70605 -117.40644 481
5083.09082 14047.98535 128.22935 484
5066.99170 14002.81836 371.30347 464
5270.89893 14583.42383 635.34839 496
5201.53076 14108.06055 -114.48278 481
5170.08496 14020.57812 128.88560 484
5152.80615 13972.25195 373.85196 464
5355.84082 14538.12012 635.17291 499
5285.16895 14076.82617 -116.85131 481
5254.56592 13988.17480 128.94994 484
5236.45117 13945.08984 370.73605 464
5443.36328 14507.48242 634.48810 499
5371.86230 14044.91211 -115.61901 481
5340.97852 13958.77441 129.68159 484
5323.81250 13912.57227 374.06207 464
5534.06299 14474.57324 636.23053 499
5461.66406 14018.23535 -116.80336 481
5426.52490 13929.83203 129.08917 484
5411.35400 13882.50586 371.71429 464
5622.72803 14441.27246 634.65692 499
5546.09131 13984.43066 -116.78664 481
5513.56592 13899.32715 128.52232 484
5496.14697 13854.90430 371.02798 464
5714.23340 14411.20312 635.68958 499
5636.40723 13957.07715 -115.53056 481
5601.33008 13871.88477 131.10497 484
5580.48047 13822.57715 372.16055 464
5801.07715 14379.27344 638.18799 499
5722.59912 13924.91797 -117.73524 481
5688.02539 13838.67676 131.90576 484
5668.84033 13794.35645 374.57822 464
5892.77295 14345.73730 636.67377 499
5811.17529 13895.28906 -117.52950 481
5775.22852 13810.05078 129.77745 491
5756.85791 13764.31836 374.18051 464
5983.33887 14314.09961 635.60071 499
5897.42432 13865.01465 -114.77870 480
5861.92188 13780.89355 129.97197 491
5840.29688 13733.73828 371.70499 464
6070.69873 14279.68066 636.96271 499
5985.04150 13833.81543 -116.26906 480
5947.87451 13751.18848 129.52133 491
5927.89795 13703.54590 374.08261 463
6121.38525 14157.67578 635.69110 418
6069.20752 13803.89355 -114.00410 480
6035.04248 13719.53027 131.32957 491
6013.24316 13674.90918 373.75909 376
6212.13037 14130.93359 635.49719 405
6266.33398 14259.76270 893.18921 499
6158.34912 13772.83008 -117.30248 480
6122.94531 13691.88477 129.74358 491
6103.87305 13644.25977 375.55096 376
6303.28662 14098.49219 636.11060 405
6356.51709 14227.44531 895.50330 498
6429.50049 14389.57422 1160.22314 470
6246.28223 13744.05957 -118.08902 480
6209.37305 13658.31641 132.44846 491
6187.02539 13613.88867 374.25143 376
6392.40771 14068.15625 635.37067 405
6448.50879 14194.15723 894.56024 498
6501.34131 14313.22949 1158.47522 483
6335.24707 13715.00488 -114.78709 480
6294.95947 13631.50879 130.34518 491
6276.74951 13585.67969 372.66418 376
6482.50195 14032.81348 635.75696 404
6539.90674 14162.83496 893.25806 498
6420.67529 13685.04590 -116.16384 480
6384.80664 13598.99609 131.95767 490
6363.75000 13556.63770 376.91058 375
6611.52295 14089.57812 636.62268 498
6612.78906 14093.49512 891.65918 469
6611.01855 14093.36328 1148.46899 469
6511.52881 13652.77637 -115.94911 480
6471.03613 13570.55859 129.92877 490
6450.64209 13526.73730 376.55142 375
6673.70801 14001.64258 638.23059 470
6674.86133 14006.03320 890.83105 470
6676.97607 14006.97266 1144.15100 470
6599.45361 13623.47070 -118.08442 479
6557.14209 13540.58887 131.33975 490
6539.29492 13497.89160 373.54599 375
6738.20410 13917.98633 636.72491 471
6738.33105 13918.98828 888.94073 471
6738.90576 13922.57129 1142.97729 470
6686.84912 13590.11230 -115.10630 479
6645.73486 13508.59473 132.87103 490
6623.81494 13464.82129 375.59531 375
6803.39551 13834.27051 636.30530 471
6805.30518 13836.00586 886.26727 471
6805.11475 13837.78027 1141.00928 471
6775.25195 13561.83691 -115.88911 479
6735.40576 13477.88184 131.72159 490
6711.96875 13437.67578 376.38120 375
6875.32080 13764.43750 634.98895 498
6876.60205 13768.36426 886.74933 497
6875.79736 13772.21777 1136.35876 497
6967.86035 13950.83984 1404.48828 466
6970.29150 13954.57715 1664.49097 465
6971.49805 13956.02051 1919.17700 487
6969.95117 13960.63867 2180.32642 487
6973.30518 13963.87988 2438.72168 486
6861.23975 13529.01953 -117.51084 479
6821.28271 13447.82227 131.78934 490
6802.01465 13409.36523 376.22211 375
6964.08447 13731.50879 632.20764 497
6965.96191 13734.63965 887.01886 497
6965.68408 13737.08594 1140.25586 497
7112.22705 14033.99414 1417.43530 478
6950.75488 13499.42578 -117.18732 479
6910.46045 13416.92188 132.22366 489
6891.09277 13375.40332 375.48465 375
7041.00488 13671.87891 631.21155 497
7042.31494 13677.53516 885.34100 497
7056.64453 13704.00195 1138.02930 497
7203.94482 13997.96484 1419.67151 478
7042.06348 13471.00879 -116.31763 479
7000.39453 13390.50488 132.32181 489
6976.44971 13346.14844 377.70435 375
7128.16162 13643.69336 635.78387 497
7129.20264 13643.42090 885.73480 497
7146.81299 13673.52637 1137.93079 497
7266.47705 13904.24805 1415.89148 453
7129.45703 13438.37500 -118.11630 478
7086.36475 13359.51270 130.74498 489
7066.91553 13318.97461 376.23740 375
7217.97217 13608.84082 636.17511 497
7220.34424 13609.81641 886.55865 497
7234.81396 13642.12793 1139.59558 496
7365.69727 13892.08691 1417.79980 466
7219.59033 13408.05273 -118.75359 478
7175.46680 13326.14551 132.42152 489
7153.74316 13286.58691 375.72720 375
7307.47510 13578.37012 633.36450 497
7310.65674 13578.04395 885.01190 496
7325.65234 13607.51953 1143.09680 496
7477.13525 13898.44434 1423.74243 469
7307.51709 13376.16406 -117.01083 478
7263.78613 13296.91699 131.09425 488
7241.11279 13257.07617 376.63727 374
7397.99121 13547.52441 634.37463 496
7400.96924 13548.09375 889.71967 496
7416.70801 13575.92090 1141.10791 496
7572.92383 13863.98926 1424.31653 468
7396.56299 13347.28906 -116.18128 478
7351.93115 13267.31055 132.27060 488
7329.90820 13227.49219 377.51889 374
7488.13184 13514.92285 636.51691 496
7490.98877 13515.99609 886.60626 496
7504.15723 13546.83203 1145.90100 496
7665.45654 13831.93848 1422.84448 468
7487.46436 13314.18555 -116.73554 477
7440.47803 13235.50879 131.87891 488
7421.58496 13196.11035 379.71106 374
7579.31152 13480.42773 636.14099 496
7581.95654 13484.88672 888.07214 496
7594.80273 13511.76172 1143.79822 495
7756.85352 13799.70410 1427.24707 468
7577.19678 13283.82031 -117.89024 477
7533.34814 13202.82617 132.84746 488
7511.64551 13166.00488 377.69397 374
7670.15283 13449.24707 636.73773 496
7669.56885 13452.80078 889.77338 495
7603.92432 13336.22559 1133.35388 390
7850.77295 13765.78418 1428.95813 468
7667.34961 13254.55957 -119.51844 477
7621.17236 13172.69141 130.96419 487
7599.81982 13138.38770 379.38861 374
7774.38330 13442.64160 640.26569 495
7774.62939 13444.57129 894.54065 495
7620.80566 13170.39355 1124.66919 391
7942.51465 13734.32520 1427.65747 468
7755.23145 13223.33203 -117.00805 477
7711.86035 13142.84668 130.19499 487
7690.94824 13105.35254 380.41949 374
7865.57373 13410.15234 639.06421 495
7854.06104 13388.50293 894.01013 473
7699.13818 13121.98828 1126.41321 495
8035.93555 13702.05469 1430.71240 467
7847.82080 13188.58398 -155.70532 476
7803.68506 13110.58594 94.65020 487
7781.89502 13078.44922 342.54294 374
7876.32422 13239.58203 596.58521 424
7835.25977 13171.33203 846.63147 492
7791.22314 13088.25879 1089.97888 494
8133.64697 13672.46191 1394.38196 470
7936.78711 13157.19629 -156.24026 476
7890.39502 13081.91797 94.33343 487
7870.20508 13046.29004 344.15421 373
8050.10352 13344.89453 603.04590 495
8052.86523 13349.64258 858.70245 494
7877.15723 13058.34180 1091.44556 494
8223.39355 13637.24512 1396.90955 470
8027.40430 13126.98145 -157.02835 476
7983.84668 13049.08594 94.41904 486
7963.46973 13016.22168 343.19595 373
8139.26611 13311.23633 601.71051 494
8141.47119 13315.69141 858.34070 494
7968.86768 13027.55078 1095.10645 494
8321.68262 13606.39746 1396.61267 469
8118.54053 13095.39160 -155.14973 476
8074.16211 13021.17676 96.37641 486
8054.04150 12986.72461 343.03012 373
8232.80957 13280.32715 603.18842 494
8235.18750 13281.36035 860.85272 494
8217.16602 13254.30273 1112.20251 329
8427.72363 13591.70898 1399.39697 440
8209.15723 13064.97461 -156.41412 475
8164.89209 12987.16016 95.11121 486
8142.06299 12955.48242 343.25125 373
8360.51270 13305.07715 608.55499 428
8363.72070 13307.96680 862.38562 428
8367.26660 13310.05273 1121.09729 351
8304.23242 13033.94238 -156.89659 475
8254.44434 12958.31641 93.18114 485
8233.72266 12926.65137 345.26147 373
8479.80273 13309.34180 609.41376 456
8493.12891 13337.08203 868.88843 427
8505.77051 13355.23926 1126.92957 342
8394.33496 12999.22852 -157.77019 475
8346.33398 12923.15723 97.38725 485
8325.00098 12894.56543 347.27243 441
8591.07910 13309.38574 609.15308 455
8625.72168 13363.29688 871.43127 454
8655.20020 13407.15430 1137.09387 341
8488.95898 12968.56055 -158.31987 474
8438.03027 12892.81445 96.28634 485
8416.94629 12862.95898 347.00217 441
8708.18848 13309.60938 614.90179 455
8745.12012 13363.01074 878.10565 454
729.23517 976.31207 -5.13630 385
8580.02734 12935.30664 -159.33594 474
8529.55469 12861.29883 97.11108 484
8511.02930 12833.44043 344.51001 441
8824.42871 13309.29590 613.80664 454
730.64435 965.73798 -4.04373 444
733.34259 969.58032 14.67895 443
735.76263 973.06311 33.59855 443
738.95630 978.21094 52.34056 314
8669.91992 12903.68555 -160.24110 474
8621.37109 12828.82324 95.36547 484
8602.54395 12797.88379 345.94769 441
735.52777 960.12927 -3.79214 498
737.55341 963.21710 15.08554 498
739.74811 966.12622 33.71764 498
741.70831 969.29749 52.77813 497
743.73004 972.23499 71.76236 481
8764.74316 12874.72949 -160.15175 473
8715.63867 12797.55273 95.47773 483
8694.36719 12768.61230 346.52704 440
741.71295 956.65552 -3.80488 490
743.96509 959.81287 14.70545 489
746.01440 963.10297 33.77280 457
748.29382 966.39514 52.60964 456
751.12335 970.19843 71.46286 397
8858.32520 12842.19824 -158.83237 473
8806.16016 12767.68359 94.37306 483
8786.16406 12735.33984 346.73773 440
750.07202 955.96527 -4.39619 404
752.92242 960.49506 14.44556 403
8953.23535 12806.39453 -159.57997 472
8901.89453 12732.85449 96.16061 483
8882.01465 12706.09668 349.56833 440
9047.36621 12778.06543 -159.61218 472
8996.33984 12701.73730 94.13071 482
8973.12012 12671.96387 349.03177 439
9141.55957 12741.86621 -159.56892 472
9086.28223 12671.96191 97.35570 482
9067.53613 12641.61133 348.98914 439
9233.61816 12712.33789 -162.30553 471
9184.09961 12636.26562 93.69837 481
9163.05566 12608.71582 351.88913 439
9328.56348 12677.22656 -160.16331 471
9278.25000 12604.80469 94.72588 481
9257.56934 12575.61133 348.66159 438
9424.89648 12645.54492 -160.48175 470
9370.85449 12572.25195 96.90063 481
9350.81641 12545.67773 349.90244 438
9521.95117 12611.86719 -160.97707 470
9465.69336 12538.49023 97.57382 480
9447.98340 12512.87695 349.53900 438
9615.34863 12580.76074 -161.43306 470
9564.77344 12508.02441 97.63164 480
9542.61328 12480.42676 351.63568 437
9715.21777 12545.05859 -162.88901 469
9657.54297 12473.68359 96.25874 479
9639.83887 12448.16504 351.14340 437
9810.13770 12513.04004 -161.92461 469
9756.83789 12439.58984 96.27893 479
9736.96191 12413.90137 351.39084 436
9908.99316 12479.28613 -162.89133 468
9852.75781 12404.84863 93.82205 478
9830.36621 12383.69727 352.64639 436
10006.46582 12445.40820 -165.13246 468
9951.23438 12375.78027 95.49728 478
9931.06738 12347.62012 351.76138 436
10102.23340 12412.58496 -166.50066 467
10045.72070 12341.59863 96.56072 477
10028.79102 12314.22656 356.08020 435
10204.41895 12377.03711 -167.32669 467
10143.18945 12305.24219 93.98949 477
10125.91797 12280.11719 357.05814 435
10299.68555 12343.11523 -168.70682 466
10244.52441 12274.25586 94.44627 476
10225.19434 12245.89746 357.21475 434
10401.44922 12307.49023 -167.62756 466
10342.60059 12236.07422 93.50749 476
10320.75391 12214.66406 356.30725 434
10500.42383 12272.06348 -167.43266 465
10443.21973 12202.30469 94.24257 475
10423.77051 12179.45605 354.76486 433
10601.01660 12240.98145 -168.32721 465
10543.83398 12171.42969 94.13832 475
10519.43164 12144.34473 358.05878 433
10700.60547 12203.92871 -171.44527 464
10642.77051 12134.85449 96.35595 474
10620.91309 12113.71191 358.26410 433
10804.47070 12170.72266 -172.06392 464
10741.62891 12100.18750 97.19347 473
10722.27539 12079.21289 360.99084 432
10904.05371 12132.94629 -168.64670 463
10846.61035 12065.41211 93.52797 473
10824.89941 12044.64844 361.17871 432
11009.69238 12098.94727 -171.96375 463
10946.55176 12028.51758 95.59921 472
10924.05664 12008.68945 359.07410 431
11111.16699 12066.20996 -174.11647 462
11047.52734 11996.65820 94.40527 472
11030.16016 11971.57129 360.99554 431
11214.79004 12030.13477 -171.24098 461
11153.32324 11961.16406 97.89285 471
11130.41895 11938.28027 362.53259 430
11317.72363 11992.98438 -173.35779 461
11254.30859 11925.30957 93.85287 471
11232.95508 11902.81250 363.48196 430
11422.37207 11958.77148 -172.79216 460
11360.25781 11890.52734 96.71522 470
11339.29590 11867.87500 362.13232 429
11528.95898 11922.16113 -175.55028 460
11465.20312 11852.51465 93.93900 469
11444.73047 11833.28027 366.43796 429
11644.17383 11889.13184 -177.30672 443
11567.43066 11817.12891 96.17142 469
11548.92090 11795.19141 363.21585 428
11760.28223 11864.61621 -176.87497 442
11675.67188 11780.24805 94.79480 468
11653.04980 11756.66113 364.90076 428
11879.66309 11841.66602 -178.54794 442
11792.64551 11751.98438 94.02056 443
11763.54688 11719.99707 366.44031 427
12000.85742 11815.46484 -181.09834 442
11914.52734 11728.14648 97.30733 442
11870.23926 11690.85254 367.10049 394
12122.76074 11793.62402 -181.34006 441
12032.81543 11703.66309 97.62479 441
11988.09668 11659.10547 370.26303 393
12246.38770 11768.43652 -182.60765 441
12159.78320 11679.51367 95.30347 441
12101.89062 11626.98828 367.05930 393
12397.87695 11769.87500 -181.50177 372
12280.87793 11659.06055 94.30034 441
12217.79883 11597.04395 372.34824 392
12568.59473 11786.64648 -188.18750 371
12406.80176 11635.08203 95.99048 440
12342.76953 11570.36719 371.10480 436
12744.26660 11805.14941 -190.18991 370
12532.17285 11611.01758 96.92891 394
12474.83887 11554.82520 374.08704 436
12925.17969 11828.65527 -189.58354 342
12688.00879 11613.75098 97.09685 393
12606.51465 11536.34668 375.96658 435
12849.65820 11615.85156 96.51647 392
12739.82812 11514.01270 377.45108 436
13018.09180 11621.74414 93.62505 370
12875.72949 11498.29883 375.91583 435
13200.15527 11641.03516 96.98549 342
13015.09570 11475.67090 380.12381 435
13420.02734 11692.22266 93.64931 341
13161.80664 11465.32812 379.70755 370
13351.37793 11488.63281 382.32663 369
13541.61133 11511.66211 386.87863 368
13741.46875 11535.13281 388.95178 371
61423.17969 23807.23828 -1045.82788 1000
15218.44824 4123.49072 2175.13062 1000
3650.50684 900.76746 6.84099 464
3659.96875 903.17450 66.79651 371
44803.49219 6447.29346 -2138.29956 1000
17528.95703 -1138.41382 3594.84741 1000
4958.39404 -378.76294 47.96953 275
4909.03076 -404.32526 49.40409 463
4889.39062 -432.85715 49.71690 463
4873.63721 -460.47610 49.99302 484
4860.99902 -489.34097 50.17915 484
4850.70508 -517.15369 50.40347 462
4843.13770 -546.22931 50.71965 462
4834.99951 -575.16284 50.99725 461
4829.69336 -603.32141 51.08365 463
4824.06250 -632.37122 51.20064 463
4819.57617 -661.18494 50.39273 386
4816.98193 -691.05524 50.62284 386
4813.58594 -719.77771 51.46020 386
4812.05664 -749.13184 51.17803 386
4811.02246 -778.65717 51.45343 385
4808.06738 -808.76306 50.57833 385
4806.76172 -838.08447 51.46477 385
4915.10303 -856.95502 208.99283 498
4804.14551 -867.96295 51.21026 385
4801.96191 -896.29578 51.13492 385
4800.04590 -926.15393 50.49908 385
4797.27979 -956.03979 51.43372 385
4794.67920 -985.67450 50.25082 385
4792.85693 -1015.42566 50.31855 384
4790.39648 -1044.74121 51.41963 384
4788.49170 -1074.77625 50.35918 384
4786.09131 -1104.68958 50.82499 384
4784.00391 -1135.22021 50.44793 384
4781.07568 -1165.14392 51.09949 384
4778.62646 -1194.98242 51.33789 384
4775.93945 -1225.04456 50.59335 384
4787.41113 -1258.47266 50.13550 364
4762.35938 -4949.28906 133.11009 416
4706.34766 -4949.96436 133.04459 418
4650.43555 -4949.19629 132.35049 418
4594.07031 -4949.55811 132.34879 286
3549.90918 -3849.88599 47.66946 443
4573.90088 -4988.79688 131.87709 445
4569.54346 -5045.20410 132.58344 407
4569.88574 -5108.35205 132.17099 411
4571.44629 -5175.31152 131.63492 386
4572.15723 -5239.16797 132.19511 387
4571.77295 -5303.77100 133.19621 406
4572.36279 -5370.87939 132.75139 405
322.03906 -321.24155 32.72340 1000
29755.44922 -40858.64844 6781.10352 1000
768.70294 -1026.44800 11.08516 298
768.09851 -1025.61682 31.29502 371
767.69287 -1024.86108 51.63873 372
767.31976 -1024.10205 71.91047 372
766.80511 -1023.50787 92.21941 433
766.41010 -1022.92365 112.04230 433
766.23059 -1022.65607 132.40059 433
765.84253 -1021.84753 152.30305 434
765.45453 -1021.46454 172.32349 477
765.29382 -1021.15192 192.60425 477
764.93341 -1020.71173 212.40436 477
764.79755 -1020.17615 232.76398 476
764.47931 -1019.81592 252.93652 476
760.29700 -1027.45142 11.37940 493
760.22046 -1027.12000 31.59807 493
759.93463 -1026.97070 51.89930 466
759.93958 -1026.93115 71.93991 466
759.74640 -1026.70959 92.09901 466
759.86554 -1026.58105 112.06245 466
759.85834 -1026.58386 132.28511 467
759.73547 -1026.24426 152.25369 418
759.77496 -1026.28125 172.40894 417
759.76398 -1026.27368 192.51619 417
759.56024 -1026.24927 212.83685 417
759.84583 -1026.61951 232.77353 352
759.79651 -1026.70435 253.21867 351
3064.23828 -5880.49268 136.00148 419
3011.13403 -5862.26562 135.92206 430
2959.53052 -5851.19189 135.18349 428
2911.58521 -5842.47412 135.19434 407
2863.60156 -5836.45410 135.62497 412
2818.37866 -5831.78516 135.69116 395
2773.84766 -5828.16992 136.52299 396
2785.21680 -5854.42383 240.39438 477
2729.35815 -5824.58008 136.47037 398
2742.87378 -5854.65234 241.63959 478
2684.67017 -5823.08545 136.68291 400
2695.72607 -5848.24951 241.11790 478
2701.73486 -5860.70557 346.12396 430
2641.61279 -5821.80273 136.08687 403
2654.29297 -5849.85498 239.95564 479
2598.68164 -5821.85742 135.05568 403
2612.20605 -5853.32178 239.76978 474
2555.54639 -5820.29639 136.86829 404
2571.88672 -5855.35791 240.01456 480
2514.05225 -5819.93018 136.73885 404
2528.66528 -5853.68213 239.41734 486
1357.08496 -3098.10083 79.46027 262
1442.99133 -3307.05103 134.00806 368
2490.19434 -5860.51318 239.16031 499
2529.23706 -5959.76758 347.03760 479
1314.90234 -3046.40698 80.63071 417
1413.96924 -3293.76880 134.39873 467
2499.17871 -5990.84473 241.96690 342
2492.02271 -5972.20068 347.58456 482
1299.57227 -3063.51440 80.17075 423
1391.03479 -3295.38892 133.94586 467
2499.42407 -6099.89600 243.60640 340
2436.09717 -5938.12109 345.43250 473
1287.14880 -3085.65210 79.92944 419
1368.25586 -3296.83203 134.21320 468
2409.04126 -5976.69238 345.80518 287
1274.55054 -3109.84888 80.00151 415
1346.29041 -3297.62036 134.68152 468
1260.35034 -3132.40186 79.81738 262
1323.14795 -3299.45117 134.82294 468
1248.12366 -3158.87402 79.59312 375
1301.05042 -3301.18823 134.31648 469
1236.10962 -3186.00293 79.16728 420
1278.57214 -3302.11426 134.02815 469
1224.68188 -3215.68628 78.96046 398
1256.42444 -3303.48096 134.91856 470
1214.83887 -3251.68701 78.65439 390
1234.14001 -3305.36694 134.36566 470
1206.35669 -3292.20166 77.34047 347
1216.52783 -3321.72437 134.76758 465
1201.04907 -3342.21289 77.30431 332
1206.46313 -3359.97998 135.04915 351
1203.47766 -3421.81421 75.51709 297
1294.28308 -3698.76660 134.96053 435
1211.41248 -3517.07593 74.51810 305
1270.41772 -3700.55420 134.93117 381
2035.05286 -6100.91602 241.21417 384
1225.34045 -3639.10864 134.50655 298
251.92715 -1528.57300 32.73380 261
251.90192 -1527.55798 57.97485 338
251.76279 -1526.64868 83.23878 338
251.53360 -1525.59338 108.44945 338
251.81258 -1524.38647 133.70956 338
251.43552 -1523.94531 158.86763 406
251.53548 -1522.97205 183.63025 406
251.60872 -1522.50635 208.86493 406
251.31076 -1521.75330 233.98982 406
251.35069 -1520.94470 258.85455 406
242.06537 -1525.60986 32.99890 443
242.05943 -1525.27112 58.34639 443
241.94810 -1524.54919 83.35477 443
242.02461 -1524.13892 108.63891 444
242.25327 -1523.91541 133.53993 444
242.00919 -1523.65613 158.71535 444
241.93329 -1523.19995 183.52275 444
241.94533 -1522.70361 208.93419 444
242.19156 -1522.31921 234.05591 443
241.93561 -1521.76624 259.28900 385
-258.25342 -2023.43872 33.47181 487
-258.09897 -2022.63269 66.94846 499
-257.85428 -2021.62817 101.00825 499
-257.56610 -2020.39600 134.54953 499
-257.53809 -2019.61475 167.70409 499
-257.27823 -2018.53345 201.73611 499
-257.20187 -2017.42603 235.23900 499
-256.88269 -2016.46997 268.82910 486
85.47653 -14.57680 133.47675 1000
-6621.23389 -18171.70312 2381.68237 1000
-19008.47461 -38727.39062 -3363.76367 1000
-17716.59375 -26066.29883 -7743.45850 1000
-42758.90234 -49883.20703 -7375.93652 1000
-35180.79688 -27297.30469 -7200.85742 1000
-12322.31641 -7166.78906 -2955.26538 1000
-46895.76953 -21639.81641 8695.00195 1000
-263.18140 -75.07307 36.08113 321
-261.21124 -72.34737 36.70153 321
-259.26083 -69.76791 37.35838 322
-279.50107 -73.80602 38.43520 318
-259.23834 -67.52552 37.50772 349
-277.37262 -71.08288 39.12880 321
-261.12006 -65.67773 37.09042 351
-275.68265 -68.43879 39.65985 345
-263.02789 -63.74947 36.70268 351
-277.48508 -66.39661 39.27723 345
-295.31607 -69.60205 41.52652 319
-54490.05078 -9935.68164 -1674.71680 1000
-264.88828 -61.83609 36.28822 350
-279.37439 -64.41883 38.84302 347
-295.52673 -67.29417 41.54831 340
-268.06787 -60.19707 35.55354 326
-282.18881 -62.55992 38.30625 324
-298.61118 -65.39210 40.90728 315
-22935.24609 -3899.82202 518.06458 1000
-273.84351 -58.90266 34.04346 320
-287.90948 -61.17353 36.93006 323
