# .PCD v.7 - Point Cloud Data file format
VERSION .7
FIELDS x y z rgb
SIZE 4 4 4 4
TYPE F F F U
COUNT 1 1 1 1
WIDTH 734
HEIGHT 1
VIEWPOINT 4171.717285 -4087.729980 133.646011 -0.001305 -0.133873 0.002351 0.990995
POINTS 734
DATA ascii
-40413.74219 3636.13501 10311.38770 1000
-59806.03516 6498.78711 11086.71582 1000
-277.08160 58.13824 33.13777 320
-17017.84766 2714.84424 1267.10242 1000
-270.81308 59.44845 34.84122 321
-285.13116 61.74643 37.48925 323
-265.78134 60.84104 36.06435 350
-280.36020 63.34274 38.59482 347
-296.43460 66.04886 41.28915 341
-263.94556 62.70765 36.49887 351
-278.33313 65.23679 39.03464 345
-294.55893 68.19498 41.65753 340
-262.04239 64.60461 36.91851 351
-276.56827 67.25601 39.41381 345
-295.97504 70.79741 41.23888 318
-260.10938 66.48483 37.33091 352
-276.25659 69.54201 39.33002 321
-258.34460 68.32951 37.64263 350
-278.14099 72.26701 38.84534 318
-260.03342 70.88332 37.14704 322
-262.07285 73.53840 36.41735 321
-264.06943 76.23261 35.80692 321
-38826.42188 23543.32031 -586.64917 1000
-31921.74023 20718.70312 8391.15723 1000
-29898.77930 21311.51562 -4687.51514 1000
-6056.52295 7185.67041 -1580.49561 1000
-6144.28320 7286.67920 -488.67990 1000
-5382.27588 27218.66211 -6802.24951 1000
-278.73566 1952.51184 3.61918 476
-280.36337 1960.58069 35.77924 372
-266.12244 1953.43958 3.44489 494
-266.87454 1957.16504 35.93897 494
-267.57584 1961.53577 68.47366 496
-256.07291 1966.40857 2.66669 354
-1962.64062 32291.46484 150.70802 1000
1192.02283 15414.24316 139.26698 469
1294.51672 15477.45703 -112.64990 468
1285.57043 15377.94727 140.07582 473
1387.01538 15445.59277 -115.02749 458
1378.98828 15339.72461 138.71455 473
1374.75403 15326.95801 392.78122 466
1479.98914 15412.44629 -114.24489 456
1467.96301 15305.05762 140.75937 477
1465.39844 15281.98535 390.60428 461
230.49742 1463.33862 -11.78687 373
1571.34375 15376.52441 -111.77658 456
1560.07825 15273.63477 140.85440 477
238.40643 1454.71155 -11.17896 477
238.80525 1458.70386 12.72006 477
239.61295 1464.65906 36.27848 447
1662.86719 15346.34180 -111.89394 456
1650.84497 15241.61523 138.06448 478
247.43196 1452.42090 -10.94902 494
247.92395 1456.15991 12.94664 493
248.01620 1460.17920 36.52994 494
248.55170 1463.38062 60.77527 491
1754.79419 15314.66992 -112.29678 457
1741.56238 15210.88965 138.65353 478
1939.35815 17012.50586 419.38959 466
256.44998 1455.38513 -11.11772 416
257.00906 1460.00098 12.49603 416
257.82724 1466.91223 36.37246 274
1846.58923 15281.76465 -115.13594 457
1835.39075 15179.94336 140.61034 478
2038.60583 16946.65625 419.83237 467
1938.34680 15247.28516 -113.20016 457
1925.07410 15149.13379 140.35216 479
2028.72876 15213.99707 -111.89728 457
2013.51074 15115.25586 138.60260 479
2118.35083 15185.16113 -113.12772 458
2107.58252 15084.45215 138.61980 479
2208.57129 15150.88477 -113.36059 458
2194.95142 15054.47266 138.19797 479
2300.52173 15117.44043 -112.43327 458
2285.06519 15021.04492 139.73952 480
2388.50244 15088.66113 -112.09609 458
2375.70972 14991.45117 137.09296 480
2477.02295 15056.78906 -110.23038 459
2462.41528 14959.76270 139.00713 480
2568.98413 15024.77930 -110.16529 459
2554.78979 14926.48242 136.13879 481
2845.60693 16692.30078 414.19861 297
2659.70386 14991.03516 -112.11037 459
2641.83667 14895.19531 136.11934 481
2942.32715 16648.55664 412.82004 297
2748.08838 14958.64160 -110.34370 459
2728.55835 14867.60938 137.49338 481
3042.84155 16610.75586 414.85510 412
2834.44336 14929.63672 -111.36022 460
2818.09961 14835.08301 137.95518 481
3138.52295 16574.06836 414.78976 412
2925.97437 14895.51172 -112.04512 479
2906.66113 14804.10938 136.79697 481
3238.02075 16535.10547 411.22955 412
3013.44312 14865.54297 -111.53732 479
2997.37329 14773.36133 138.70346 482
3335.77197 16501.33789 413.23325 412
3101.84546 14833.99512 -112.04120 479
3082.72314 14742.60742 137.21217 482
3430.85571 16461.11914 412.23047 413
3191.01270 14804.25977 -111.20379 479
3170.22437 14712.20117 139.11534 482
3528.62646 16426.63672 413.01273 414
3280.09668 14770.68359 -111.07945 479
3259.21045 14680.13184 136.08243 482
3258.05908 14681.43359 380.73132 300
3367.03149 14740.47070 -108.68863 479
3344.65869 14652.80078 136.72554 482
3348.43945 14652.52148 383.99625 300
3455.88208 14709.23633 -111.00371 480
3433.58374 14620.95703 136.07837 483
3432.30103 14620.37695 384.35147 301
3542.09180 14680.86523 -109.12849 480
3520.21680 14588.11914 137.86617 483
3523.30469 14586.77051 382.84100 301
3629.15186 14649.93750 -108.58974 480
3607.94922 14559.99609 134.89012 483
3609.54150 14556.44824 383.08722 301
3720.17847 14616.32617 -111.18206 480
3694.00464 14530.50195 138.62296 483
3693.50757 14527.03320 383.09058 301
3803.76880 14588.77148 -111.90311 480
3784.55151 14499.86230 134.48332 483
3783.86597 14495.31934 382.03986 301
3893.57788 14557.59766 -108.92882 480
3870.78589 14467.63574 136.87177 483
3871.20020 14463.35645 382.95813 301
12941.79297 49184.22266 12000.00195 1000
3981.69141 14526.08398 -111.26659 480
3956.14502 14438.91797 137.66434 483
3953.67017 14434.20020 379.76041 301
4070.03369 14497.64551 -109.51178 481
4043.55933 14405.41797 135.64549 483
4042.29810 14401.93750 380.88254 301
4156.16504 14464.58691 -111.42758 481
4130.66260 14375.43945 138.00517 484
4127.39258 14372.89746 378.76904 301
4240.96045 14434.23145 -107.64130 481
4215.42334 14348.66504 135.63106 484
4214.10254 14340.37305 381.67053 301
4328.69043 14402.75879 -109.69138 481
4305.35156 14317.56348 136.50612 484
4302.51123 14310.35059 380.28098 301
4418.38477 14373.84863 -108.06924 481
4389.44189 14287.76660 136.01562 484
4387.24463 14281.32617 379.22076 301
4594.62646 14964.39648 645.59216 493
4502.60059 14345.14258 -111.66669 481
4478.40039 14257.25879 136.11389 484
4472.78516 14249.08496 379.23175 301
4680.12061 14919.11328 648.13580 494
4590.05713 14312.09375 -108.25881 481
4561.95898 14224.82715 133.70674 484
4561.40723 14219.03418 379.61188 301
4767.01025 14868.00000 647.54736 494
4676.20996 14283.24512 -108.88968 481
4647.66309 14194.71777 134.28609 484
4645.82031 14188.76074 381.40225 301
4849.02881 14822.83105 643.48419 494
4762.17334 14251.66602 -109.09206 481
4735.20947 14166.94531 135.31204 484
4732.53027 14159.61133 379.22678 301
4935.27002 14772.67188 642.59082 495
4850.29834 14223.96289 -111.33426 481
4820.04688 14136.85840 135.18008 484
4818.57959 14126.67871 378.41678 301
5018.86670 14725.99414 643.53857 495
4937.49805 14191.36621 -110.23425 481
4906.67285 14105.34570 135.82014 484
4907.82568 14097.88965 377.09628 301
5106.60645 14682.36621 642.92517 495
5024.69482 14160.11133 -109.97389 481
4995.66797 14076.93945 135.41891 484
4990.43604 14066.35254 377.97882 301
5190.24463 14634.88379 641.87897 496
5113.76123 14132.99219 -108.44923 481
5079.71338 14045.59668 136.57704 492
5077.78027 14039.57617 379.58490 301
5273.34082 14588.87109 642.54822 496
5196.51709 14099.64062 -108.47677 481
5169.45557 14013.08496 133.76164 492
5165.76904 14008.87695 378.05569 301
5358.25342 14540.08691 642.55139 496
5285.11719 14069.14551 -111.77538 481
5252.23340 13985.04102 132.88239 492
5251.54590 13979.51758 378.67438 301
5446.16943 14508.48633 641.60522 499
9766.20703 26203.11133 2888.31226 1000
5371.82227 14041.94824 -109.85295 481
5340.96045 13956.81641 134.21674 492
5338.28857 13946.73145 379.32050 301
5535.99121 14473.66602 639.02924 499
5459.17090 14009.70020 -108.72462 481
5425.72119 13923.80957 134.05684 492
5425.93604 13917.27637 379.01971 301
5624.85205 14441.19434 640.52728 499
5544.73779 13978.76953 -109.31847 481
5512.00000 13895.67285 134.47285 492
5511.07275 13888.94336 377.47513 301
5716.15820 14411.46387 639.47382 499
5632.98486 13950.44434 -110.42734 481
5601.09668 13867.00293 133.13321 492
5595.47217 13860.09863 378.92935 301
5805.23682 14380.56738 639.68402 499
5722.02490 13917.99414 -111.40778 481
5687.20703 13834.31445 134.56889 491
5685.83301 13830.09473 380.42685 301
5895.53564 14346.42090 639.42029 499
5806.20166 13887.04492 -111.01983 481
5771.54443 13806.47266 133.14938 491
5770.33740 13798.30469 378.80045 301
5982.79541 14313.46777 639.70038 499
5896.19629 13856.64648 -110.39384 481
5858.64209 13776.22363 135.36520 491
5856.84814 13766.55859 380.23523 301
6073.43506 14284.07422 639.88544 499
5979.76025 13825.86621 -113.55628 481
5948.53613 13743.20996 133.80463 491
5943.17627 13740.27832 378.29681 301
6119.59668 14153.28809 636.91650 497
6068.92920 13795.58496 -111.49403 480
6032.00879 13715.63867 133.71570 491
6032.32324 13706.91602 378.49426 301
6209.20068 14121.04199 638.17780 493
6269.13770 14258.24512 898.74268 499
6156.02393 13766.40625 -114.05484 480
6122.63770 13683.89258 133.48067 491
6118.31787 13679.15430 377.12476 301
6296.39160 14088.38184 638.41687 492
6361.00098 14229.54883 896.23901 498
6437.10010 14396.90625 1164.09790 469
6244.52344 13737.26465 -110.95590 480
6208.84668 13655.69141 134.16458 491
6205.31592 13651.05176 378.55490 301
6386.42480 14054.51855 636.30145 492
6450.35205 14195.35254 899.07617 498
6508.19775 14325.65918 1163.79028 482
6330.50000 13705.96191 -114.63150 480
6296.55420 13623.30664 135.08255 491
6291.35986 13621.10254 379.86954 301
6476.98047 14019.91992 640.34906 492
6540.50293 14164.40918 898.34796 498
6629.21973 14359.82324 1166.74158 348
6419.10449 13672.92285 -113.35258 480
6382.90967 13594.37891 133.18983 491
6379.28174 13588.48145 377.21933 301
6610.01953 14089.42090 640.78235 498
6616.34180 14099.59863 898.70441 469
6633.22705 14135.59570 1153.02661 372
6507.25830 13645.47949 -113.45151 480
6471.11084 13565.16895 131.89061 490
6466.07764 13557.61133 376.80508 301
6677.67188 14011.46191 641.80560 470
6682.02979 14011.95605 895.71173 470
6694.46484 14040.51660 1152.98755 372
6596.00732 13613.11621 -111.83456 480
6558.38281 13535.81934 133.64534 490
6554.52539 13531.14453 378.75705 295
6743.13818 13922.86035 640.43677 471
6743.91602 13927.43066 891.31183 470
6756.00977 13951.39453 1146.31787 373
6680.78760 13582.29785 -114.72186 480
6644.79980 13503.77148 133.26730 490
6644.34521 13499.37695 380.84503 295
6809.23584 13836.80078 637.71466 471
6808.84180 13843.18164 889.94183 471
6815.18994 13859.18750 1142.32288 373
18795.16211 37939.80078 -5433.61133 1000
6769.09277 13552.55762 -113.46019 479
6734.06885 13473.19141 131.43544 490
6732.25098 13472.50098 380.19199 295
6877.51074 13764.20508 634.52789 498
6876.37256 13768.48633 887.06769 497
6883.64062 13779.07812 1141.74731 390
7090.76465 14197.80957 1432.43799 263
6858.45752 13521.85156 -113.94970 479
6819.91064 13442.24512 131.99635 490
6817.87549 13440.53027 378.77026 295
6964.19043 13734.45605 636.73175 497
6969.00488 13734.76367 889.47186 497
6971.21631 13749.67188 1140.07751 390
7117.73486 14040.42676 1419.97034 478
7336.21777 14473.10254 1726.45679 364
7337.60254 14477.69141 1997.09314 282
6949.17578 13491.94141 -113.02386 479
6910.33691 13413.42090 133.52805 490
6909.62012 13409.80859 377.54443 295
7042.28564 13675.39844 634.78949 497
7043.67432 13675.50195 889.10901 497
7061.34082 13714.82324 1141.47998 389
7212.89111 14008.56445 1421.51770 478
7037.57275 13460.66992 -115.74293 479
6998.46338 13381.25000 134.30626 489
6997.09473 13383.66113 380.58380 295
7131.56299 13644.16504 636.75543 497
7129.71582 13646.32910 888.70416 497
7152.03662 13684.68262 1140.43335 389
7302.69678 13973.69629 1423.32996 469
7123.66846 13427.92969 -114.29508 479
7082.63428 13350.00293 133.48752 489
7083.97656 13352.85547 380.23453 295
7219.32129 13609.99805 634.51282 497
7221.92285 13612.14355 887.97668 497
7245.35449 13655.63184 1143.24341 389
7372.69775 13895.45117 1418.40149 466
7215.35156 13397.50488 -114.17436 478
7172.62109 13320.21680 132.79347 489
7174.59570 13321.08594 380.53000 295
7309.42480 13577.73242 637.61115 497
7309.91406 13578.78223 889.80945 496
7331.82080 13625.12305 1144.45215 389
7488.24023 13909.69824 1426.86157 468
7303.56250 13367.72461 -116.60770 478
7259.94971 13292.07227 130.82896 489
7262.03711 13292.16797 379.67151 295
7399.71191 13547.75488 638.04333 496
7402.77832 13548.94434 887.35974 496
7426.59082 13592.17285 1145.20728 389
7576.27441 13877.97754 1426.15967 468
7393.45898 13336.28711 -114.58974 478
7350.12939 13259.74707 132.05983 488
7351.93994 13262.50000 378.54901 295
7490.90381 13514.58887 637.64154 496
7492.40674 13515.25977 889.65479 496
7513.28076 13558.39160 1144.00671 389
7669.75879 13844.58398 1425.77637 468
7480.64600 13302.31055 -114.93085 478
7440.67871 13227.15820 133.64268 488
7440.45947 13234.58496 378.55536 295
7579.12842 13479.30957 637.62781 496
7580.84961 13483.33398 891.10382 496
7607.67773 13526.77734 1147.71021 389
7763.47949 13813.23730 1426.10168 468
7570.61328 13272.46191 -118.40508 477
7528.87207 13196.84277 130.65672 488
7530.81494 13204.06250 380.84299 294
7670.17432 13447.49512 636.00311 496
7670.83252 13450.59375 892.87164 495
7698.62500 13498.01855 1148.78259 389
7856.79248 13780.51172 1430.72815 468
7660.73047 13239.84766 -118.69269 477
7620.10059 13168.98926 133.14459 488
7623.33887 13174.77344 382.45959 294
7774.37012 13440.30273 640.02008 495
7779.15430 13443.10938 893.58234 495
7629.71680 13190.47949 1130.10925 391
7951.23975 13744.67773 1431.34900 467
7751.71143 13209.23242 -116.62846 477
7709.49512 13135.21094 132.61711 487
7711.33789 13143.61426 382.70099 294
7866.69873 13408.21680 638.82318 495
7857.90332 13398.45410 893.14838 473
7699.12891 13119.21582 1124.48535 495
8044.09326 13712.23633 1433.09204 467
7843.09277 13179.57422 -85.44091 477
7799.57617 13104.26660 163.32953 487
7804.27393 13114.31543 410.77615 294
7864.19727 13213.29297 663.89069 457
7830.57275 13159.49512 914.23041 492
7787.42578 13084.30566 1157.08557 494
8134.55078 13674.06152 1464.11523 467
7934.84521 13148.10156 -86.45449 476
7887.44141 13072.50586 163.27544 487
7897.78174 13085.85938 413.18179 294
8050.46680 13339.51758 673.38196 495
8049.89453 13344.02637 925.91602 494
7876.07666 13054.58691 1157.39368 494
8227.81152 13642.29297 1464.69519 467
8023.94971 13116.42871 -87.33110 476
7978.18213 13039.66211 161.36444 486
7987.03027 13052.88379 411.34610 294
8140.61670 13309.32910 674.10687 494
8143.10840 13308.29980 926.02551 494
7967.84424 13022.24316 1159.37756 494
8321.79395 13608.78809 1467.31372 469
8115.69873 13083.54590 -88.89476 476
8068.05664 13010.29004 163.59802 486
8203.09375 13232.52441 417.55832 494
8232.66699 13275.21777 674.18341 494
8232.94141 13276.88672 928.95551 494
8244.77539 13294.47754 1186.01404 342
8428.11621 13596.65723 1474.09082 440
8206.67480 13050.00684 -90.18736 475
8161.79102 12979.75488 163.87575 486
8295.45801 13196.14746 416.12256 494
8354.62012 13291.15332 676.23529 428
8359.79102 13294.95215 930.45276 428
8389.22266 13344.71875 1192.85474 343
8296.99316 13021.67871 -88.45655 475
8250.73242 12944.74805 160.07959 485
8387.74219 13164.96680 415.19489 494
8481.04785 13309.25195 678.54694 456
8487.97266 13325.59668 935.37988 427
8535.31836 13394.76562 1199.99390 342
8390.07129 12988.90234 -89.79509 475
8342.69922 12914.15527 161.77032 485
8478.57715 13130.21680 417.11139 493
8593.25098 13306.28418 679.19086 455
8623.49805 13352.77148 941.14642 426
8481.83398 12956.10059 -88.81612 474
8431.96680 12883.31445 161.44966 485
8574.12500 13096.55859 419.47342 493
8709.97949 13304.58105 680.84198 455
8745.21875 13360.48926 943.52081 454
724.35089 968.06091 1.39202 443
727.04401 972.26471 20.05553 385
731.42181 978.75330 38.48283 313
8573.72852 12922.67090 -90.32907 474
8527.91797 12851.34277 160.74074 484
8683.36133 13090.59277 417.97266 396
8823.88184 13306.18555 682.69141 454
728.06635 960.72699 1.77390 482
729.88715 963.76215 20.66676 482
731.91064 966.52936 39.59443 482
733.79779 969.72766 58.27054 443
736.43542 973.31744 77.19197 421
8666.11328 12893.62207 -90.02375 474
8615.66309 12818.26367 163.43903 484
8811.19141 13111.06445 419.13486 395
733.44623 956.31927 2.00108 499
735.13678 958.84747 20.59645 490
737.28693 961.87531 39.34421 490
739.22180 964.64014 58.42932 490
740.99323 967.28802 77.37311 490
8759.19141 12859.84961 -90.50216 473
8709.69141 12785.85840 160.15967 484
8946.58984 13134.51270 422.22250 394
740.63159 954.33899 1.57614 458
742.83392 957.26007 20.30138 457
745.16742 960.85583 39.09264 405
748.15784 965.01709 58.07542 340
8850.99512 12826.20312 -92.96736 473
8802.57031 12754.49023 163.08194 483
9060.78027 13133.58887 422.21002 389
750.83179 956.53632 0.72809 337
8946.07031 12792.85254 -92.62071 473
8895.29297 12723.71387 161.40602 483
9174.40039 13127.23438 421.55817 388
9039.32617 12760.83398 -92.12960 472
8990.09082 12692.76855 162.16187 482
9289.06641 13117.44238 426.16135 388
9131.99219 12729.94238 -95.80264 472
9082.05176 12657.27148 162.37971 482
9403.72656 13113.01855 427.43134 387
9227.51660 12695.04395 -93.01608 472
9175.79004 12624.09082 162.09648 482
10134.23145 13955.49414 445.26691 414
9320.65723 12664.98242 -93.13692 471
9270.15332 12594.84180 159.11923 481
10234.76562 13916.39355 444.00055 414
9418.20996 12629.55469 -95.86339 471
9365.23926 12561.26562 162.78659 481
10337.18652 13875.90527 446.35547 413
9511.91211 12596.03027 -94.32997 470
9460.80469 12526.60742 160.68880 480
10442.46582 13837.52344 444.41415 413
9610.12891 12562.97070 -95.57468 470
9558.05859 12496.69531 159.00839 480
10546.26172 13800.42578 446.30115 413
9705.10449 12530.28906 -97.26151 469
9652.60742 12459.78418 161.55827 479
10651.93652 13763.24609 446.64783 413
9798.92969 12496.98828 -99.61903 469
9748.79004 12427.96680 161.61517 479
10756.25977 13724.25391 449.49921 412
9896.40820 12464.54004 -98.43950 468
9845.23242 12393.05859 161.75455 478
10858.28711 13681.87695 447.51746 412
9994.63574 12429.45410 -97.99445 468
9942.69043 12361.52734 160.71352 478
10966.50488 13643.79297 448.30359 412
10093.45605 12395.59180 -97.90398 468
10038.12109 12326.44043 159.23920 477
11068.81738 13603.48633 447.31641 411
10191.75684 12362.40527 -100.59952 467
10137.33105 12293.09961 161.99706 477
11179.26172 13564.55664 450.15851 411
10290.38477 12326.95605 -100.62492 467
10236.88086 12258.78223 158.53650 476
11283.53027 13528.18262 448.80515 411
10392.13770 12290.45996 -100.22421 466
10333.15918 12224.81250 161.08981 476
11390.80762 13487.14941 453.38290 410
10491.77344 12255.81152 -105.22236 466
10431.78809 12191.81738 160.50842 475
11499.03613 13447.76172 452.26514 410
10588.42773 12224.86914 -105.09782 465
10532.72168 12154.68555 157.74088 475
11606.84766 13408.55859 449.82764 410
10692.59082 12186.70117 -103.60175 464
10634.03125 12121.69238 161.02998 474
10789.94043 12153.63281 -106.73753 464
10733.44824 12088.66016 158.04166 474
10893.02637 12115.87109 -105.97657 463
10833.83398 12051.66992 158.99760 473
10997.47559 12082.20215 -107.57800 463
10935.72266 12016.22363 159.86430 473
11097.14551 12045.31055 -106.60952 462
11039.61523 11980.14062 158.58748 472
11199.56641 12011.33301 -107.28406 462
11143.32129 11947.46191 161.10153 471
4507.64697 4775.30225 676.71014 1000
11304.17090 11977.16211 -111.28975 461
11242.94824 11909.84082 159.87949 471
11411.74219 11938.54297 -107.72288 461
11349.36523 11872.40234 158.16714 470
11515.93457 11900.02051 -109.71538 460
11451.86133 11838.05957 160.78239 470
11626.00781 11870.14648 -112.82655 444
11558.13965 11801.91699 156.64694 469
12672.97363 12945.38281 457.17755 498
11739.45410 11844.18750 -111.62820 443
11663.60254 11764.29004 157.67818 468
11859.93359 11820.34570 -111.93836 443
11772.76660 11732.66016 159.89162 443
11983.33887 11794.43359 -113.24857 443
11891.82715 11708.69141 156.68163 443
12106.55566 11773.88770 -118.05235 442
12014.55273 11683.74805 156.43156 442
12229.92285 11749.55762 -118.68605 441
12135.86914 11659.84180 160.67122 441
12150.73730 11672.87598 435.01935 366
12363.57910 11732.93750 -118.99060 394
12260.24805 11635.50293 159.34514 440
12223.34863 11598.85449 435.32248 462
12520.33203 11740.14160 -122.39008 372
12385.06641 11612.98047 155.94731 441
12694.00293 11757.13770 -122.28267 371
12510.08301 11585.60059 160.43498 440
12868.47852 11775.63086 -127.72027 370
12650.48438 11572.17188 158.96257 393
13085.23730 11827.86328 -127.17508 277
12810.27441 11576.27734 156.08226 392
12968.47168 11579.19336 158.60822 391
13138.34961 11586.01172 157.57027 369
16131.32520 14070.98438 -2290.69702 1000
13339.39941 11615.75195 157.96846 341
13557.51270 11668.69238 156.13857 340
13544.28906 11508.97852 450.03311 377
13746.26074 11539.84375 449.74179 376
44721.33594 20876.91797 7490.22559 1000
27911.19531 10407.01465 -329.05453 1000
3654.85010 901.14410 14.57586 414
62034.05469 6213.10791 15754.79883 1000
4915.79980 -405.38956 53.56401 374
4938.20898 -436.95526 -26.59184 434
4903.34473 -434.44806 54.63386 397
4908.93164 -464.53513 -24.69285 414
4897.98779 -464.04089 54.10139 433
4890.66846 -492.96768 -25.23942 477
4875.15088 -520.39020 -24.95989 478
4864.39941 -549.46967 -24.41545 490
4855.78223 -577.52533 -24.70243 488
4846.79297 -606.18591 -24.06141 489
4840.24316 -634.78021 -23.85793 489
4921.91406 -645.94006 53.84215 267
4833.51807 -663.61823 -23.75525 488
4881.42871 -671.21155 53.50245 499
4827.90234 -692.89819 -24.31205 489
4880.17041 -700.85297 54.17765 499
4823.66064 -721.45966 -23.31672 489
4816.74609 -750.99353 -24.39660 340
4990.20752 -778.09351 51.68004 362
4813.22461 -779.13538 -23.32690 340
4878.69482 -790.30328 53.88169 498
4812.95410 -808.83148 -24.19707 340
3745.13989 -626.99768 683.02905 1000
4813.80273 -838.99286 -23.69659 463
4908.95264 -855.94031 212.51866 383
4812.92773 -868.41602 -24.58317 462
4810.24756 -899.11670 -24.91054 462
4831.56982 -903.14307 53.70512 498
4809.82031 -929.19110 -25.22686 462
4840.75977 -934.11597 53.91045 497
4807.54248 -958.51508 -25.50622 462
4805.45605 -988.72186 -25.06537 462
4803.81641 -1018.14899 -25.24841 461
4802.26807 -1048.51038 -25.04413 461
4801.72314 -1077.51782 -25.25353 461
4800.27148 -1108.03979 -26.58203 461
4798.30176 -1139.07092 -25.71898 461
4796.25342 -1169.18896 -26.75328 460
4795.82080 -1198.81006 -26.15056 460
4867.05176 -1217.24280 51.48986 330
29415.69922 -8831.83887 3148.70190 1000
12012.55469 -4910.75146 1614.92822 1000
3769.77710 -1928.09192 -4.26882 482
4678.65137 -4740.22412 23.22726 297
4652.97119 -4774.39795 23.23988 450
4636.22705 -4813.62695 22.74159 439
4616.74902 -4853.73047 22.50352 433
4601.57666 -4896.63184 23.29509 418
4586.94580 -4941.63184 22.18469 421
3552.42871 -3851.74097 47.52490 441
4573.08057 -5049.92334 21.21052 388
4573.02393 -5113.70068 20.52133 391
4574.25098 -5176.08350 20.36395 407
4573.29639 -5239.90869 18.86332 406
4573.33252 -5306.66895 17.99135 405
4573.23291 -5374.24512 17.57979 399
4574.67969 -5443.09668 15.80467 397
769.64081 -1028.08813 10.68598 298
768.98773 -1026.91296 31.22553 371
768.63654 -1026.21570 51.51691 371
768.10760 -1025.70911 71.75993 433
767.66528 -1025.05969 91.91125 433
767.65015 -1024.86963 112.19419 433
767.25409 -1024.56641 132.26767 477
767.06873 -1024.30127 152.18060 477
766.97650 -1024.04163 172.43149 477
767.00317 -1023.64581 192.48576 477
766.64087 -1023.52521 212.68420 497
766.89740 -1023.37048 233.05681 497
760.97278 -1028.49927 11.20869 493
760.77753 -1028.27722 31.29338 494
761.15900 -1028.39514 51.55743 466
760.97955 -1028.51978 71.93600 467
761.29181 -1028.79553 91.87808 467
761.22589 -1029.04333 112.01921 418
761.65625 -1029.26733 132.35091 418
761.68225 -1029.86133 152.52284 418
762.18207 -1030.43433 172.63568 352
762.71472 -1030.98279 192.78325 352
3064.75806 -5975.57422 11.03974 301
3036.88599 -5922.50830 120.11902 325
2995.03198 -5928.89307 13.03544 369
2933.55859 -5893.27100 13.33822 440
2867.61108 -5850.24463 14.73265 344
2817.68799 -5833.10254 15.57318 404
2770.40576 -5825.87305 16.41014 409
2823.82495 -5943.95801 120.07458 251
2788.50513 -5865.07861 226.56227 410
2723.82349 -5819.39355 17.44328 415
2741.12207 -5858.73828 120.84440 477
2744.79419 -5863.74512 227.25948 411
2679.72754 -5817.49756 17.71561 454
2696.43970 -5851.85352 121.64346 478
2700.16675 -5863.17041 226.83252 411
2637.09863 -5815.03223 16.49980 458
2652.92627 -5853.63867 121.73190 479
2657.24292 -5861.54297 226.16988 412
2594.78857 -5815.06348 17.21245 459
2613.42041 -5858.47607 120.27824 479
2606.42700 -5843.63916 226.20932 336
2551.91846 -5815.02539 17.37907 460
2570.80469 -5859.31055 121.91373 480
2563.81372 -5842.15918 224.28836 462
2510.85938 -5816.48633 17.38354 460
2528.73267 -5858.92236 120.45793 480
2521.43579 -5843.10010 224.65727 462
1384.76758 -3168.85791 70.34392 294
2487.63843 -5861.51074 121.65995 344
2478.57837 -5843.89697 225.43471 478
1335.52686 -3101.19702 16.93513 301
1335.97949 -3103.08862 72.09727 300
2487.02783 -5966.19727 121.64904 342
2475.21289 -5937.87549 226.58369 482
1314.57874 -3104.59204 17.46443 301
1305.74988 -3083.68799 72.69932 364
2488.22534 -6074.79004 120.74139 341
2465.98145 -6021.50830 227.52614 301
1293.51062 -3107.45654 16.99309 301
1291.68530 -3102.92188 71.88628 381
2408.89380 -5982.59668 330.93454 401
1279.32788 -3126.88770 16.80781 388
1277.33838 -3123.91284 72.10490 402
1267.69604 -3156.20337 16.28535 387
1264.25525 -3146.47534 71.18031 397
1256.77747 -3184.92676 15.56532 386
1251.67883 -3171.48169 71.35085 425
2236.22754 -5852.37451 121.68425 447
1246.21777 -3217.04980 14.12653 363
1239.27710 -3197.51270 70.61205 413
1236.31421 -3253.04004 13.39586 357
1227.62903 -3226.60205 70.41504 399
2154.04590 -5853.61328 120.68369 441
1227.83838 -3292.14551 12.05480 351
1216.71680 -3260.77173 69.58353 393
2137.41675 -5922.66699 121.87511 446
1220.79895 -3338.68530 10.72684 333
1206.93066 -3298.31079 69.04766 380
2092.33203 -5905.62744 121.64442 447
1220.95776 -3407.50342 8.83767 311
1198.98816 -3341.78467 68.90633 361
2051.30322 -5901.85303 120.76813 497
20763.50391 -62188.25781 4309.75146 1000
1198.21411 -3409.69946 67.06301 312
2041.79675 -5999.10059 121.24029 498
1203.54431 -3499.28955 65.94124 311
1209.51575 -3593.94800 63.91249 309
1213.21277 -3682.25342 61.97186 307
3774.78735 -14973.52148 -1926.20740 1000
2444.15063 -15028.35352 -2152.18604 1000
240.86682 -1523.50195 29.36658 498
241.01050 -1523.19250 54.46545 499
240.71074 -1522.46960 79.58922 499
240.76103 -1522.32507 104.39900 499
240.62267 -1522.20020 129.64235 483
240.63263 -1521.97437 154.75665 483
240.96124 -1521.53613 179.86041 483
240.72346 -1521.34631 204.75082 483
240.88857 -1521.16211 229.92561 443
3177.35864 -35067.31250 1798.73682 1000
-2101.86523 -63024.71875 -9333.24023 1000
-271.61005 -2022.65845 28.12485 485
-271.64743 -2022.32458 61.97180 486
-271.42233 -2021.62585 95.23942 486
-271.42914 -2020.67834 129.26483 486
-270.95099 -2020.02185 162.66684 486
-270.89343 -2019.65686 196.19162 486
-270.66617 -2019.24280 229.93990 486
-4323.24609 -17308.67383 3656.85815 1000
-24166.43555 -29680.70703 1978.75378 1000
-24079.09180 -11132.58008 3626.29663 1000
-28734.89453 -13277.67480 5360.79199 1000
-262.08975 -74.84026 36.02856 321
-260.07281 -72.20607 36.70462 321
-258.10037 -69.63283 37.34360 322
-278.29587 -73.63962 38.37755 318
-258.25641 -67.40741 37.41612 349
-276.12268 -70.85949 38.95039 321
-260.10837 -65.60921 37.01247 351
-274.69775 -68.29026 39.52282 345
-262.01166 -63.69600 36.55634 351
-276.48526 -66.26585 39.10345 345
-294.07288 -69.54299 41.42101 319
-263.91718 -61.84166 36.19888 350
-278.38025 -64.34059 38.80140 347
-294.40436 -67.20713 41.42324 341
-266.94244 -60.08907 35.41968 326
-281.15625 -62.50114 38.16112 324
-297.39029 -65.21103 40.86946 315
-272.77292 -58.72746 33.96990 320
-286.84586 -61.06384 36.79231 323
