# .PCD v.7 - Point Cloud Data file format
VERSION .7
FIELDS x y z rgb
SIZE 4 4 4 4
TYPE F F F U
COUNT 1 1 1 1
WIDTH 675
HEIGHT 1
VIEWPOINT 4162.801758 -4096.105957 130.265442 -0.001429 -0.136545 -0.001551 0.990632
POINTS 675
DATA ascii
-274.06342 58.07272 32.99029 319
-267.84094 59.27285 34.64766 321
-282.01697 61.59230 37.35155 323
-298.37057 64.34360 39.93879 313
-263.28015 60.75232 35.77068 350
-277.73022 63.29092 38.35326 347
-293.62869 65.97116 40.95023 341
-261.44806 62.62650 36.11596 351
-275.73489 65.21576 38.74957 347
-291.69363 68.10353 41.33590 340
-259.51996 64.51451 36.58356 351
-273.82092 67.15894 39.02880 345
-292.84341 70.70167 40.98655 319
-257.63544 66.34049 37.01164 352
-273.33972 69.39217 39.08421 322
-255.79727 68.21231 37.33041 350
-275.14172 72.06475 38.52467 319
-257.31870 70.78222 36.85954 322
-280.86115 75.49046 36.91675 260
-259.25800 73.35261 36.17146 321
-261.16968 76.03983 35.46614 321
-46923.50781 20364.68555 -10113.94336 1000
-1657.23401 2672.12988 872.79535 1000
-22858.11328 35579.49219 -10514.87891 1000
-22959.85742 37224.73828 -10119.09961 1000
-20671.81055 41658.43750 -2958.55029 1000
-13934.19531 56944.10938 13765.37598 1000
-4518.20654 19749.83594 3466.52637 1000
-278.19516 1948.99133 33.11666 327
-264.05029 1938.13586 33.75285 486
-264.55704 1943.35181 65.72516 450
-266.18732 1950.37866 98.03031 395
-251.83568 1941.46033 33.72455 486
-252.76913 1945.98730 65.62204 450
-253.48459 1950.32568 98.16245 456
1191.16724 15381.80273 379.72507 470
1289.57751 15448.76074 125.69254 469
1284.15552 15342.93555 377.11487 473
1382.56799 15404.94727 128.08414 469
1375.11938 15308.66016 377.99854 477
1373.44604 15322.39746 628.71179 460
1476.31714 15371.68945 126.40388 476
1464.61365 15274.15039 378.71323 477
1468.42493 15289.76855 630.41779 303
229.04094 1451.90552 11.80135 380
1566.19421 15342.50684 126.21703 476
1558.62219 15241.49414 379.00742 477
237.07242 1443.55872 12.14480 480
237.52029 1447.98450 35.70058 480
238.03802 1453.11060 59.33047 451
238.80966 1460.32935 83.08737 309
1660.43018 15309.15918 124.99347 476
1650.52100 15209.65918 378.44861 478
245.98624 1441.64307 12.35844 491
246.20692 1445.35730 36.06197 491
246.61696 1449.37476 59.76376 492
247.01880 1452.44055 83.49273 489
1751.99500 15277.70020 128.45059 477
1737.27563 15177.91406 375.36148 478
255.15709 1444.41284 12.15329 460
255.37199 1448.76172 35.85766 409
256.12885 1454.26465 59.32465 409
1841.82947 15242.76562 125.04090 477
1830.29700 15146.29785 378.20486 478
1930.53638 15209.75781 126.07303 477
1918.46448 15115.64258 376.68030 479
2022.99622 15178.79492 128.67255 478
2008.93665 15082.81543 373.95746 479
2013.88477 15102.00781 626.04944 417
2114.57495 15149.80469 126.56848 478
2099.16821 15052.30664 374.99042 479
2101.41016 15069.27441 624.34918 417
2203.77344 15117.34668 126.83434 478
2188.23779 15017.81348 375.60880 480
2192.44678 15039.78613 622.90149 417
2292.40234 15083.62793 128.76376 478
2278.66089 14988.26855 377.14532 480
2283.28003 15009.25000 624.11041 418
2381.30493 15052.93164 127.79781 479
2369.06250 14956.67285 375.36047 480
2373.72363 14978.28809 623.29669 418
2474.79419 15018.92090 128.67712 479
2455.76196 14924.05566 375.47287 480
2462.88965 14943.88867 622.56757 402
2561.89038 14988.80762 126.38362 479
2548.04053 14895.66797 372.53726 481
2548.98804 14916.78125 622.07727 402
2652.80420 14958.47266 128.68788 480
2634.55469 14862.19141 374.93777 481
2638.38843 14883.43457 624.01349 402
2738.58154 14925.81934 126.65627 480
2722.82788 14832.60156 375.59995 481
2725.85864 14852.40430 621.85870 402
2828.33789 14894.93652 127.70814 480
2811.78198 14798.78418 373.54947 481
2815.82959 14823.11426 619.50482 402
2915.98828 14864.56641 128.69788 480
2898.26050 14768.84766 375.29312 482
2904.74146 14792.29688 622.55981 402
3005.38843 14832.09082 127.25775 480
2987.60181 14739.21094 372.14502 482
2990.88354 14761.25488 621.15283 402
3093.67456 14798.70117 126.63158 481
3077.37549 14705.35059 372.09354 490
3081.78979 14732.71191 620.80176 403
3181.58521 14770.78906 126.30578 481
3165.12134 14677.27637 374.93002 490
3168.18750 14702.42188 618.08258 427
3270.86133 14737.34277 128.11140 481
3249.83374 14646.41309 373.12329 490
3256.88306 14673.10547 618.95148 428
3358.82520 14706.65430 130.45245 481
3340.17920 14614.67188 373.79645 490
3344.34912 14642.60742 619.30792 386
3447.44800 14676.90918 127.56049 481
3426.48633 14587.35840 373.68497 491
3533.82593 14645.42871 129.40280 482
3513.81372 14556.66016 373.54459 491
3621.30005 14614.65234 130.28918 482
3600.57910 14524.24414 372.22153 491
3709.43262 14582.15039 130.29047 482
3684.95557 14496.26660 373.16254 491
3795.09961 14550.70215 129.67274 482
3775.20557 14465.22754 371.97491 491
3883.69043 14520.65527 128.09770 482
3862.25464 14435.66992 371.19135 491
3968.60156 14490.49902 130.42006 482
3946.89526 14402.11914 373.26080 491
4056.83203 14461.15820 130.03435 482
4033.63330 14373.10352 372.83154 491
4144.18799 14428.86621 128.09142 482
4118.18896 14342.84082 371.83136 492
4230.50781 14398.81152 130.10236 482
4206.38818 14312.87988 373.45834 492
4318.69971 14366.41504 130.30717 483
4293.99414 14283.97754 374.34598 492
4406.35400 14334.20898 131.29176 483
4377.89697 14251.50293 374.12024 492
4589.18701 14948.41113 638.39545 494
4590.91211 14950.01074 897.01855 413
4489.46387 14304.79395 128.75485 483
4465.96436 14223.17188 371.36646 492
4673.16504 14897.84375 639.73810 494
4674.47852 14902.51074 896.70355 413
4576.73047 14275.88086 130.94237 483
4553.65820 14191.56543 371.79373 492
4757.16211 14852.81348 639.05731 494
4758.15967 14854.75098 894.52667 414
2381.85425 7137.80273 -856.39789 1000
4665.85254 14242.54492 130.85405 483
4640.09814 14161.52539 370.98199 492
4845.09180 14806.49316 639.56293 495
4844.46924 14809.44922 894.75415 414
4750.71924 14214.30469 131.01721 483
4725.08984 14132.60645 371.64633 492
4929.58594 14755.49414 639.90143 495
4928.82764 14759.37402 890.53906 414
4837.51660 14182.09668 129.17490 483
4810.82520 14103.33691 372.70099 492
5012.16260 14712.58594 639.62378 495
5014.06348 14716.16602 892.00610 414
4925.58740 14150.83887 128.23132 483
4895.97705 14070.36621 374.80356 492
5097.41699 14665.26270 638.53333 495
5100.06299 14669.69141 892.27655 414
5009.76562 14120.67773 130.13493 483
4982.07178 14040.90527 373.47961 492
5184.96484 14616.07520 637.87799 496
5185.30469 14623.24414 888.27917 415
5098.12109 14090.75293 130.90578 483
5068.36719 14013.72656 372.54099 492
5265.90576 14569.70117 637.80164 496
5269.95605 14573.42871 890.27631 415
5484.83447 14891.55176 -1955.42163 1000
5181.63184 14062.34082 131.31277 483
5154.76367 13980.69629 373.30426 492
5353.18750 14525.21777 637.73096 496
5352.80273 14530.24316 890.14410 415
5269.62744 14029.41895 128.29301 483
5242.33398 13952.52734 374.14215 495
5440.81689 14491.73633 636.38837 499
5444.24219 14495.73535 890.53882 417
5354.54883 13998.45898 129.80467 483
5328.82324 13920.38672 372.71136 495
5527.95557 14460.48926 635.83569 499
5533.67041 14463.64941 890.96619 417
5443.27783 13966.49805 128.91545 483
5412.04492 13890.50000 373.07086 495
5617.50928 14428.05078 634.46124 499
5620.57861 14435.44434 888.14557 417
5531.57031 13935.73047 131.23337 483
5500.56885 13861.59277 372.66742 495
5709.32910 14395.76367 637.69342 499
5713.22314 14403.79883 889.43945 417
5614.20508 13908.33398 128.64310 483
5585.05615 13830.35840 374.45163 495
5797.38916 14363.50391 637.42914 499
5802.70410 14371.93164 888.47198 417
5700.85938 13876.45996 131.88049 483
5673.35791 13802.25000 375.51263 495
5885.52002 14330.15430 634.43976 499
5893.28467 14343.43652 890.03082 417
5791.15869 13845.06055 132.44250 483
5760.97266 13771.92871 375.03876 495
5976.61865 14297.90625 636.97888 499
5979.91699 14313.96191 888.69043 417
5875.24414 13814.26660 129.40163 483
5843.71191 13741.46484 372.50760 495
6067.30811 14263.99316 637.53314 499
6072.36572 14283.03516 891.30768 417
5964.04004 13784.12598 130.07454 482
5932.40137 13713.58691 372.79453 495
6131.05762 14179.40332 634.58655 395
6162.78662 14250.72559 892.82190 417
6048.08496 13754.65234 131.82875 482
6020.25244 13681.63574 373.38565 495
6218.68799 14145.88281 633.37091 390
6252.13770 14218.30566 891.24109 417
6136.83984 13724.37305 128.71832 482
6104.57568 13651.92578 374.01813 494
6309.44287 14112.63965 637.06744 390
6344.55322 14188.64941 891.99597 417
6349.69580 14210.33691 1146.27209 498
6430.11816 14389.52344 1419.41248 382
6225.44434 13692.96582 129.37309 482
6191.19141 13620.55176 373.77951 494
6398.34277 14077.50879 635.45642 390
6431.16553 14160.70898 892.55139 416
6440.43555 14176.94824 1149.32178 498
6505.24512 14318.13086 1417.66248 482
6313.00391 13662.64551 132.34569 482
6279.88672 13589.86426 373.10059 494
6484.81445 14047.25977 635.26062 390
6522.44043 14128.00391 893.41699 416
6607.17822 14312.23535 1162.68787 422
6614.57959 14323.88672 1422.86060 348
6398.78369 13628.54590 129.53168 482
6365.63770 13559.88770 375.13766 494
6604.02002 14071.56641 636.44745 498
6610.13574 14086.97949 894.02869 469
6611.45459 14086.51758 1150.41565 469
6486.40381 13598.36035 129.72678 482
6451.44238 13530.71973 373.80045 494
6673.80713 13997.81738 638.27795 470
6674.73486 14000.88965 889.60095 470
6674.26025 14000.65723 1144.63708 470
6573.53125 13568.00293 132.05057 482
6540.05811 13501.62891 376.67813 494
6737.83936 13910.59863 634.22314 471
6737.02002 13916.07812 887.63898 471
6740.03809 13914.21484 1141.88867 470
6659.27588 13535.82129 131.49048 481
6627.14355 13469.15527 374.53452 494
6798.79736 13827.43555 632.20532 471
6801.42090 13827.60938 885.04663 471
6803.62988 13829.77637 1140.80676 471
6747.31055 13506.94434 129.94507 481
6713.31689 13438.00293 374.98529 493
6867.11426 13750.43262 632.89618 498
6869.99268 13750.67676 883.21143 498
6868.43506 13751.86328 1135.39490 497
6990.63916 13996.85059 1409.46814 451
6835.86768 13475.73340 131.16647 481
6803.90039 13409.59180 377.32077 493
6956.24316 13717.92969 631.98462 498
6958.03125 13718.25391 886.68146 497
6958.01416 13721.01562 1135.11865 497
7083.48047 13968.11523 1412.80920 451
7323.15869 14446.25586 1720.09485 469
7324.70410 14448.48926 1991.90283 468
6923.98682 13443.03125 132.96828 481
6890.19775 13378.55957 377.96555 493
7046.31836 13685.09375 633.53333 497
7034.50586 13659.40430 885.96814 497
7048.28809 13685.64844 1139.38733 497
7171.58350 13935.85938 1411.49500 451
7139.84814 13871.16602 1664.56848 345
7142.14014 13871.19629 1920.38647 345
7138.78076 13870.33496 2180.33521 344
7012.08203 13413.19336 129.84927 481
6976.64746 13346.25098 376.69022 493
7135.40088 13655.35352 636.41870 497
7120.79932 13628.84961 885.08148 497
7137.39893 13656.80566 1138.19775 497
7263.12744 13904.40234 1412.45349 451
7306.62744 13983.69238 1679.14514 483
7099.55957 13381.11914 131.72580 481
7064.37207 13315.70410 376.34430 493
7224.21240 13621.25098 634.75470 497
7210.85449 13594.70312 887.03827 497
7226.81104 13622.50098 1139.65625 497
7355.07080 13873.09766 1415.80457 469
7397.46094 13952.23828 1682.22937 483
7190.34863 13351.22656 132.60431 480
7154.13867 13284.91992 377.62311 492
7315.25146 13592.18652 636.46130 497
7301.12256 13564.10059 887.58679 497
7315.15625 13590.30566 1141.72876 496
7449.86621 13838.82324 1415.42505 469
7489.44775 13915.91211 1683.99414 483
7278.91846 13320.39160 132.69417 480
7241.79395 13255.88867 377.35364 492
7405.96240 13558.69238 634.83167 497
7389.50635 13529.80371 887.62976 496
7404.08496 13557.43262 1139.57166 496
7539.04297 13807.46777 1418.12573 468
7364.20117 13286.18359 131.92175 480
7330.80811 13226.96777 379.46823 492
7494.01709 13525.38574 635.07660 496
7481.57227 13499.00586 886.05518 496
7496.04785 13524.80957 1142.00891 496
7630.00488 13774.17578 1419.36255 468
7456.31982 13254.83691 131.78438 480
7418.02832 13192.91699 376.95654 492
7587.39062 13494.34082 638.66302 496
7572.02197 13466.57422 887.29742 496
7584.56104 13495.89941 1144.59375 496
7724.52588 13741.01172 1421.58850 468
7544.42969 13224.93457 130.36081 479
7506.77246 13163.73242 378.16003 491
7676.76855 13458.68066 636.08142 496
7661.49756 13433.56152 888.01184 496
7618.48682 13355.76562 1136.24060 389
7813.12012 13705.45117 1422.29944 468
7632.97314 13192.53809 131.15565 479
7599.18994 13133.26660 378.41919 491
7768.95801 13426.12598 638.95850 496
7765.62012 13428.29004 893.13110 495
7665.73193 13249.79004 1133.41357 267
7908.07520 13676.41602 1423.66162 468
7724.25781 13162.03516 132.02676 479
7687.54541 13099.90820 380.09470 491
7860.01172 13393.43945 637.56012 495
7860.26416 13394.68848 892.62982 495
7736.22461 13186.05664 1128.89941 267
8002.72217 13643.84668 1424.30566 468
7809.60107 13131.97754 129.40863 479
7776.19971 13068.72656 377.90686 490
7950.35254 13364.91113 635.35822 495
7841.18066 13180.45117 881.02704 491
7806.60742 13129.40820 1127.53503 267
8095.09424 13612.68066 1421.31946 464
7901.79199 13099.28418 126.79151 478
7864.87061 13037.48828 377.85590 490
8038.51953 13331.02832 637.47919 495
8038.33936 13329.58203 892.11249 495
7881.78027 13066.42578 1124.65540 267
8185.36035 13580.96094 1424.13660 464
7990.77100 13066.26953 126.33651 478
7955.08545 13008.17090 376.40213 492
8131.25488 13297.71094 636.68427 494
8128.97559 13298.49805 893.32263 494
7956.25781 13005.28516 1122.93347 494
8280.49609 13548.78613 1428.07715 463
8080.22998 13036.45605 127.30402 478
8044.58887 12977.12402 377.97012 492
8224.64160 13263.69727 639.53308 494
8224.73730 13264.51562 891.84149 494
8055.62500 12993.60352 1124.71338 303
8381.56445 13524.54395 1426.99268 438
22150.25781 35471.53906 -5377.49316 1000
8172.72021 13003.77441 128.38852 477
8138.50781 12944.10449 379.76114 492
8341.12793 13274.76074 641.88739 457
8343.90430 13276.65527 895.42499 428
8362.18262 13312.59863 1157.07922 424
8499.49414 13526.79883 1435.54968 437
8264.50586 12970.69824 127.37521 477
8225.48730 12916.14844 380.12491 491
8452.49316 13274.06348 642.95447 457
8472.47559 13303.97754 902.60083 427
8497.89551 13342.42969 1162.70227 423
8354.21582 12938.10938 129.38623 477
8317.58789 12882.07910 376.90784 491
8567.53516 13270.20508 641.89215 456
8599.56152 13321.90918 906.48767 455
8630.15820 13372.63477 1168.29126 422
3636.61865 5555.84961 1108.04846 1000
8445.73926 12906.56836 128.76538 477
8409.76270 12850.12793 380.92630 491
8682.40039 13273.11914 647.69202 455
8716.00586 13324.13086 906.27924 454
26875.65234 41387.95312 9091.64551 1000
8538.11133 12872.74707 129.65916 476
8503.46387 12820.12305 381.58582 490
8797.56543 13269.08398 649.24969 454
8829.09570 13319.91602 909.57111 453
726.25885 958.52765 -0.97836 428
729.95300 963.92639 17.46360 365
8630.38281 12839.53125 126.60183 476
8593.41016 12786.44531 381.58606 490
8912.81348 13270.72070 650.64264 453
729.34937 950.39191 -0.35428 473
731.52765 953.49774 18.34153 474
733.73615 956.73816 36.80218 428
736.44159 960.89038 55.72462 420
8720.03809 12809.55859 127.33147 475
8684.33496 12756.03320 378.77585 489
9043.01270 13290.58105 655.29089 438
734.23572 945.39514 -0.14462 496
736.04834 948.08429 18.51427 496
738.05859 950.72772 37.03274 496
739.87769 953.10870 55.90429 495
741.61896 956.18695 74.71203 495
8814.23145 12777.14551 128.27583 475
8778.45410 12723.90332 382.37302 489
741.14667 942.48553 -0.27034 470
742.76569 945.32281 18.30691 469
744.64319 948.01691 36.95610 469
746.61230 950.81018 55.93370 469
748.70032 953.62762 74.46191 416
8907.01367 12743.57227 129.82881 482
8870.43750 12693.81836 379.64301 489
749.88025 942.77289 -0.92157 422
752.34344 946.61707 17.57965 358
9000.31543 12711.17188 127.63656 482
8965.78809 12661.10742 380.28082 488
9094.60547 12679.77148 131.15723 481
9056.14551 12625.44824 383.34265 488
9186.69922 12643.03125 131.49184 481
9151.83398 12596.59570 383.87512 487
9280.41504 12613.84375 128.32228 481
9246.66504 12562.53320 385.09305 487
9377.93262 12579.77832 129.10855 480
9340.38086 12528.20898 386.27655 486
9470.90723 12545.96875 128.43709 480
9434.44727 12498.33887 383.97473 486
9565.89355 12513.35938 131.37148 479
9530.18652 12466.40430 386.07977 486
9664.74805 12479.38281 129.65355 479
9624.83887 12430.41504 386.37894 485
9757.28906 12445.31152 132.53708 478
9723.22070 12399.38672 386.42535 485
9857.03809 12410.07910 131.11145 478
9817.01465 12364.27930 388.76611 484
9952.37012 12376.52930 129.39536 477
9914.95508 12332.05957 388.96918 484
36620.58203 45867.92578 11790.83789 1000
10050.79883 12342.47363 131.78835 477
10010.76074 12298.72656 388.58099 483
10147.97363 12310.77441 131.93643 476
10109.55078 12264.58008 388.27545 483
10243.64648 12277.26660 131.20871 476
10207.25488 12231.27344 391.27481 482
10342.55176 12243.34570 132.00197 475
10307.66504 12197.09863 390.48029 481
10443.11426 12207.20898 131.40678 475
10404.85742 12161.21387 389.85843 481
10545.59375 12173.61621 129.99329 474
10503.50000 12128.54688 390.70459 480
10643.53125 12138.25586 129.68988 474
10603.91602 12094.82520 393.35107 480
10745.64453 12101.17578 133.56461 473
10706.06250 12055.89062 392.45038 479
10845.00977 12066.82031 133.68619 473
10804.66113 12025.20996 395.33081 479
10946.35840 12030.46973 130.21175 472
10907.41797 11989.57129 395.40228 478
11049.70703 11997.74316 133.75609 471
11007.12891 11951.66406 394.70822 477
11149.49121 11960.25000 129.82967 471
11112.90723 11916.59277 395.69296 477
11256.33691 11924.48926 130.57944 470
11215.60840 11880.04199 400.39856 476
11359.25391 11888.49219 130.46815 470
11316.68945 11847.82715 401.07330 476
11463.17871 11849.49902 130.19487 469
11423.72559 11811.90137 400.13516 475
11568.59766 11813.50293 130.20233 468
11527.92383 11772.18164 398.98856 474
11672.09668 11777.42676 132.23509 468
11632.42676 11736.05664 403.61844 469
11793.68750 11752.17090 131.93311 443
11741.01367 11703.19824 401.91101 469
11910.31445 11727.29688 132.57945 442
11855.55664 11671.21094 405.01413 468
12035.19727 11706.52441 130.52515 441
11965.17773 11639.32324 402.86224 467
12156.58887 11680.03809 135.22594 442
12080.44434 11604.80664 406.62732 466
12277.29785 11656.80371 134.67337 441
12193.61523 11577.25098 408.97449 445
12401.60742 11629.17578 133.85364 440
12323.10645 11558.78809 409.11197 444
12530.67090 11607.47559 132.94295 394
12456.39453 11540.53906 411.25793 436
12688.67383 11608.88770 131.86792 393
12591.43945 11518.19922 412.00238 435
12846.95703 11610.72852 134.98235 392
12722.93945 11500.76758 411.42584 434
13008.51855 11619.99414 132.21521 369
12859.10938 11482.08398 413.92557 433
13191.62012 11637.89258 132.51938 342
13000.15723 11466.47949 418.56494 435
13408.23926 11681.94238 133.48320 341
13139.12988 11446.80762 420.20993 370
13326.54688 11472.73438 422.92105 369
13524.45117 11496.97168 424.60156 368
13721.86328 11522.77148 424.44690 367
9418.58398 2913.51636 -1807.92920 1000
3659.96753 879.95337 13.57656 358
4957.01855 -409.17188 -25.89016 437
4934.28711 -436.30142 -24.97862 438
4890.23047 -462.68567 -24.22611 420
4872.00391 -490.81604 -22.78655 421
4856.27637 -518.70166 -22.52010 491
4848.11768 -547.38031 -22.32612 492
4838.50928 -575.36804 -22.93447 492
4830.40088 -603.34064 -22.47763 495
4823.74609 -632.60107 -22.30647 496
4817.16846 -661.42358 -21.46140 496
5017.16064 -688.53857 53.17227 338
4812.62061 -689.51440 -22.40368 497
4807.58936 -719.11237 -22.05464 497
4805.41211 -748.07648 -22.08653 468
4802.25586 -776.93762 -22.76070 468
4801.16064 -806.60565 -22.74942 467
4915.65137 -826.70911 134.56891 482
4799.68994 -836.89612 -22.48303 467
4958.48096 -864.99023 134.41229 498
4957.39697 -864.76660 215.52542 498
4797.36133 -866.21198 -22.25413 467
4795.56348 -895.75427 -23.01584 467
4793.24023 -924.71826 -22.69846 467
4792.39014 -954.57886 -23.21082 467
4790.11621 -984.22235 -23.46545 466
4957.33203 -1019.90063 134.69220 491
4788.06738 -1013.69800 -23.57638 466
4785.55518 -1043.86743 -22.95527 466
4784.77832 -1073.62732 -23.79637 466
4782.67041 -1104.31702 -23.29756 466
4780.29883 -1134.37976 -23.72786 465
4778.07227 -1163.89502 -24.13854 465
4776.86426 -1193.99011 -24.13830 465
4774.49121 -1223.72742 -23.71551 465
4778.88623 -1255.83777 -25.15292 442
4790.85205 -1289.34607 -26.10573 372
16576.93164 -5407.04785 3004.46167 1000
26352.83398 -8793.84082 -4895.66455 1000
3782.62280 -1934.20618 -2.70772 482
581.80054 -302.05191 247.40823 1000
13166.56250 -8130.64258 -3720.22217 1000
4779.33350 -4965.90820 20.97632 417
4722.36426 -4966.61670 21.42668 417
4666.77588 -4966.58545 22.68605 421
4612.15918 -4968.94238 23.74825 420
3557.05444 -3857.76245 -36.59577 480
4581.95996 -4997.85742 23.13103 446
4576.32764 -5053.33545 22.55227 414
4575.61670 -5116.16895 20.97367 413
4582.41064 -5251.71436 19.98315 336
4583.47021 -5319.27344 19.14081 419
764.22632 -1033.44910 -9.82291 433
763.94598 -1033.06030 10.83980 434
763.95996 -1032.91650 31.03905 477
763.93207 -1032.84448 51.39257 477
763.93030 -1033.09607 71.60698 477
763.78217 -1032.80688 91.85344 477
763.94971 -1032.97656 112.23013 498
764.06525 -1032.97266 132.39899 498
763.86920 -1033.02527 152.53612 498
764.14911 -1033.10596 172.57336 498
764.02814 -1033.15271 193.06631 494
764.34064 -1033.51587 213.22617 494
757.85754 -1037.25671 -9.69026 465
758.11829 -1037.71399 10.58626 416
758.42249 -1038.21790 31.12136 416
758.77600 -1038.80298 51.21989 416
759.32080 -1039.56580 71.53160 351
759.91095 -1040.30713 91.76440 351
3240.87866 -4953.77686 36.26151 372
3122.90674 -5906.99951 30.09226 423
3069.00928 -5889.29541 31.70401 428
3015.04175 -5872.67676 31.65763 439
2966.42944 -5863.62646 31.81777 427
2917.44263 -5856.23242 32.84018 409
2871.51831 -5851.52539 32.36874 391
2825.05713 -5848.51172 34.14135 395
2835.38306 -5869.06641 139.09671 476
2781.89136 -5846.45361 33.37076 348
2792.69507 -5869.92334 138.30954 477
2737.77515 -5846.17139 32.82306 350
2748.84229 -5869.00488 139.10266 478
2694.64648 -5846.10889 34.11414 350
2702.83154 -5865.54932 138.93089 478
2652.54297 -5844.77686 33.30774 352
2659.38525 -5864.73242 139.03275 479
2608.81177 -5845.09277 35.24076 352
2618.84351 -5869.68652 137.82343 479
2566.54102 -5846.85645 34.30421 352
2576.36768 -5871.01270 139.35825 480
1415.04468 -3183.47021 22.23945 286
2525.50610 -5845.42920 34.98733 353
2534.54980 -5870.34082 137.68654 481
1353.27783 -3089.12061 26.44971 308
1444.74731 -3310.63501 76.69768 331
2515.12183 -5925.24023 137.52388 343
2532.02856 -5968.05664 244.76764 346
1324.16187 -3072.32935 26.64294 421
1421.34741 -3312.09912 76.98745 465
2515.29688 -6029.51416 138.61856 342
2498.91553 -5990.32129 244.12056 352
1311.56201 -3094.04224 26.06027 422
1397.40588 -3313.39355 76.85570 466
2506.10376 -6114.73291 138.58432 499
2460.80908 -6005.24414 244.35162 497
1298.18884 -3116.51318 26.00359 423
1374.65308 -3314.00146 77.44945 466
1285.37817 -3140.90991 25.58559 418
1352.35559 -3314.84961 77.26579 466
1273.25439 -3166.45752 24.32705 413
1328.59534 -3315.33472 77.98140 467
1261.13269 -3193.59277 24.09186 418
1305.98975 -3316.37183 77.63924 467
1248.28809 -3221.62524 23.16114 410
1283.15234 -3318.07764 77.96934 468
1236.15125 -3248.22559 22.21239 359
1260.58984 -3318.09619 77.35636 468
1225.95300 -3283.57666 21.29628 378
1241.44885 -3328.43115 77.72529 466
1218.00378 -3326.65405 20.19371 365
1228.07837 -3355.92163 77.15688 361
1214.73523 -3385.97729 18.91134 309
1227.89038 -3423.69287 76.68268 318
1222.29028 -3479.85059 15.44940 300
2058.03296 -6044.99902 33.30389 333
2034.11340 -5971.84521 137.48695 320
1228.18311 -3572.80444 12.56112 305
1236.89880 -3675.12378 9.19414 303
19713.76562 -62830.47266 2341.93774 1000
4930.46631 -26570.36133 -5221.39990 1000
252.62061 -1536.89539 31.93339 338
252.61240 -1535.38843 57.23793 406
252.50731 -1534.42053 82.75439 406
252.00398 -1534.11877 108.07143 459
252.18755 -1533.77686 133.25801 459
252.01540 -1533.22266 158.63808 459
252.15167 -1532.69836 183.74887 491
251.83640 -1532.61133 208.80751 491
242.87209 -1534.43457 6.84007 482
242.83194 -1535.11011 31.93952 443
242.95792 -1535.33936 57.44236 443
243.02324 -1536.40027 82.74612 385
242.83789 -1537.31348 107.84960 385
-248.72685 -2041.88623 99.24665 397
-107.83759 -653.49384 0.15683 453
-248.25452 -2038.76001 166.47659 453
-247.96165 -2037.87622 200.24391 488
-248.20323 -2037.15906 234.18874 499
-261.17480 -2039.53821 31.12784 394
-261.56830 -2041.75964 65.28010 324
-27620.05273 -27156.96094 -7592.88184 1000
-42209.56641 -38025.96094 4784.46045 1000
-14755.60645 -10915.96289 1943.20569 1000
-44126.44922 -30475.86328 -6057.08740 1000
-262.67407 -74.67757 36.11364 321
-260.70886 -72.02065 36.75555 321
-258.80103 -69.38499 37.44528 324
-278.95831 -73.52508 38.51027 318
-259.14374 -67.27384 37.49081 349
-276.87939 -70.73470 39.13918 321
-261.07022 -65.40266 37.00154 351
-275.66168 -68.16239 39.56210 345
-262.95810 -63.55466 36.59765 351
-277.43674 -66.15467 39.21827 345
-294.73459 -69.35329 41.50701 319
-264.92291 -61.67579 36.23867 351
-279.30396 -64.15094 38.81199 347
-295.39050 -67.03511 41.42575 340
-268.34317 -60.01696 35.43107 326
-282.54596 -62.43357 38.13557 324
-298.91998 -65.14397 40.71603 315
-274.21667 -58.68498 33.91982 320
-288.16916 -61.02830 36.74892 323
-46439.14062 -3819.19678 -12379.28906 1000
