# .PCD v.7 - Point Cloud Data file format
VERSION .7
FIELDS x y z rgb
SIZE 4 4 4 4
TYPE F F F U
COUNT 1 1 1 1
WIDTH 679
HEIGHT 1
VIEWPOINT 4227.758789 -4089.590332 132.970245 0.003108 -0.137498 -0.001969 0.990495
POINTS 679
DATA ascii
-17968.38672 1081.45068 -130.20724 1000
-37980.63281 5836.86719 7205.13184 1000
-275.71997 58.56688 33.70488 319
-269.57098 59.84141 35.25231 325
-232.86293 38.45738 -58.71626 323
-265.58130 61.49029 36.24258 350
-280.14917 63.99945 38.86543 346
-296.37054 66.81557 41.49975 339
-263.61246 63.38866 36.66391 350
-278.18546 65.93665 39.17798 344
-295.21909 69.00160 41.64318 319
-261.73526 65.20152 37.03458 351
-276.38144 67.98021 39.52477 345
-259.71530 67.11996 37.46468 351
-277.22742 70.48305 39.27561 321
-259.00677 69.15720 37.55279 324
-279.20288 73.11751 38.57361 318
-260.89096 71.76882 36.94638 321
-262.86505 74.44540 36.25906 321
-23556.33594 5280.56787 5818.74121 1000
-37179.11719 11255.24414 8592.82812 1000
-43483.75781 19870.01172 -605.30878 1000
-19645.76758 28670.04297 5293.49316 1000
-24158.00195 40266.75000 -10025.95020 1000
-2903.32300 11280.41309 -63.05129 1000
-3983.35986 16568.68750 -432.63324 1000
-311.98029 1953.60876 33.20657 467
-312.70847 1957.05713 65.72762 466
-313.37418 1962.12915 98.66256 354
-299.44998 1955.27661 33.35436 477
-300.08673 1958.82483 66.09704 477
-301.41296 1963.07812 98.75989 434
-4362.15283 47316.58984 7959.68555 1000
54.35193 1931.50671 36.34464 1000
189.42726 1457.90833 11.72888 365
189.76842 1458.12292 35.77512 365
198.05299 1447.54492 12.61887 497
197.95049 1450.69238 36.24825 473
198.38406 1453.90369 60.04014 473
198.48056 1457.49634 83.57741 473
199.02658 1461.49573 107.62586 427
206.80679 1446.72400 12.49636 496
206.88106 1449.57495 36.15427 495
207.40930 1453.01379 59.90063 495
207.62398 1456.02698 83.83515 471
207.79832 1459.71082 107.68121 423
1302.06775 15483.64941 127.89488 468
1292.31628 15378.47559 377.12466 472
216.45981 1454.50256 11.83327 420
216.23692 1454.62756 35.79432 423
217.15248 1461.60217 59.21795 285
1391.61096 15439.47754 127.46805 468
1383.84717 15338.62305 379.79489 473
1382.60767 15334.32715 631.66638 466
1486.31897 15408.61035 124.74482 455
1474.00146 15302.32031 377.75467 476
1475.51294 15295.15625 629.01068 460
1575.35205 15373.35352 125.48212 455
1565.56689 15270.68945 377.99475 477
1668.06299 15342.62988 127.95057 456
1658.34680 15237.27246 376.61948 477
1759.72656 15307.93750 128.30917 456
1748.89844 15203.52441 377.76303 478
1850.44495 15272.92090 127.56116 456
1840.46814 15171.37207 378.78903 478
1943.34607 15240.00684 125.00423 457
1928.85901 15138.53711 376.82327 478
2033.09937 15207.40918 125.89835 457
2022.24927 15108.22656 377.72253 479
2122.24121 15172.54297 128.85678 457
2112.04419 15073.43262 377.38168 479
2212.70483 15141.62109 126.76093 458
2199.98340 15042.82324 373.75223 479
2303.04907 15108.83594 128.21225 477
2289.56177 15011.50879 376.90060 479
2394.66968 15077.84766 126.10405 477
2377.19727 14977.20410 373.40616 480
2483.31445 15046.09277 127.18109 477
2469.87061 14946.83691 372.75864 480
2572.39014 15010.61816 125.26965 477
2557.82690 14916.97754 375.88406 480
2661.11279 14981.91504 126.40505 478
2643.87866 14882.74023 375.92505 480
2752.96191 14947.69824 128.38176 478
2734.45996 14852.96680 372.33789 481
2839.94263 14914.45605 126.78407 478
2824.07983 14820.91113 372.35641 481
2927.38159 14883.75000 127.95858 478
2908.58325 14789.33105 373.09979 481
3015.18750 14852.84180 125.63671 478
2997.91064 14755.77051 371.89285 481
3103.40356 14822.12207 127.28103 479
3087.14551 14723.60840 375.27167 482
3194.74756 14787.22461 127.52877 479
3173.05396 14693.30176 375.40445 482
3280.75146 14757.89648 125.77883 479
3259.69287 14662.25586 371.65579 482
3368.64502 14723.64453 126.08729 479
3347.41016 14630.15918 375.11600 482
3456.11670 14695.49609 129.44760 479
3437.64258 14599.40137 372.88760 482
3542.78125 14663.29199 126.22006 480
3522.71899 14567.55859 374.47775 483
3632.82104 14630.00098 126.63132 480
3610.99365 14536.42871 370.72470 483
3721.25415 14598.51953 126.93586 480
3695.41284 14506.48438 374.48273 483
3805.55322 14569.54980 129.89622 480
3781.78198 14475.11719 371.60168 483
3895.12964 14534.62500 128.57846 480
3869.78418 14442.61523 373.46759 483
3982.92188 14506.34961 129.16925 480
3955.81958 14414.16895 372.40939 483
4067.23877 14475.62305 128.15929 480
4043.77100 14380.32520 373.41174 483
4155.85205 14440.49414 127.61853 481
4130.98389 14350.28418 370.88263 483
4241.51953 14410.92676 129.78979 481
4217.25977 14321.12891 370.45490 491
4329.10791 14379.19141 126.82089 481
4301.36523 14291.04590 371.40192 491
4416.46680 14346.86719 126.83946 481
4387.81836 14259.77148 371.24817 492
4503.68994 14315.67773 130.46243 481
4476.12158 14228.10156 372.77063 492
4682.50830 14899.92578 640.12476 494
4680.31348 14899.13965 896.35095 493
4589.03369 14286.20703 130.46652 481
4561.90625 14197.57910 371.78336 492
4766.46045 14855.07129 638.52515 494
4767.56250 14852.89844 894.64130 494
4675.59033 14256.56641 128.70595 481
4645.05029 14166.58105 372.60138 492
4851.89551 14806.47559 636.70691 494
4851.54102 14805.29688 893.40320 494
4762.49316 14226.07422 129.85873 481
4733.98584 14136.69238 370.22855 492
4936.07129 14758.49316 638.67468 495
4933.93311 14757.50586 891.54144 494
4846.50537 14192.23145 130.95499 481
4819.98096 14108.28418 373.75534 492
5019.64014 14709.67188 635.63501 495
5021.75293 14709.44336 892.76013 495
4935.18311 14161.34375 127.07011 481
4903.00098 14076.49609 372.78702 492
5103.21387 14663.68164 636.40289 495
5105.03662 14660.00879 887.88281 495
5020.39990 14132.17773 128.95749 481
4991.70410 14044.12402 373.45203 492
5189.87842 14613.56348 634.47296 495
5187.34473 14613.14844 890.72351 495
5105.36670 14098.24219 127.07790 481
5077.87842 14012.54590 374.00143 492
5273.55762 14565.11328 635.73639 496
5271.68262 14567.32129 888.34967 496
5191.32422 14068.69434 127.99038 481
5160.38477 13983.84375 371.00961 492
5356.32227 14518.60156 634.76587 496
5356.29395 14520.52734 888.41766 496
5277.51416 14037.46094 128.52005 481
5246.74121 13955.26172 373.74158 492
5441.68848 14478.97266 632.95203 499
5441.84131 14475.73047 885.86322 499
5366.04248 14005.70898 127.71037 481
5334.02979 13922.77539 371.75089 492
5530.40723 14447.52637 632.71240 499
5532.01807 14447.07910 887.87366 499
18243.24609 48222.60156 7765.79443 1000
5454.29932 13974.49316 129.92099 481
5421.80811 13893.31250 371.76685 492
5619.15137 14414.84180 633.98224 499
5618.34033 14412.18555 885.99048 499
5539.49658 13942.84180 128.69218 481
5508.38037 13860.08301 374.75598 492
5710.98828 14379.41113 635.83533 499
5710.27686 14380.39941 889.69397 499
5623.78516 13911.08496 130.11592 481
5590.60205 13830.30859 372.99106 492
5795.12158 14340.24316 635.68768 481
5797.91016 14348.68945 889.43542 499
5712.41699 13880.43359 129.41743 481
5676.94336 13800.35742 371.80017 492
5868.07715 14273.24023 635.21918 482
5884.78906 14312.35352 887.78375 499
5796.48389 13851.32422 129.00537 481
5765.36377 13769.87891 372.90881 492
5944.60498 14201.78809 633.45190 482
5976.48926 14282.15332 887.17926 499
5885.12012 13818.93066 130.61649 481
5850.96631 13737.32520 375.30243 491
6017.72070 14133.64062 629.84955 483
6063.90381 14249.93555 888.45300 499
5972.03174 13789.58105 131.16856 481
5938.51025 13707.69238 372.96921 491
6087.88135 14061.36328 628.17346 483
6115.04590 14126.51172 882.72626 373
6058.24658 13757.33008 131.17981 481
6025.66064 13679.45410 375.43588 491
6161.67236 13991.64648 628.64136 484
6202.40625 14091.09180 886.02087 497
6146.87256 13725.22656 129.39771 481
6109.41309 13648.65723 375.28122 491
6232.67285 13923.37793 627.66705 484
6291.82666 14057.48438 886.76422 497
6348.94629 14187.97070 1145.78491 499
6232.19238 13694.02539 128.75287 480
6197.67432 13617.98047 375.78226 491
6314.28906 13878.25879 628.31323 499
6381.94971 14023.58301 884.91254 497
6440.73389 14158.89551 1148.11304 498
6509.26416 14306.90918 1417.53674 482
6319.01855 13663.55664 129.94205 480
6284.91943 13587.08887 373.66068 491
6401.92578 13849.39062 628.95129 499
6466.85547 13994.92090 887.19659 497
6527.67041 14122.77051 1145.97461 498
6582.24072 14241.53906 1414.13147 476
6407.61279 13632.10938 131.93088 482
6368.01465 13554.87012 373.75482 491
6379.52930 13572.98730 622.10168 430
6557.35449 13960.95508 884.07544 492
6619.59766 14091.71191 1148.44043 498
6494.38916 13601.15234 129.48935 482
6454.51318 13521.57617 374.04642 491
6463.66504 13544.23340 622.26538 430
6684.76611 14006.96875 889.30383 469
6683.13672 14005.73828 1144.50940 469
6727.98828 14104.29688 1406.48584 371
6578.35596 13571.58984 132.40749 481
6544.07080 13493.14844 375.85452 491
6553.22021 13511.47559 620.76959 430
6748.13525 13918.92969 888.75372 470
6748.80322 13919.40039 1143.86426 470
6791.18408 14009.09473 1404.13049 372
6667.07568 13536.40527 131.01457 481
6630.57812 13463.88086 375.00122 490
6637.30762 13479.57031 622.14008 430
6810.31885 13833.91602 888.25482 470
6809.93994 13834.72363 1137.64929 470
6853.64941 13918.60449 1399.14062 372
6753.97070 13506.14160 128.93150 481
6718.27100 13430.09570 377.66391 490
6727.48584 13446.67188 620.66229 430
6874.17041 13749.28418 885.94531 471
6874.81299 13747.73340 1136.34961 471
6911.59473 13828.52441 1394.28064 373
6842.54590 13474.54590 132.45711 481
6805.14697 13401.10449 375.13730 490
6813.94727 13417.41016 621.00037 430
6953.10596 13693.38672 883.90479 498
6952.95898 13696.41406 1132.51306 497
6984.11084 13764.42578 1393.40527 389
7044.53760 13876.18359 1659.58960 407
7042.21631 13871.77734 1915.80188 407
7037.80029 13869.75391 2171.48682 406
7039.70020 13869.33984 2432.40405 486
7039.65576 13868.62793 2690.20215 486
6930.99463 13443.02148 128.92531 481
6891.69043 13368.09863 378.49573 490
6899.02832 13383.86035 620.91846 430
7041.04297 13662.50879 884.84222 497
7039.80957 13662.54492 1135.48975 497
7077.60840 13732.15039 1393.74524 389
7200.97705 13971.27832 1673.40759 484
7019.97070 13413.12402 131.21935 481
6977.86719 13337.95312 376.58255 490
6988.39209 13350.31543 624.11230 430
7116.12793 13603.43652 882.46106 497
7115.72168 13600.68262 1135.28796 497
7167.84766 13702.45410 1394.18933 389
7288.84717 13939.18262 1676.25220 484
7106.43750 13380.56836 130.49660 480
7066.83740 13307.06250 375.82709 489
7076.08984 13318.88477 622.01349 430
7204.36328 13569.53711 882.80804 497
7204.35596 13567.13672 1135.44788 497
7258.35498 13669.96582 1394.83655 389
7359.08496 13866.44629 1674.23340 453
7192.18066 13349.26172 129.25305 480
7154.25439 13277.09570 376.64600 489
7163.89355 13288.75586 624.25079 430
7294.13574 13536.49805 885.39343 497
7293.69775 13535.79492 1136.03186 497
7346.83838 13638.38086 1396.18762 389
7454.01807 13836.43457 1674.11523 466
7283.24854 13315.61816 130.40472 480
7241.23486 13244.53711 379.43228 489
7251.09961 13256.18945 624.72076 436
7385.04736 13504.83691 886.37317 497
7381.83838 13502.11523 1135.26965 496
7438.43506 13608.55371 1400.06763 389
7564.20361 13839.01074 1678.25439 483
7368.91748 13282.85254 130.36440 480
7331.40576 13210.60742 376.32352 489
7339.40918 13227.22363 626.09015 435
7472.61768 13472.96777 885.81891 496
7473.80176 13472.41992 1137.62024 496
7530.07129 13575.87305 1401.86365 389
7658.34863 13808.15625 1681.66382 483
7457.20947 13253.84082 132.93182 480
7417.42969 13181.37305 378.77338 489
7427.80664 13196.48047 624.08075 435
7562.56104 13438.57910 885.58301 496
7562.42432 13436.48633 1137.17590 496
7622.66943 13545.84668 1401.99719 388
7549.09180 13222.25684 130.46394 479
7506.73584 13148.49023 380.01874 488
7516.75879 13163.77637 626.60052 435
7651.06445 13406.16895 888.48535 496
7651.35010 13406.04199 1141.52954 496
7714.19775 13515.52246 1405.30347 388
26721.16016 47235.33984 5471.27930 1000
7636.16016 13189.95996 133.61247 479
7596.18848 13116.27539 379.11014 488
7606.59375 13133.54199 627.10004 435
7755.35791 13398.52734 889.36560 496
7758.02002 13397.19531 1144.43896 496
7803.50830 13484.24121 1406.27942 388
7727.61670 13156.70605 133.72241 479
7683.56592 13087.05859 380.24771 488
7694.09180 13106.89355 629.94226 385
7847.70020 13365.41992 892.41339 495
7847.41992 13364.94238 1143.43726 495
7899.28467 13453.91309 1407.60291 388
7819.59277 13121.93066 98.47762 479
7779.39746 13048.50684 347.62219 487
7791.38818 13072.75000 593.63403 384
7944.37500 13330.17773 858.63031 495
7945.19971 13329.11035 1111.78638 495
7999.59033 13419.32324 1375.45642 388
7909.87256 13088.02441 97.48106 478
7868.26855 13016.94238 345.71057 487
7882.34570 13042.89648 594.44891 384
7957.02197 13165.39160 853.38220 457
7937.49512 13132.52344 1101.76440 386
8088.88818 13390.23535 1377.09851 388
7999.94971 13056.64160 99.92713 478
7955.59277 12986.87695 346.12512 487
8098.99805 13219.12695 602.07904 495
8127.19434 13261.10840 859.32159 495
8126.04443 13261.56738 1112.48914 494
8182.90430 13357.75781 1376.17468 379
684.13568 965.30408 -0.80236 439
687.36975 970.31042 17.38946 379
8088.61377 13021.88184 99.64532 478
8048.20605 12955.57227 346.27609 487
8188.68164 13188.35645 605.94080 495
8217.65039 13228.09277 858.58466 494
8217.24023 13229.13086 1116.03149 494
8277.71680 13323.84766 1377.68323 379
687.80524 957.96643 -0.23430 480
689.48999 960.85779 18.09069 480
691.41241 963.69299 36.28516 439
694.37933 968.41644 54.63566 386
8180.16895 12989.31055 96.73991 477
8138.32959 12923.56348 348.86090 486
8282.62012 13154.70605 606.39117 494
8314.37695 13202.63379 863.23706 430
8311.66797 13202.02051 1118.64941 430
8402.25586 13346.86816 1384.85376 342
692.74988 952.90997 -0.29422 499
694.33643 955.59125 17.98692 498
696.23090 958.06073 36.47987 498
698.02209 960.78528 54.95201 497
699.33154 963.14844 73.27813 480
701.23376 965.78784 92.00365 479
8269.63379 12957.42773 97.47829 477
8227.31836 12888.11816 346.04398 486
8373.27930 13120.75879 607.55542 494
8442.16602 13231.21875 867.46075 429
8444.20801 13229.42871 1124.92603 428
8546.64844 13395.68164 1397.31494 341
699.29791 950.43109 -0.41101 492
700.99683 952.59863 17.92761 462
702.61377 955.22803 36.50159 461
704.55359 958.26447 54.96478 459
705.89020 960.45020 73.50819 462
707.57709 963.11188 91.77793 404
8360.00000 12924.55762 95.97636 477
8317.92383 12859.19238 346.96155 486
8462.61426 13086.58789 605.59991 494
8567.24512 13251.24805 869.57440 456
8575.00195 13259.18457 1128.16467 427
707.90240 950.63733 -0.94220 410
709.77386 953.89594 17.31842 410
712.43207 957.98395 35.67463 343
8452.73926 12892.48145 98.62276 477
8406.68848 12824.59375 346.55023 485
8555.71680 13052.10645 607.50665 493
8684.05957 13248.49023 874.55585 455
8706.51172 13286.99316 1136.20618 426
8540.60254 12861.08203 97.11474 476
8498.16211 12792.58105 348.31403 485
8674.87012 13063.43652 610.52509 396
8796.82910 13248.01758 877.59949 454
8632.13477 12828.02441 97.82197 476
8591.31543 12758.62305 349.53366 485
8805.81641 13086.25879 611.99200 395
8915.77637 13247.16016 880.32953 454
8723.12500 12792.07227 96.91144 475
8682.08105 12725.72852 348.53745 487
8940.82227 13109.21387 615.20239 394
8818.15527 12761.18555 97.23850 475
8774.62891 12695.98145 348.28220 487
9074.41992 13133.71387 618.79791 394
8908.27441 12727.56055 95.97160 475
8863.13086 12661.49609 349.43756 487
9004.04297 12693.16016 97.45331 474
8959.32324 12627.16504 349.04724 486
9096.51660 12658.35352 97.28601 474
9051.21094 12595.04004 349.53348 486
9187.94434 12628.00684 97.22069 474
9142.24609 12565.10156 352.14929 485
9279.72559 12592.93652 96.60822 473
9237.55957 12530.14453 350.03003 485
9375.00488 12560.77344 98.02742 473
9331.83887 12496.85449 351.64124 484
9469.01465 12523.83008 99.52459 472
9422.17871 12463.69336 351.82431 484
9565.46777 12488.41992 97.84322 472
9520.11035 12430.03027 354.63467 484
9660.78027 12454.36523 95.56009 472
9613.00879 12395.99609 351.95697 483
9755.60156 12420.17969 95.07742 471
9709.47559 12361.14941 353.26215 483
9848.89062 12387.83984 96.37688 471
9803.36035 12327.93359 355.33099 482
9945.07031 12351.40625 96.32370 470
9899.82910 12291.30957 353.79730 482
10041.35254 12319.96289 95.55928 470
9995.06934 12258.17480 355.24075 481
10139.46777 12281.57812 97.17583 469
10092.40527 12222.69043 353.75439 483
10235.01855 12249.58203 95.20504 469
10189.93750 12190.10059 355.47052 482
10335.07324 12214.19531 97.18639 468
10287.23730 12157.15527 356.72891 482
10434.08984 12179.45996 97.94946 468
10387.13965 12118.78027 356.29849 481
10533.50293 12143.81641 98.56389 467
10484.23340 12087.81055 356.69934 481
10631.06348 12104.45020 97.84837 467
10582.10254 12049.87109 358.83105 480
10729.28809 12068.34375 94.63110 466
10683.90918 12015.22266 360.21338 480
10831.38965 12035.51465 96.73689 466
10784.83789 11980.33301 360.80359 479
10932.57910 11999.33789 96.47290 472
10884.33594 11943.46484 362.32236 479
11030.19043 11960.50391 95.29480 472
10983.69434 11909.54102 359.42929 478
11135.63867 11927.37012 95.05346 471
11087.46777 11871.83203 360.37491 477
11238.12109 11889.10156 96.70695 471
11188.88477 11834.79297 362.21426 477
11339.54004 11850.01367 96.33308 470
11290.59766 11799.88379 365.02112 476
11443.32812 11814.90430 97.98216 469
11394.22461 11765.89551 365.56354 476
11549.54395 11779.59082 94.97470 469
11495.98242 11725.73340 365.31927 475
11653.84375 11743.01855 95.14355 444
11601.42188 11690.63770 366.38531 474
11772.72949 11715.37598 96.57153 445
11706.80371 11654.68555 364.66122 474
11890.41797 11691.56152 96.40614 444
11814.39453 11616.33301 366.54868 469
12008.61426 11664.89258 96.25818 443
11925.97656 11583.67188 369.02103 468
12128.53711 11642.33594 95.04581 442
12042.99414 11554.30371 366.65945 448
12254.32324 11615.29492 95.68860 441
12164.24902 11528.82520 371.62836 447
12377.17383 11592.16504 93.49613 441
12284.50195 11506.09473 370.90283 446
12507.52734 11573.34668 97.91962 394
12407.44727 11477.20703 372.33603 445
12663.83594 11572.76367 95.34273 393
12533.52734 11454.25879 373.56985 443
12823.74219 11581.41699 93.03249 371
12664.51074 11433.16895 374.03687 442
13000.47559 11594.28223 96.38929 370
12800.45605 11416.11133 377.24042 441
13186.84082 11621.41992 93.68126 342
12942.99805 11400.13281 375.29749 384
13474.44336 11729.48145 93.50125 277
13104.09863 11401.03223 376.22760 383
13267.05371 11407.08691 380.56491 382
13448.55176 11417.89160 382.51489 342
13668.70117 11465.02051 383.28638 341
13933.73730 11542.96484 387.00629 289
46776.08594 19766.85742 -7479.95215 1000
7595.82422 2752.93921 1707.91663 1000
36301.39062 10566.91211 -7433.84131 1000
3602.83496 863.74896 8.43354 480
26174.93555 4408.32910 -2074.73584 1000
53580.12109 8363.87988 -7975.89551 1000
17755.87500 2319.13232 -4356.48486 1000
32042.50781 645.80408 -1475.38171 1000
32079.17969 647.81140 618.25854 1000
4875.39893 -461.56851 -29.80783 433
4852.64453 -488.76303 -29.86055 434
49184.95703 -5043.10400 6581.28467 1000
4829.97168 -516.90240 -28.98573 477
4810.16211 -543.52985 -27.60423 328
4788.45898 -569.78693 -27.48066 336
4774.94434 -597.90039 -26.36153 438
4763.75537 -625.72308 -26.43638 440
4753.67432 -652.80548 -26.48584 440
4744.62500 -681.21063 -25.86802 440
4820.09814 -692.32684 49.55994 499
4738.34863 -710.07428 -26.32935 498
4818.01709 -722.09314 49.61865 499
4732.78516 -737.70496 -26.27629 498
4728.94580 -766.51520 -25.27057 498
4726.11426 -794.74463 -25.58391 498
4723.29932 -823.36084 -26.43963 497
4807.55029 -839.14941 50.10415 498
4720.64600 -853.33356 -25.60235 497
4718.34375 -881.95111 -25.92648 496
25412.32227 -4990.82666 -5464.14062 1000
4717.49902 -910.76569 -26.23634 496
4714.49707 -940.28033 -25.61131 496
4766.91357 -950.92590 49.86340 400
4712.50830 -968.54785 -26.62337 496
4710.69482 -998.53662 -26.97684 496
4709.24756 -1027.98071 -26.68391 495
4781.68506 -1044.34363 49.27705 365
4814.46582 -1051.51062 128.88577 286
4706.73193 -1057.39502 -26.90114 495
4704.87939 -1086.37024 -26.84920 495
4701.68359 -1115.19006 -26.27593 495
4700.67969 -1145.39990 -27.43736 494
4697.45410 -1174.31104 -27.64925 494
4696.41406 -1203.72852 -26.93365 494
4693.57715 -1233.72595 -27.71014 494
4691.29053 -1263.69238 -26.99912 493
4697.72412 -1296.11084 -27.32002 468
4704.46484 -1328.03503 -28.03481 467
3708.45312 -1953.75696 -4.18993 481
10053.38086 -8348.93945 768.74786 1000
3393.98267 -3171.65698 888.02582 1000
4690.61768 -4995.17090 20.69474 418
4634.42822 -4994.50244 20.70375 419
4579.41943 -4995.57520 21.88265 419
4525.41797 -4995.77881 22.06645 421
3478.66797 -3865.18237 -35.87400 458
4486.29150 -5013.23828 23.48652 490
4477.61377 -5064.25195 21.32202 414
9849.06543 -11406.76953 2610.10815 1000
3124.52979 -4970.02930 -58.89861 467
708.72076 -1029.34302 211.07484 307
708.46649 -1028.68591 230.74963 307
700.23853 -1029.31665 -5.46880 497
699.99823 -1029.19055 14.20650 498
700.00336 -1029.09778 33.92912 498
699.91223 -1029.18811 53.70643 498
700.14557 -1028.97778 73.61034 498
699.85986 -1028.93970 92.92806 499
699.88751 -1028.93762 112.78046 499
700.00446 -1029.11548 132.28923 492
699.86530 -1028.84705 151.88461 492
699.97229 -1028.86963 171.63396 492
700.04175 -1028.88184 191.00389 492
700.07574 -1028.98669 210.86507 492
699.95160 -1029.11743 230.60568 492
2987.06299 -5924.81250 22.90442 389
2939.00488 -5915.80322 24.03236 370
2890.89429 -5910.93555 24.42779 334
2854.49707 -5928.60547 24.30250 265
22949.14258 -49786.02734 -11703.03418 1000
2881.06055 -6078.94580 22.17075 497
2756.20142 -5901.49023 25.61626 442
2706.50952 -5888.00342 27.13855 443
2704.18726 -5883.48096 132.74467 477
2659.14038 -5881.22754 27.04199 478
2659.90088 -5881.71240 131.95007 478
2616.33740 -5881.54541 27.74628 479
2616.66504 -5882.52295 131.80975 479
2572.41357 -5876.37988 27.16652 479
2571.61646 -5876.21777 132.84016 479
2530.03784 -5874.80615 28.00227 480
2530.25000 -5876.04541 132.70978 480
2489.41650 -5879.63574 28.51246 480
2489.43823 -5882.09912 132.87509 480
2447.16357 -5880.00537 28.93036 481
2448.14404 -5881.61035 131.85304 481
2405.76733 -5879.36377 28.74912 482
2405.49585 -5880.61523 132.33931 482
1326.43420 -3204.02515 20.40258 284
2390.37402 -5948.92236 28.06721 341
2392.42773 -5952.03760 133.36859 341
2402.97021 -5980.88867 236.91426 473
1272.09705 -3119.57275 23.18528 317
1346.21069 -3312.85010 74.05557 466
2390.75024 -6061.17480 132.38928 340
1257.84912 -3140.90405 -32.45278 292
1234.79382 -3079.55322 25.32923 382
1323.79663 -3315.21802 75.03940 468
2332.68408 -6014.85791 237.75949 495
1236.03198 -3139.36792 -31.79998 293
1220.40771 -3096.44702 24.57840 415
1300.97510 -3315.98901 74.56179 350
1212.94006 -3137.57373 -31.29477 293
1206.18567 -3118.07422 23.82433 421
1278.03699 -3316.87744 74.84505 469
1192.70630 -3141.94189 23.94775 421
1255.89709 -3319.08862 75.54133 469
1179.70825 -3166.58252 23.07381 415
1233.11011 -3320.14160 75.37215 469
1167.69080 -3192.57275 21.99930 423
1211.07202 -3321.31494 75.22478 468
1154.45215 -3221.05005 21.52654 416
1188.64062 -3322.53198 75.24768 468
1143.38635 -3252.42285 20.62641 399
1166.62646 -3324.14453 75.38478 469
1133.27100 -3289.33472 20.23460 382
1969.92676 -5916.07812 32.19042 497
1123.96741 -3330.07520 18.36251 367
1936.65295 -5938.14453 31.48245 357
1118.37048 -3385.54688 16.77423 321
1936.01831 -6063.03076 29.20825 316
1123.01868 -3476.07983 13.92243 308
1127.58081 -3573.16528 11.02433 307
5184.10791 -17448.51562 4063.68213 1000
1129.78125 -3661.98608 8.51981 304
4182.84082 -38704.88281 -9592.41504 1000
182.93895 -1530.90063 7.20478 269
182.77473 -1528.13892 32.84375 345
182.69629 -1527.35242 57.96471 412
182.52644 -1526.49402 82.85853 412
182.44206 -1525.94983 108.15733 463
182.75781 -1525.60999 133.17154 463
182.57864 -1525.32202 158.28658 463
182.81178 -1525.16260 183.08681 493
182.69966 -1524.75989 208.44254 492
182.90610 -1524.67468 233.49661 492
173.09195 -1526.13025 7.69098 479
173.26785 -1526.64661 33.03956 438
173.20100 -1527.06360 58.17341 438
173.26122 -1527.52014 82.95033 378
173.38672 -1528.92004 108.02592 378
173.38852 -1530.88318 133.11766 306
-7653.16846 -43400.29688 -7847.63477 1000
-336.55167 -2019.68079 -1.44248 489
-336.71698 -2018.69080 32.69668 490
-336.48718 -2018.37976 66.47482 490
-336.51645 -2018.27222 100.18285 490
-335.97971 -2017.83276 133.99103 490
-335.82886 -2016.93945 167.58731 490
-335.82758 -2016.38232 201.33679 499
-335.70856 -2016.54565 235.11668 499
-20713.19727 -48755.11328 -3288.31372 1000
-22248.73438 -36412.89062 10877.94922 1000
-260.38248 -74.85173 35.76403 321
-258.34445 -72.16492 36.45078 321
-256.41821 -69.56756 37.12971 322
-276.58475 -73.67257 38.12484 318
-256.53281 -67.39762 37.19981 352
-274.43677 -70.84863 38.76651 321
-258.46478 -65.48894 36.81358 351
-273.00751 -68.24464 39.29920 345
-260.29391 -63.60362 36.37011 351
-274.72110 -66.27496 38.96818 345
-292.38828 -69.45569 41.23814 318
-262.20309 -61.80328 35.95273 350
-276.73050 -64.34618 38.51990 347
-292.82666 -67.09315 41.17324 341
-264.87302 -60.02514 35.31246 326
-279.07385 -62.33424 38.00203 324
-295.14526 -65.05043 40.69901 315
-284.80530 -60.98949 36.66525 323
-205.63881 -11.16357 52.29795 260
-205.87720 -9.40323 52.24434 260
-206.03728 -7.54662 52.20098 260
-206.07468 -5.70198 52.18028 260
-206.10870 -3.88405 52.18916 260
-206.06351 -2.09710 52.19227 260
-205.85202 -0.26596 52.28239 260
