# .PCD v.7 - Point Cloud Data file format
VERSION .7
FIELDS x y z rgb
SIZE 4 4 4 4
TYPE F F F U
COUNT 1 1 1 1
WIDTH 686
HEIGHT 1
VIEWPOINT 4293.172852 -4090.574219 135.874115 0.006738 -0.142748 0.001672 0.989735
POINTS 686
DATA ascii
-283.25201 62.09252 37.74186 323
-264.83374 61.26101 36.12510 350
-279.30774 63.69911 38.69719 347
-295.33572 66.45335 41.36791 341
-262.92822 63.11922 36.49776 351
-277.34439 65.73135 39.02671 345
-293.76706 68.63376 41.58606 319
-260.97263 64.96304 36.91107 351
-275.44949 67.73302 39.37373 345
-296.21277 71.55565 40.93614 258
-258.98569 66.89123 37.25433 352
-275.88855 70.04375 39.14723 321
-257.91745 68.88768 37.48594 325
-277.76932 72.75813 38.52311 318
-259.66336 71.47394 36.87038 322
-261.66898 74.15266 36.21022 321
-8136.65186 5478.84863 -844.21014 1000
-30843.35938 40513.35156 7682.29785 1000
-12173.86328 16693.10547 2855.12305 1000
-361.48550 1962.77319 32.97791 407
-347.51846 1958.74109 33.77358 498
-348.48355 1962.66418 66.28853 496
-350.06665 1968.48450 98.87208 434
-336.98785 1967.34277 33.27906 384
155.50606 14050.19531 2926.26733 1000
148.15904 1455.39636 12.73370 468
148.05959 1460.60510 36.61207 419
148.50615 1470.45862 60.03555 272
156.92006 1451.80359 13.37590 495
156.99211 1455.86462 36.81719 494
157.01616 1459.64893 60.50020 494
157.41434 1463.37891 84.34605 492
165.71535 1454.00464 13.19294 474
165.90884 1458.31421 36.75093 429
166.13606 1463.03284 60.43428 377
2612.21680 42308.60938 5006.26514 1000
1392.45752 15386.12695 131.95444 468
1385.44641 15305.20703 383.41714 488
1483.89404 15346.47461 133.33888 472
1477.30493 15266.37695 381.68408 489
1575.44128 15310.22363 132.28177 476
1567.63647 15230.53613 380.54645 489
1666.55676 15275.84570 129.64496 476
1658.71094 15195.89648 383.78262 489
1755.76843 15242.80762 132.33992 476
1749.75232 15164.33301 381.86746 489
1847.39282 15209.87109 130.61317 477
1839.90125 15128.54004 379.23782 489
1936.82373 15177.66113 132.67241 477
1927.77466 15099.52539 382.36005 490
2030.43457 15140.10254 130.48912 477
2019.67871 15066.46582 382.07632 490
2117.40967 15109.94531 131.82190 478
2110.13452 15033.72363 379.09402 490
2208.46460 15074.66309 133.78329 478
2195.94922 15000.49707 378.83771 491
2296.07910 15040.12012 131.22029 478
2288.05713 14965.17773 380.53009 491
2388.94971 15007.91309 130.85831 479
2377.74683 14934.25293 378.40427 491
2478.53882 14973.05664 133.78377 479
2464.79004 14901.20508 379.78937 492
2564.74048 14941.11133 131.84958 479
2551.95898 14869.02539 377.53119 492
2654.78564 14907.30371 131.98694 480
2640.31226 14836.32520 377.11401 492
2741.82617 14876.00781 133.22792 480
2729.51733 14803.58594 379.69519 492
2832.50635 14840.50684 132.66856 480
2815.72192 14771.32129 378.12595 493
2920.30225 14808.90332 131.54401 480
2905.32007 14743.11230 378.77136 493
3008.11328 14774.83887 131.32344 481
2992.54272 14710.31445 377.67331 493
3094.10718 14742.29102 131.14771 481
3081.61279 14675.90723 377.67789 493
3179.73535 14712.92578 133.07840 481
3169.08691 14646.50391 378.51483 496
3266.87158 14677.90332 132.36624 481
3254.58936 14613.75879 377.72803 496
3354.84351 14645.06348 133.21568 481
3341.48584 14583.62500 377.79843 497
3441.57373 14614.21191 132.18689 482
3428.65356 14550.63770 376.97461 497
3528.11230 14580.85059 130.42561 482
3516.83325 14518.60059 373.99960 497
3616.41553 14546.63477 131.79802 482
3601.93311 14488.03906 375.54370 497
3726.31494 14608.07129 -115.01363 460
3701.26489 14515.20605 130.03664 482
3687.71216 14456.55566 374.54950 497
3811.17065 14574.11133 -114.02021 460
3788.03589 14483.98242 131.15047 482
3773.23486 14427.27930 376.12411 463
3900.19604 14542.44824 -115.98552 480
3873.83643 14451.15039 130.42072 482
3860.99268 14395.21680 375.36313 424
3987.41040 14508.36426 -113.51318 480
3962.13110 14419.38086 134.06313 483
3948.83350 14366.51758 375.57208 424
4071.90576 14478.56055 -112.21967 480
4049.36694 14385.25586 132.16315 483
4033.35767 14335.75293 374.43948 424
4161.12305 14442.46973 -111.66453 480
4135.34521 14355.25488 133.49765 483
4121.70020 14304.63281 373.72614 424
4247.62549 14410.69824 -114.53368 480
4220.75928 14320.87012 133.09332 483
4206.23193 14275.22852 375.47574 424
4333.13232 14380.94141 -114.57413 480
4307.56299 14288.86719 130.05945 483
4293.60254 14245.78418 376.06549 424
4419.64795 14346.88477 -111.29665 480
4391.99854 14257.07910 132.37044 483
4380.78369 14217.53125 374.09854 424
4505.70215 14315.07422 -111.84007 480
4475.53125 14224.90918 132.62099 483
4467.63818 14186.48633 374.78937 424
4686.45898 14904.42969 644.00287 493
4589.01123 14282.22363 -114.64700 480
4563.08105 14194.68066 130.95032 483
4551.62549 14157.72559 375.30377 424
4772.35205 14857.16797 640.69727 493
4677.19531 14250.98828 -111.45036 480
4649.32178 14163.71680 131.63464 483
4636.40381 14128.14844 376.18668 424
4857.19580 14809.03809 640.69580 494
4764.13037 14220.02246 -112.99674 481
4733.88574 14132.15234 131.73000 484
4724.51807 14104.97656 377.26868 302
4940.73438 14759.61523 641.96246 494
4850.49121 14186.09082 -111.74045 481
4819.60596 14096.98242 131.27834 484
4812.15723 14082.24609 377.30417 302
5024.64746 14710.37793 639.26471 494
4937.11523 14153.64160 -112.40480 481
4906.32959 14065.33008 134.28960 484
4900.75098 14059.24414 375.35147 302
5108.18945 14659.29492 639.81726 495
5019.47607 14119.71582 -112.43463 481
4988.83691 14035.66797 130.77863 484
4992.06104 14033.86621 377.25467 302
5194.77246 14612.68457 639.99219 495
6147.25049 17351.96875 1034.93262 1000
5108.45166 14091.11816 -113.01090 481
5074.63770 14003.72363 131.22742 492
5077.62500 14011.50977 374.86349 296
5275.95605 14566.34863 637.98779 495
5194.89062 14057.29883 -110.59682 481
5163.97266 13969.41406 132.44586 492
5337.99316 14457.81934 382.07013 496
5360.73193 14517.40039 639.24646 495
5281.01270 14025.15527 -111.47581 481
5246.78271 13938.04688 131.68842 492
5421.05713 14410.97266 381.69150 496
5444.14551 14467.94043 638.86707 496
5365.78564 13993.41602 -111.17081 481
5331.83545 13908.41895 132.92224 492
5510.34521 14373.24609 381.79657 499
5528.17188 14430.45117 635.59094 499
5450.29102 13960.25293 -111.17765 481
5417.38770 13879.05078 130.37164 492
5595.99414 14340.19922 384.78448 499
5616.82129 14396.41699 637.99762 499
5536.29883 13930.82520 -113.74578 481
5504.33838 13845.58789 131.12170 492
5684.56494 14306.70020 381.51828 499
5706.50146 14364.15918 636.00293 499
5622.73730 13897.07324 -111.94047 481
5590.15820 13814.75684 134.03416 491
5772.39844 14274.02930 383.37512 499
5794.77734 14329.94727 637.53278 499
5709.83643 13863.03027 -111.79736 481
5674.81787 13780.59570 130.90033 491
5875.77393 14277.77539 382.94174 481
5884.56836 14295.03320 637.33557 499
5794.87891 13833.43066 -114.09182 481
5761.43848 13752.65820 134.25655 491
5950.73193 14208.75000 384.55154 482
5971.76611 14265.45996 635.70569 499
5882.91211 13801.75391 -112.78960 481
5845.19141 13721.40918 133.61603 491
6023.39209 14137.22949 382.66910 482
6059.36621 14228.60645 636.80664 499
5968.32275 13769.91504 -114.02892 481
5934.07373 13686.01270 132.47734 491
6095.10547 14068.34082 382.91254 483
6151.97949 14195.35938 638.29358 499
6054.93164 13734.89258 -112.73232 480
6017.46094 13657.00781 133.00180 491
6168.22021 13996.90234 382.85162 483
6197.24023 14064.76660 634.79688 496
6138.47021 13702.00977 -114.27682 480
6105.77637 13623.80566 133.01460 491
6236.54834 13929.38867 383.05875 484
6283.77832 14036.93066 632.67053 497
6225.52979 13672.23438 -111.33078 480
6191.11914 13592.37793 132.22034 491
6308.74902 13860.05957 382.79483 484
6374.97021 14004.29980 636.31470 497
6433.70557 14139.68359 894.05292 499
6310.27979 13638.12207 -111.02853 480
6277.40869 13560.92578 132.72482 491
6394.69385 13821.03125 380.60278 499
6464.41943 13970.68164 635.23853 493
6524.91846 14106.25293 894.43188 498
6590.01465 14251.33203 1158.30432 482
6398.59424 13605.22949 -113.40960 480
6362.27393 13530.48340 133.87431 491
6481.14160 13790.32031 380.05103 499
6549.86084 13935.88770 634.48102 493
6615.44385 14070.46191 895.11353 498
6673.00000 14198.75684 1157.93323 476
6486.12109 13573.82031 -112.07838 480
6446.99268 13498.73438 132.63585 491
6572.22461 13755.50195 379.73602 499
6653.70264 13934.88574 638.13068 353
6700.77930 14029.80664 895.37732 468
6571.90381 13544.06738 -113.61767 480
6536.03271 13467.74219 132.28842 491
6658.24365 13722.48145 379.31149 498
6759.94922 13937.82324 637.76642 469
6763.83154 13942.14844 891.83240 469
6799.82715 14015.83203 1152.16516 372
6658.52246 13508.65137 -111.56693 480
6622.09961 13435.94531 131.35420 490
6746.47168 13691.63574 380.98508 498
6824.48633 13850.82910 634.45111 470
6825.22803 13857.34668 888.79187 469
6860.19580 13926.33887 1148.68945 372
6743.70410 13476.62598 -113.54258 480
6707.87646 13402.30957 132.77589 490
6834.36963 13656.79297 379.48578 498
6884.16406 13762.95801 636.71210 470
6890.46289 13768.47949 888.02295 470
6921.97070 13834.15723 1142.09290 373
6832.02783 13442.92285 -112.43381 479
6794.44580 13371.06055 133.80449 490
6921.47461 13622.74902 380.62210 498
6949.23926 13676.89941 634.15320 471
6951.50781 13684.53906 883.09314 471
6984.07764 13744.64551 1140.75000 373
7309.73096 14400.44238 1454.52954 489
7314.37012 14411.72559 1717.63281 330
6918.86182 13413.90332 -112.54951 479
6879.19336 13339.13281 133.40190 490
7011.03467 13592.86230 382.55017 498
7030.96143 13636.99316 631.84436 498
7033.62158 13638.91016 885.67334 498
7060.37354 13695.45605 1139.84692 390
7191.25244 13950.73145 1416.79504 484
7130.70215 13831.40527 1915.80371 290
7131.14014 13829.66406 2176.21777 407
7130.93018 13831.05566 2433.47437 486
7003.90430 13378.51562 -113.40934 479
6966.39307 13307.19727 131.81607 490
7097.42676 13557.27148 382.71814 498
7106.52637 13575.37988 630.38690 498
7109.21533 13579.22266 881.40973 497
7151.56689 13664.00195 1141.00085 390
7281.54834 13918.76758 1414.86011 484
7093.58643 13348.82031 -113.89638 479
7054.30371 13276.51074 133.26024 490
7187.79150 13524.82715 382.44434 498
7194.62598 13544.34961 634.76495 497
7197.94531 13544.45898 885.03595 497
7241.81006 13630.32031 1140.85461 390
7373.97803 13885.14160 1417.18701 484
7179.61426 13313.98926 -112.25718 479
7140.74316 13245.14551 130.47021 489
7153.75635 13263.31738 377.28061 429
7281.91943 13510.41113 631.81433 497
7284.39600 13511.57812 882.18066 497
7332.82812 13602.10938 1142.55066 390
7441.81787 13805.30078 1414.31860 453
7266.27686 13280.51953 -116.57714 479
7227.38135 13210.72656 133.29942 489
7242.14062 13231.33008 376.40582 429
7374.72119 13477.24219 635.25085 497
7372.04199 13479.10059 883.84601 497
7423.15039 13573.40820 1144.37695 389
7550.03467 13809.13574 1416.23254 478
628.95312 966.24603 -12.48523 365
7357.39502 13250.68652 -113.55800 478
7318.21924 13176.82129 133.65933 489
7329.04688 13198.75195 377.18472 428
7459.91748 13444.84473 632.10876 497
7464.32520 13443.26172 887.13287 497
7516.39062 13542.91699 1141.99683 389
7646.20117 13781.42773 1418.63782 483
630.66272 955.78564 -11.56416 473
632.60431 958.88013 6.20094 428
634.43976 962.20679 23.83735 428
637.16272 967.14941 41.61895 366
7444.19385 13216.73438 -113.39274 480
7402.97900 13146.29297 130.74861 489
7412.61719 13166.52637 377.93375 429
7549.08643 13408.20312 632.87567 497
7552.92285 13411.98145 887.17816 496
7605.62256 13508.32227 1146.87939 389
7741.61084 13750.11719 1420.66675 483
635.26825 950.00647 -11.26216 497
636.84723 952.83203 6.45212 497
638.24731 955.46033 24.38621 496
639.67938 958.14349 42.10710 460
641.31488 960.77606 59.94454 473
642.90717 963.64008 78.06560 472
7531.19775 13185.37695 -113.31305 479
7490.49414 13114.33984 132.57242 488
7503.47705 13130.32910 380.88806 429
7640.27441 13376.73438 635.98224 496
7639.45654 13378.72363 885.10010 496
7700.12891 13481.60938 1147.23645 389
641.04816 946.45325 -10.97198 496
642.57056 949.19379 6.77654 495
643.92871 951.83527 24.48473 495
645.62256 954.80786 42.35504 474
647.03973 957.43536 59.95111 470
648.95544 960.21722 78.07994 472
7619.30371 13150.94922 -115.01296 479
7581.35156 13081.34082 131.67583 488
7590.83838 13099.20215 379.98703 436
7730.31836 13343.78418 637.39032 496
7731.61523 13344.13965 886.19556 496
7788.40234 13449.32422 1146.86572 389
647.78870 945.08533 -11.45963 470
649.68652 948.18903 6.39965 470
651.73059 951.33649 24.05176 422
654.08948 955.92047 41.72160 415
7708.75732 13116.39355 -115.40423 479
7668.37549 13049.13672 134.07828 488
7680.12842 13065.43750 380.47653 435
7835.72168 13336.58984 638.34290 496
7833.61426 13337.40234 889.79626 496
7883.93604 13418.42578 1149.18176 389
651.52917 947.08691 -12.05044 358
656.34570 955.55548 5.22311 284
7800.93945 13078.34570 -112.08778 479
7757.94189 13010.04980 134.47563 488
7769.82520 13032.04785 380.09091 435
7926.66211 13296.23242 638.56305 496
7925.58594 13299.78711 893.25238 495
7978.73242 13382.68457 1154.27527 389
7886.88379 13047.79395 -116.20158 478
7847.40625 12977.18555 132.72093 487
7860.07178 13003.75684 383.93576 385
7966.94287 13181.09473 635.36432 327
8016.27930 13261.95605 894.48474 495
8069.87305 13351.41309 1154.74182 388
7978.44531 13012.46289 -115.90886 478
7934.40283 12944.91602 136.71509 487
7952.80273 12970.68652 380.97751 385
8031.51758 13101.28125 637.00928 457
8006.08594 13066.21387 887.02484 386
8162.34814 13321.80859 1155.70728 388
8066.74170 12981.14941 -112.59263 478
8023.55908 12912.38184 134.03941 487
8167.18457 13146.94141 387.28979 495
8195.52930 13191.83496 640.04736 495
8197.05957 13195.86523 895.51440 495
8254.18164 13289.75488 1156.28333 380
8156.19971 12947.02734 -112.68443 478
8112.44580 12881.87695 135.76390 487
8259.41016 13115.12695 389.70715 495
8285.44238 13161.11035 643.84784 494
8289.66699 13161.51074 896.90802 494
8345.99707 13255.61914 1157.69800 380
8244.26758 12913.83887 -117.18288 477
8201.30664 12848.34375 134.93872 486
8348.22461 13079.93652 389.98950 494
8389.89258 13147.76465 645.97974 430
8390.84668 13145.76953 898.53027 430
8480.35547 13289.61035 1163.10303 343
8333.89258 12880.43945 -116.73310 477
8290.76562 12816.45410 134.42278 486
8442.27246 13047.21875 389.03397 494
8521.99316 13171.88184 645.85205 429
8520.79785 13170.78223 904.10968 429
8625.09180 13338.44727 1174.41516 342
8423.71387 12844.13379 -113.76114 477
8382.46680 12781.50684 136.32832 486
8529.87500 13012.31836 389.37512 494
8643.57715 13185.40332 649.20331 456
8650.96973 13200.51367 906.26019 428
8516.34766 12813.64453 -116.18185 476
8471.63672 12747.69336 133.34949 488
8625.23047 12979.60645 390.69543 397
8757.00098 13184.64941 650.98444 456
8783.70020 13223.44336 912.24408 427
8605.55078 12777.96777 -115.25030 476
8563.92090 12716.52441 133.65414 488
8752.60254 13001.22949 392.10669 397
8873.23535 13177.96777 654.79077 455
8697.42285 12743.89941 -114.54156 476
8652.22266 12682.72070 134.70639 488
8884.17090 13023.33594 394.41174 396
8787.27832 12712.85449 -115.72234 475
8744.88770 12648.38574 133.13556 487
9015.65820 13049.07422 393.43182 395
8879.68750 12678.40918 -115.96818 475
8834.94434 12614.40723 133.65953 487
9148.95020 13072.06836 394.41281 394
8969.36426 12644.14941 -118.85207 475
8928.53711 12583.11230 133.36015 487
9062.66992 12607.36523 -116.69172 474
9016.80469 12550.00195 135.86876 486
9151.75293 12575.94434 -118.69299 474
9111.30957 12514.56836 136.79317 486
29491.96484 40267.48047 -9774.86914 1000
9246.20020 12538.03027 -118.16763 474
9203.41895 12479.09473 135.73244 485
9339.71875 12504.39160 -119.85455 473
9296.00000 12446.46680 133.71640 485
9430.36133 12469.97461 -121.61588 473
9386.85742 12412.11523 136.04610 485
9524.41113 12437.17578 -120.62377 472
9484.20703 12378.44141 134.43312 484
9619.72266 12399.02832 -118.17013 472
9577.07617 12345.70020 134.53616 484
9715.27734 12367.36719 -120.25782 472
9668.80273 12307.99805 136.25620 483
9809.30371 12332.16992 -122.14580 471
9762.23340 12273.25195 134.77887 485
9901.88965 12293.41699 -119.99733 471
9858.66309 12241.44434 135.72470 485
28755.15430 35470.88672 -2846.83838 1000
10000.21582 12259.06738 -123.00345 470
9956.62793 12207.06055 134.45963 484
10092.53125 12224.94043 -121.09032 470
10050.55078 12171.80566 137.95290 484
10189.77832 12188.02832 -124.22370 469
10144.89648 12136.18066 136.49153 483
10286.52441 12151.98047 -122.56381 469
10245.67285 12101.83887 137.65248 483
10383.58398 12114.18164 -125.83184 468
10340.51270 12063.97852 135.77580 482
10480.66016 12080.31836 -123.10587 475
10438.33984 12027.69629 135.90532 482
10579.17188 12043.11328 -126.69018 475
10535.13867 11993.94336 137.63901 481
10676.30762 12009.88574 -127.83678 474
10635.58984 11957.27051 135.78331 480
10778.65625 11970.51953 -127.88838 474
10731.40039 11920.36621 134.68443 480
10875.85840 11932.58594 -126.20441 473
10834.43555 11886.12109 137.59799 479
10975.59961 11898.63086 -127.79425 473
10932.24121 11847.42969 137.90939 479
11077.64258 11859.29883 -127.11377 472
11033.53516 11813.60156 135.56364 478
11177.02344 11825.13770 -129.64619 471
11134.28613 11776.06250 137.62343 478
11279.63867 11787.80762 -129.10458 471
11234.83887 11739.39160 138.36681 477
11384.12793 11749.14844 -130.10229 470
11338.78027 11703.45508 135.79312 476
11485.99219 11709.84082 -128.97075 470
11438.77148 11662.68262 137.01892 476
11587.75879 11671.42676 -130.33644 469
11540.84961 11627.26855 136.00032 475
11694.86914 11634.53516 -130.04822 468
11644.79004 11588.90527 138.01128 474
11811.00781 11608.17871 -133.09412 443
11752.89844 11552.00391 136.39613 474
11925.86426 11581.36816 -133.01825 444
11858.42578 11515.14355 138.91615 469
12046.03516 11557.92871 -133.48903 443
11969.35645 11481.09668 134.62225 468
12165.09668 11532.34863 -136.50656 442
12082.46777 11449.81934 138.56747 448
12287.89258 11506.73340 -139.27986 442
12203.83984 11421.36719 135.70047 447
12410.19141 11477.68945 -139.80911 441
12323.85156 11397.42773 137.21019 447
12535.80371 11455.58984 -141.40817 394
12443.87988 11372.09766 136.18118 446
12689.31836 11455.09766 -143.77475 393
12577.27051 11347.47070 137.77812 443
12849.34570 11455.02734 -141.13020 392
12705.09668 11329.17285 135.18860 442
13017.16211 11467.88867 -146.26474 370
12840.88379 11304.25098 136.18335 441
13198.99023 11481.04395 -145.42487 342
12971.81836 11286.06250 137.64143 440
13411.20508 11524.20020 -152.27002 341
13126.03418 11276.78223 135.58113 383
13286.50488 11276.87793 137.07097 382
13472.16211 11296.70703 137.51729 375
13673.64160 11323.00879 139.36844 341
13896.53906 11367.05566 140.10085 340
3553.33521 850.89093 -41.06907 362
39386.51953 6639.30029 -7781.03174 1000
13472.33203 1507.94800 -745.84784 1000
68240.46875 2212.50049 -5437.20996 1000
54571.04297 -1909.01477 -11624.44922 1000
4804.36963 -484.86169 -20.86771 366
4803.79785 -513.75537 -98.86360 437
4778.19580 -539.68945 -98.17580 415
4760.95801 -566.49841 -96.95446 479
4745.81006 -594.22156 -96.41161 479
4736.02002 -621.61798 -97.11115 491
4722.64502 -649.41852 -96.06199 341
39252.64062 -5735.62012 -8404.77930 1000
4708.75000 -676.32886 -95.03922 345
4696.63525 -702.80731 -94.67058 346
4684.96875 -729.95172 -94.94150 346
4756.13770 -740.94910 -20.90973 499
4676.38818 -756.99841 -94.53349 446
4754.94580 -770.65656 -20.77596 364
4670.46826 -785.60309 -94.54215 446
4666.15381 -813.63495 -95.05959 446
4660.67383 -841.33624 -94.58588 446
4659.66260 -870.20593 -94.33680 445
4742.01660 -886.28400 -22.06566 498
4804.58252 -898.38251 54.45739 395
4657.15283 -899.39935 -94.92374 445
4654.72021 -927.75806 -95.02041 445
4652.95117 -956.20337 -94.92341 445
4795.89844 -986.23071 -23.59604 420
4650.00342 -984.90021 -95.65200 445
4699.52734 -996.52606 -20.35330 497
4648.29004 -1014.33075 -95.23273 444
4646.55127 -1042.67749 -96.73672 444
4643.29248 -1071.42126 -95.78408 444
4642.27637 -1100.57336 -96.72903 444
4639.19580 -1129.50366 -96.49541 444
4637.93848 -1159.53333 -96.62123 443
4635.31396 -1188.26721 -97.10239 443
4632.93652 -1217.04639 -98.02406 443
4630.55908 -1246.60376 -97.97501 443
4766.88281 -1284.02356 -25.32372 495
4628.65674 -1276.38538 -98.08207 442
22086.69531 -6187.70166 -610.27832 1000
4626.55029 -1306.02917 -98.49026 345
32195.66211 -14393.16113 7137.93701 1000
38654.50391 -19614.62695 5836.16016 1000
3635.91821 -1971.23303 -65.75784 457
4508.08643 -4796.16943 -80.29699 296
4474.39941 -4816.17041 -79.89558 456
4454.45312 -4854.91016 -81.98207 437
4434.61133 -4893.86426 -81.49498 437
4415.81299 -4934.40186 -82.03745 436
4401.67285 -4978.70703 -83.83549 424
4388.95166 -5024.87207 -84.70114 413
3382.82471 -3896.44678 -35.02673 498
4376.33887 -5138.05176 -85.56998 385
4376.49561 -5202.80273 -87.69193 392
4375.71191 -5267.39990 -89.61045 391
4375.54248 -5332.39893 -91.17712 390
4373.54639 -5398.21777 -92.24903 396
4375.54834 -5467.82812 -94.18442 397
35151.75391 -59034.32031 5762.66602 1000
632.16492 -1040.49231 36.00410 318
631.55005 -1039.55591 55.48918 389
631.60693 -1039.03247 75.00534 389
631.35510 -1038.58716 93.97375 389
631.14233 -1038.43054 113.38580 447
630.93024 -1038.19983 132.53983 447
630.97974 -1038.27917 151.77785 447
630.83496 -1038.13965 171.14020 484
630.74487 -1038.25500 190.14304 484
630.98865 -1038.02673 209.58424 484
623.61218 -1039.39771 -2.22833 498
623.64722 -1039.60291 17.07445 498
623.74280 -1039.77368 36.35757 489
623.89563 -1040.14941 55.88235 489
624.02112 -1040.28613 75.08873 489
624.26202 -1040.66089 94.28726 489
624.21680 -1041.13867 113.52124 456
624.46356 -1041.64856 132.73860 456
624.65833 -1041.92981 151.71721 456
625.14233 -1042.32666 171.08675 402
625.31519 -1043.10559 190.52832 401
625.57068 -1043.71240 209.82175 401
23488.71484 -47034.49219 -8531.61230 1000
2856.80835 -5939.01855 27.02455 408
2808.41406 -5929.50781 27.54054 374
2760.56421 -5920.53271 26.41016 385
2716.24609 -5918.08887 27.94814 344
2754.65845 -6103.85547 24.89077 496
2630.99194 -5917.74414 27.93134 444
2581.17700 -5905.21094 28.41227 445
2578.32080 -5899.45361 132.66299 478
2537.36548 -5899.91211 28.63983 479
2537.20020 -5898.02588 133.09615 479
2492.86890 -5892.95850 29.81308 480
2492.46606 -5893.17285 133.41811 480
2449.38403 -5893.65527 28.55004 480
2449.62500 -5891.88916 132.81938 480
2407.75439 -5892.51123 29.81300 481
2407.59912 -5892.55615 132.52385 344
2367.52197 -5897.72559 29.97421 481
2367.63159 -5896.55127 133.06929 481
2325.60352 -5894.38135 30.70342 254
2326.06616 -5896.75977 133.27777 482
2285.57764 -5897.61426 30.08634 483
2284.05005 -5895.84180 133.45036 483
2275.73096 -5986.49121 29.60693 362
2280.52100 -5994.18652 132.08197 339
2279.78857 -5992.76025 238.35870 479
1231.57117 -3194.81030 21.17375 296
2276.56714 -6100.09326 26.03535 337
2278.09570 -6107.43115 132.46548 337
2247.29053 -6021.39941 237.94550 436
1180.46973 -3111.79712 24.58103 308
1254.17224 -3320.09448 74.92844 468
2210.41284 -6035.09814 237.64569 469
1145.79810 -3073.30835 26.29610 417
1230.76221 -3321.06006 75.42560 468
1131.63110 -3092.84204 25.52593 417
1209.10791 -3321.43213 74.90976 468
1118.38391 -3116.01660 25.47295 413
1186.14722 -3322.32593 75.38448 469
1104.87451 -3140.65674 24.20794 408
1163.89795 -3323.33276 75.77139 469
1092.06567 -3166.83032 23.70070 406
1142.47571 -3324.34668 75.74469 469
1078.61816 -3194.41528 22.89495 405
1119.48572 -3325.53564 75.48045 470
1066.50586 -3221.93677 22.28570 402
1098.22705 -3326.27539 75.72031 470
1053.50452 -3251.16284 21.92209 259
1076.16284 -3327.13330 75.74494 471
1041.41992 -3284.79541 20.08935 382
1056.10681 -3334.57153 75.56828 451
1031.63098 -3328.29980 18.79162 356
1041.55566 -3360.03027 75.56178 352
1799.45569 -6020.49756 133.16081 319
1027.05920 -3390.43115 16.89229 298
1039.79065 -3433.45923 74.46337 324
1034.95825 -3500.74854 14.15908 300
1042.12097 -3612.88257 9.71418 295
1187.77869 -28766.27539 4882.65723 1000
115.57323 -1530.87622 207.26118 354
115.63101 -1529.05273 232.31204 419
106.36424 -1529.56750 6.85807 354
106.22960 -1528.46948 32.15442 419
106.17649 -1527.79309 57.04956 468
106.18439 -1527.13403 82.35433 495
106.05519 -1526.82031 107.16759 495
106.35786 -1526.86121 132.29097 498
106.16444 -1527.04932 157.03616 498
106.08108 -1527.46008 182.05492 476
106.07001 -1527.79785 207.13452 432
106.27273 -1529.08630 232.29015 432
97.15825 -1528.38757 6.63791 431
96.79168 -1529.34827 32.00197 370
97.17744 -1532.51880 56.94417 296
64.38237 -716.05298 311.75711 1000
63.98846 -517.92072 46.63586 1000
-5369.46338 -49933.58203 1769.16724 1000
-1860.89038 -10559.47461 -1462.40723 1000
-415.15216 -2017.77905 30.02012 460
-414.82767 -2017.05823 63.70398 461
-414.59094 -2015.95154 97.98992 492
-414.75821 -2015.23108 131.97223 492
-414.70654 -2015.00330 165.75227 499
-414.18692 -2014.43909 199.74791 499
-414.51535 -2013.86597 233.71458 499
-259.11765 -74.98428 35.57560 321
-257.13083 -72.31225 36.30925 321
-255.14977 -69.60244 36.88929 322
-275.31421 -73.77452 38.02089 318
-255.12080 -67.46948 36.98857 352
-273.13354 -70.91255 38.68087 321
-257.07465 -65.58834 36.61462 351
-271.64194 -68.34033 39.10001 345
-258.89050 -63.67075 36.25683 351
-273.40686 -66.36351 38.77626 345
-291.05090 -69.51920 41.08604 318
-260.81873 -61.84126 35.79622 350
-275.28006 -64.38512 38.40900 347
-291.44415 -67.22971 41.06083 341
-277.33261 -62.33929 37.98538 346
-293.35321 -65.12791 40.65140 341
-282.96912 -60.98161 36.62354 323
-61165.08203 -9986.87012 11422.09961 1000
-69750.19531 -3578.89575 -2158.67432 1000
-49740.47656 -2553.45215 131.21992 1000
-199.33710 -10.96974 53.42382 324
-199.28795 -9.13099 53.41922 324
-199.32860 -7.40468 53.46626 324
-199.36983 -5.52266 53.47082 324
-199.31201 -3.73052 53.43964 324
-199.29532 -1.95031 53.44529 324
-199.26834 -0.11945 53.45139 324
