# .PCD v.7 - Point Cloud Data file format
VERSION .7
FIELDS x y z rgb
SIZE 4 4 4 4
TYPE F F F U
COUNT 1 1 1 1
WIDTH 659
HEIGHT 1
VIEWPOINT 4273.447266 -4089.874756 135.718872 0.005717 -0.143572 0.001426 0.989622
POINTS 659
DATA ascii
-283.58740 62.15140 37.88068 323
-279.75830 63.86831 38.81222 347
-295.81473 66.65604 41.37205 341
-263.27588 63.27730 36.63618 351
-277.69208 65.90925 39.13000 345
-294.52197 68.86832 41.65269 319
-261.32651 65.17571 37.00272 351
-275.87909 67.90055 39.52402 345
-259.34674 67.00468 37.41114 351
-276.59079 70.27985 39.17815 321
-258.53900 69.08914 37.50145 325
-278.57709 73.08676 38.64119 318
-260.42108 71.64759 36.84159 321
-54646.43359 14331.22461 -5413.18408 1000
-17628.18164 5579.99854 -2926.64111 1000
-6175.40088 3286.50146 -915.73376 1000
-15749.73242 10974.06348 764.80273 1000
-18086.10547 17034.70312 -2734.62280 1000
-30963.75195 33318.07031 1619.24890 1000
-1766.89685 4109.08643 -537.87213 1000
-335.73956 1957.47998 33.18087 492
-336.52133 1960.94043 65.80787 485
-337.61905 1965.07751 99.09230 489
-324.41150 1962.73499 32.93006 440
-325.62476 1968.98999 65.64125 390
156.15436 1462.50793 11.92338 359
164.73457 1452.88403 12.81930 470
165.01588 1456.89917 36.37592 470
165.09262 1461.59485 60.00980 422
173.61320 1451.33276 12.94285 496
173.94551 1454.60400 36.44936 496
174.13103 1458.56201 60.36288 492
174.18527 1461.93115 84.01511 494
182.74181 1454.68494 12.46634 427
183.25156 1459.25745 36.12582 427
1290.77234 15342.75000 380.59036 483
1390.20398 15390.93262 130.87306 469
1383.78381 15306.80859 382.43994 487
1481.86023 15353.50293 130.45683 472
1476.69800 15270.37793 379.09360 487
1575.47241 15316.31152 130.28316 476
1567.14880 15234.12012 381.43207 488
1664.35095 15284.49902 130.19469 476
1657.03992 15199.41895 379.53198 488
1755.12988 15250.83008 131.29134 477
1749.04114 15167.82715 379.31686 488
1847.23157 15213.71875 128.96030 477
1838.41260 15133.95117 379.16202 489
1938.35913 15181.14355 127.91953 477
1929.53687 15101.25098 378.33490 489
2027.88831 15148.90918 127.71007 478
2019.56116 15067.16113 377.09155 489
2120.10913 15116.94141 127.09310 478
2109.17847 15037.51172 379.58044 490
2208.97754 15079.76953 128.17413 478
2197.66895 15005.06348 376.00574 490
2298.52612 15049.63965 127.30323 478
2285.46191 14972.13672 378.98389 490
2389.51636 15013.22363 130.52243 479
2377.58936 14938.87012 374.73306 491
2474.94263 14983.17090 128.91812 479
2465.84375 14904.90527 374.39691 491
2566.80713 14950.26660 127.49802 479
2552.08960 14874.60449 377.55255 491
2653.08057 14917.07617 130.34575 480
2643.14209 14842.13379 375.26212 492
2743.02686 14881.49023 130.21629 480
2729.85718 14808.18652 377.13760 492
2828.65991 14849.65625 130.06552 480
2815.89355 14778.53809 376.93686 493
2920.39380 14819.68750 129.85359 480
2907.14478 14748.11426 374.98270 493
3006.83545 14783.74609 128.96178 481
2994.11450 14712.83301 374.32147 493
3092.95898 14753.84961 129.26472 481
3079.21118 14682.88770 375.49411 493
3182.47949 14717.61230 128.20753 481
3167.34985 14652.82520 376.86853 494
3271.39160 14687.10449 130.23608 481
3255.77783 14617.80566 374.34866 494
3355.81152 14655.33691 130.24330 481
3340.07837 14587.85449 372.57047 494
3445.41675 14620.34473 131.19493 482
3426.84277 14558.52637 375.35486 494
3531.78833 14588.57129 131.41037 482
3515.97461 14526.04297 375.75082 494
3618.73071 14555.93555 131.91664 482
3601.35864 14493.15137 373.14560 495
3702.09155 14527.17090 131.41820 482
3687.27734 14463.63477 375.41644 497
3790.93481 14491.83105 128.30656 482
3776.86890 14431.71289 374.30206 498
3877.91260 14460.72168 131.89496 482
3861.63013 14398.58105 372.37439 498
3965.18530 14428.75879 129.98106 483
3946.16162 14366.78125 372.37469 498
4050.28125 14398.76465 129.76822 483
4032.85254 14339.44824 375.22073 498
4160.77148 14455.81934 -115.71919 461
4135.59326 14366.41211 131.43947 483
4117.72656 14308.23438 374.18881 498
4249.35693 14422.28418 -116.02594 480
4223.09424 14335.01660 131.09207 483
4206.28857 14275.59375 372.20734 498
4333.61230 14391.66113 -114.39088 480
4306.21729 14300.65918 132.09900 483
4290.28857 14244.52051 375.28665 498
4422.26855 14357.41016 -113.92569 480
4392.23389 14271.09277 129.36603 483
4378.00586 14212.80273 375.03207 498
4507.76465 14324.84668 -116.19675 480
4480.61084 14239.06641 132.20844 483
4461.92236 14182.31445 373.92133 498
4687.84961 14909.07324 642.11096 493
4592.00928 14292.70215 -116.02655 480
4565.88477 14203.99121 128.58232 483
4549.60596 14153.53906 373.07697 464
4772.47021 14858.90332 640.60260 493
4680.53809 14262.61035 -113.18962 480
4653.09912 14173.55957 131.75276 483
4633.34277 14121.01758 371.27603 464
4854.42773 14810.28320 638.20715 494
4764.46533 14231.60059 -115.31362 481
4736.04639 14139.76367 131.28127 483
4721.06738 14091.11816 371.23535 424
4938.73242 14761.16113 640.45569 494
4851.88037 14197.50977 -116.34318 481
4821.85352 14110.00586 131.53424 484
4806.71875 14065.54492 374.91592 424
5025.26660 14711.82617 639.51404 494
4940.15479 14167.54395 -112.73634 481
4907.53516 14077.48828 128.91087 484
4893.28174 14034.32031 371.85080 424
5107.83740 14664.85059 637.56628 495
5022.53857 14133.19922 -113.21663 481
4995.20215 14044.59961 130.40927 484
4980.39551 14005.04883 374.30212 424
5193.58057 14617.76953 638.26996 495
5111.40820 14099.53809 -116.09461 481
5080.24902 14013.91797 130.86424 484
5066.62744 13975.29590 373.50067 424
5275.67334 14568.33301 634.89642 495
5197.29639 14069.53613 -116.03630 481
5165.80859 13980.37598 129.77243 484
5150.27832 13948.03516 373.13004 424
5361.37061 14521.82910 636.12421 496
5282.39404 14038.99512 -112.57398 481
5251.07568 13949.71973 131.23436 484
5239.72168 13919.02832 375.52072 424
5443.05566 14472.50000 635.24866 496
5367.79150 14003.44141 -115.64131 481
5335.51904 13917.03027 129.20892 492
5325.78174 13887.70898 373.59683 424
5531.26318 14439.10059 635.58667 499
5454.57520 13974.72949 -115.04549 481
5421.88330 13888.10938 131.56706 492
5414.16455 13865.25488 372.74667 302
5618.88965 14404.92871 636.52075 499
5539.14355 13940.84668 -115.26057 481
5506.11523 13857.83008 129.11542 491
5501.58643 13839.75586 375.35425 302
5708.63379 14371.59375 634.14716 499
5626.49414 13910.09082 -112.57437 481
5594.00586 13823.30371 132.51357 491
5592.44531 13820.56250 375.20587 302
5796.68701 14337.96191 638.01636 499
5714.48486 13876.00977 -113.35428 481
5677.92822 13792.03516 129.01912 491
5677.73193 13794.78125 372.96478 296
5884.18457 14302.63184 637.93884 499
5799.00586 13843.41895 -113.93541 481
5766.52197 13762.08203 129.10893 491
5769.49023 13771.61816 373.76831 296
5973.44531 14269.95801 634.95074 499
5884.07471 13812.38477 -112.96575 481
5849.27197 13731.58496 131.34456 491
6022.78076 14140.75000 383.47461 482
6061.41309 14239.83887 636.27460 499
5970.13184 13779.65820 -113.53807 480
5937.63721 13697.31934 131.69188 491
6094.56592 14071.65625 381.00153 483
6150.91309 14203.65234 638.87274 499
6058.77441 13746.88965 -112.87384 480
6021.92090 13668.87695 129.92194 491
6167.20312 14000.54297 379.62390 483
6198.45605 14075.00781 631.60803 496
3668.59741 8323.33398 -149.45378 480
6106.51221 13635.39160 132.83478 491
6238.99902 13931.80859 378.40942 484
6286.39404 14043.71680 633.49615 497
6230.22412 13685.93555 -115.56214 480
6193.40234 13606.96680 129.63496 491
6309.07422 13863.80078 381.37518 499
6373.73145 14011.38574 632.25153 493
6438.28711 14146.25977 891.74463 499
6534.65674 14360.06152 1164.37085 307
6318.08936 13651.52148 -112.64642 480
6280.76074 13571.44824 130.15259 491
6399.25586 13831.32812 380.70258 499
6462.83887 13973.64941 633.98645 493
6527.20459 14111.62109 894.91492 498
6590.29590 14254.81152 1157.65161 482
6405.05518 13622.29102 -115.45027 480
6368.81592 13539.68652 130.92039 491
6483.68213 13797.92871 382.07770 499
6550.25195 13943.76074 635.22711 492
6615.85596 14080.68945 893.81616 498
6677.55811 14214.38086 1156.75195 476
6489.94189 13587.65918 -114.24899 480
6455.07373 13509.19238 130.07666 491
6572.21875 13763.93945 378.47394 499
6685.09521 14007.13574 637.26758 498
6699.49658 14029.95410 895.14490 468
6578.38184 13557.47070 -115.22800 480
6541.51514 13477.96875 131.04126 490
6663.07812 13733.41406 381.30753 498
6761.56689 13939.06152 638.02313 469
6761.68164 13943.04883 890.29730 469
6790.65918 13999.10645 1148.75317 372
6661.85449 13523.15137 -114.45497 480
6624.69580 13446.23242 132.04138 490
6750.92627 13701.37207 379.56815 498
6821.28760 13853.95508 636.17853 470
6824.04102 13856.76367 886.73981 470
6851.09473 13908.65527 1145.70032 372
6749.23096 13493.36230 -114.23076 480
6712.58301 13415.61914 132.89757 490
6838.53711 13666.45898 382.71710 498
6887.60596 13765.72559 633.75714 470
6887.05078 13770.65723 885.63348 470
6913.06738 13821.57324 1142.44373 373
6839.34033 13457.07520 -114.18027 479
6801.37158 13385.48145 133.04803 490
6927.03027 13634.55566 380.30652 498
6946.20850 13681.65332 631.46521 471
6949.83594 13686.50879 881.65002 471
6975.37354 13732.59180 1138.40295 373
7311.71143 14406.22852 1452.94910 495
7311.05225 14407.22168 1718.62671 495
7314.48584 14414.40625 1984.28967 488
7318.68359 14420.16699 2255.55688 488
6926.25293 13427.79883 -114.95157 479
6888.04053 13351.36523 131.81705 490
7015.05273 13601.34180 381.42896 498
7035.52100 13644.54395 634.52551 498
7037.89355 13649.26660 882.32111 497
7059.74072 13688.73145 1136.72253 390
7195.12451 13959.80371 1417.01538 470
7011.54492 13393.19727 -113.58336 479
6973.09814 13319.61621 131.62949 490
7101.71777 13570.24512 381.68469 498
7112.85449 13586.48438 632.67871 497
7110.32275 13587.25488 883.80792 497
7147.84521 13659.65527 1137.57397 390
7219.89648 13795.39941 1403.32227 474
7222.87207 13799.54297 1661.57080 347
7230.11865 13815.74512 1918.55859 347
7097.94629 13360.49316 -115.97506 479
7059.74463 13287.91602 129.81764 489
7191.86963 13533.28418 381.13989 498
7201.13867 13552.77051 632.47833 497
7198.13477 13556.11035 884.75189 497
7239.80615 13627.29883 1139.84790 390
7377.02148 13890.01855 1416.83997 484
7184.94092 13329.93750 -114.97487 479
7149.15820 13257.22852 133.49060 489
7280.27002 13501.87988 380.63419 497
7287.38672 13518.25684 634.69940 497
7288.66504 13523.00684 883.22833 497
7329.14258 13599.14160 1139.91187 390
7439.74316 13806.47363 1413.39612 453
7272.35938 13298.63184 -116.35287 478
7236.90039 13226.00586 130.25507 489
7368.30566 13467.50000 383.74057 497
7376.68115 13486.51855 635.37152 497
7376.66357 13486.61816 885.21442 497
7422.06641 13570.67383 1141.45740 389
7558.73633 13823.31250 1420.58838 483
7364.09082 13262.16504 -115.89352 478
7322.62549 13192.77539 130.81363 489
7455.37451 13436.03223 382.24390 497
7466.99707 13454.51562 632.50659 497
7467.41699 13453.09961 885.62366 496
7514.08057 13540.00879 1145.53369 389
7650.30859 13789.28516 1421.87097 483
7448.03613 13230.37305 -117.30408 478
7410.66650 13160.98438 130.00363 489
7543.73193 13404.02539 383.27298 497
7555.35059 13421.39062 632.53882 496
7557.09424 13423.48438 887.97968 496
7603.90137 13508.52148 1144.28821 389
7740.49707 13756.59668 1423.36340 483
7537.50244 13199.47070 -115.90447 478
7498.00732 13127.63574 132.65582 488
7634.75195 13367.75488 383.55215 496
7642.50049 13385.18359 634.75409 496
7646.17773 13389.75000 888.18005 496
7695.84961 13478.39941 1144.88770 389
7832.76318 13726.30957 1424.61780 483
647.67401 960.40295 -13.17610 431
649.90265 964.68964 4.63791 370
7626.47705 13164.58887 -113.95502 478
7587.81201 13095.12793 133.15936 488
7722.11768 13335.54297 383.45233 496
7734.96387 13355.31934 634.32178 496
7736.40381 13354.85059 887.40411 496
7788.55859 13448.69141 1148.43616 389
651.12598 953.09668 -12.50518 476
652.82861 955.89563 5.38068 476
654.54608 958.90961 23.17257 476
656.58411 962.20074 41.25865 468
660.12445 968.55951 59.11977 484
7716.29199 13133.92871 -116.90617 477
7676.28320 13063.09766 130.48410 488
7688.69580 13084.44434 379.82416 428
7840.55566 13347.45801 636.79578 496
7838.78467 13347.33008 889.76727 496
7881.52832 13415.28125 1148.90991 389
650.99451 947.89954 -13.38885 495
652.74597 950.27856 4.30811 495
654.21277 952.91174 22.30984 494
655.86804 955.90668 40.39745 497
657.82617 959.35388 58.40103 499
658.83447 960.91754 76.47853 497
7804.66016 13093.48730 -130.19122 477
7768.22559 13026.48145 117.27053 488
7776.15039 13046.35449 364.04834 427
7933.19141 13307.97363 623.44012 496
7931.35400 13311.24902 877.67163 495
7975.16211 13382.17969 1136.19031 388
17684.37305 29444.20117 -8494.13184 1000
657.73749 945.73236 -13.70859 468
659.54108 948.40259 4.27474 468
661.11743 951.38660 22.07634 467
662.93909 954.61121 40.12719 425
664.99915 957.57086 58.11125 403
7894.01758 13063.32324 -130.40631 477
7853.62598 12991.66309 115.57174 487
7866.28516 13010.29102 364.74805 428
7946.18945 13141.74219 618.70032 328
7951.93066 13156.86719 872.25873 311
8070.59912 13353.61523 1137.13000 388
666.02789 946.28687 -14.38314 419
668.29895 950.11713 3.64857 354
672.18018 956.86658 21.11351 279
7985.19189 13030.36133 -130.72043 477
7943.61572 12959.63672 116.60847 487
7954.30713 12976.05762 366.19916 428
8114.59619 13239.84082 622.21698 495
8007.21777 13068.06836 868.32935 386
8163.59082 13322.29297 1137.13586 380
8072.58057 12994.14648 -133.57904 476
8033.05371 12928.90527 117.29020 487
8043.04980 12942.50781 367.80762 434
8201.86621 13204.56348 624.57587 495
8206.50781 13207.38184 880.48602 494
8256.00195 13288.33594 1140.88892 380
8165.17969 12963.84375 -133.05287 478
8121.88623 12896.14844 119.32139 486
8132.40820 12912.01953 364.73108 434
8292.05273 13169.85156 624.11151 494
8294.00586 13172.75684 881.86853 494
8348.78223 13259.03223 1140.03174 380
8253.42578 12929.59961 -132.23671 477
8211.47656 12863.36133 117.22141 486
8224.99023 12881.02734 367.56244 434
8405.89844 13167.14062 625.33319 430
8405.97559 13169.29395 883.55090 430
8485.84277 13298.48340 1147.07617 342
10238.38867 15856.41797 -3311.14673 1000
8342.15430 12893.58008 -132.28119 477
8302.65820 12829.09863 118.68913 486
8314.17480 12850.50488 369.05591 384
8535.29492 13196.83984 628.78027 429
8532.87793 13196.14258 886.80518 429
8632.61426 13346.77148 1156.28369 342
29213.92188 45521.11719 9001.74512 1000
8433.47070 12863.64453 -134.84203 477
8390.88184 12795.18359 117.41629 485
8405.98242 12821.27539 367.12186 384
8653.83301 13203.06445 632.02972 456
8665.65820 13221.94141 893.28351 427
26142.15234 39633.38281 -6156.64307 1000
8523.80664 12827.98633 -134.56136 476
8480.46289 12763.81738 119.96475 485
8631.58301 12993.05176 371.48361 397
8765.99316 13200.31055 635.49384 455
8800.71289 13247.64258 894.93311 426
8613.14844 12795.96973 -133.52184 476
8572.10645 12729.42285 118.71052 485
8760.02246 13014.63086 371.88998 396
8880.79980 13197.69336 637.41669 455
8703.47266 12759.82715 -133.69041 476
8662.81250 12697.91699 117.78028 484
8893.01367 13039.09375 377.22482 396
8797.36426 12727.40137 -132.16580 475
8755.03711 12664.19531 117.31609 484
9025.97852 13063.82227 377.59030 395
8886.65918 12692.14551 -132.52841 475
8844.63086 12629.41406 119.70683 487
9161.50000 13088.16504 375.99661 394
8978.61621 12659.05859 -136.55998 475
8934.54883 12598.75977 119.24368 486
9071.59668 12625.88379 -135.95506 474
9026.02930 12561.32715 117.01160 486
9162.68262 12590.10352 -135.40953 474
9118.42773 12529.17285 117.84699 486
9259.04102 12554.10742 -138.01021 473
9214.29785 12496.33203 118.84729 485
9348.18945 12520.49219 -134.39435 473
9305.70801 12462.44336 116.54464 485
9443.68750 12487.25293 -134.79558 473
9399.75000 12426.34375 117.61376 484
9536.27930 12450.81250 -136.78046 472
9491.90723 12394.29590 119.95140 484
9632.11426 12417.64258 -136.56126 472
9585.46680 12360.81152 117.38494 484
9724.72266 12382.90723 -138.06415 471
9683.03906 12327.08496 119.26456 483
9819.96582 12348.63184 -139.73941 471
9776.17773 12289.29883 118.70287 483
9917.18750 12311.02246 -137.01669 471
9870.38184 12255.68262 117.74819 482
10013.14453 12275.80371 -139.61174 470
9968.28516 12223.13867 119.98749 484
10108.64355 12242.17871 -138.91766 470
10062.54395 12185.97363 119.95011 483
10202.02246 12205.76172 -142.62311 469
10160.19043 12151.18652 118.72918 483
10299.36523 12168.58398 -140.78526 469
10257.34766 12118.46777 118.29601 482
10395.79688 12134.47070 -139.62375 468
10354.89355 12079.16211 116.69901 482
10493.69531 12096.13672 -139.92799 468
10449.94629 12044.95117 119.44766 481
10595.58789 12060.28613 -143.86334 467
10550.16113 12011.52930 117.13329 481
10692.97949 12027.09668 -142.67714 474
10647.10254 11976.08789 119.08308 480
10791.54102 11989.50098 -142.00043 473
10745.26465 11936.89258 119.53714 480
10893.76465 11951.12500 -144.38652 473
10848.19629 11902.95801 120.09437 479
10990.72754 11916.52930 -146.56972 472
10949.22461 11865.87207 117.38618 479
11092.02930 11877.18945 -143.57034 472
11046.72461 11828.24512 121.51452 478
11194.46680 11839.98828 -146.41994 471
11148.54590 11794.67480 121.23251 477
11297.66699 11803.31250 -146.53174 471
11251.11035 11754.40430 120.45126 477
11397.38574 11765.83789 -146.29163 470
11352.17090 11719.70898 117.73179 476
11503.62500 11729.48633 -146.15004 469
11457.82520 11684.44922 119.53057 476
11604.32715 11690.82812 -148.66341 469
11559.70312 11645.46875 117.77966 475
11710.56641 11657.37695 -147.89838 444
11664.11035 11608.33887 119.09241 474
11832.40820 11632.75586 -152.55597 443
11769.68457 11570.29688 121.54600 469
11951.11816 11605.27344 -151.65088 444
11879.43652 11535.25977 119.54305 469
12069.52148 11577.45117 -154.94948 443
11988.71484 11502.57715 118.11691 468
12191.89648 11553.60547 -152.04622 442
12103.10449 11470.07617 121.51981 448
12312.93262 11526.55371 -157.03003 441
12223.30371 11443.96387 121.80257 447
12434.38281 11498.74414 -157.80923 441
12343.95117 11418.80664 121.41124 446
12569.59277 11483.88965 -156.87737 394
12467.46191 11394.07324 121.81786 445
12726.55664 11484.92383 -162.16849 393
12601.48730 11369.48438 120.80480 443
12883.72852 11490.29688 -161.49181 371
12731.45508 11348.90820 119.75258 442
13060.15332 11499.05957 -164.74695 370
12865.08691 11329.61621 119.61717 441
13251.04980 11528.25195 -165.12184 342
12999.46484 11310.09570 120.89380 384
13518.16309 11620.71387 -171.27454 277
13163.78125 11312.46387 121.05505 383
13326.43359 11312.33496 118.75401 382
13517.18848 11331.16699 121.90417 375
13726.06738 11367.94434 122.25482 341
14007.44727 11457.53027 122.21175 289
26790.44336 19615.62500 2827.03223 1000
25687.18750 16268.84766 4106.69873 1000
3568.57202 855.33051 -45.19392 464
47328.60547 8583.68848 5641.93115 1000
19384.61719 3136.73242 -5110.77734 1000
35173.89062 -579.06915 6511.46240 1000
4834.99219 -487.07889 -103.10356 436
4813.27490 -514.36902 -101.35596 437
4787.54736 -541.50336 -99.85490 478
4773.10254 -569.12292 -99.74691 479
4759.97656 -596.55524 -99.50858 491
4746.15723 -623.87091 -99.43277 340
4731.44629 -649.55182 -98.59315 343
4719.35840 -676.81445 -97.44746 345
4707.21484 -704.44049 -97.25475 445
4791.57715 -717.43414 -23.28851 263
4697.64404 -732.26184 -97.16457 446
4773.89209 -743.83234 -23.88162 499
4692.60742 -760.41583 -97.25685 446
4784.88184 -775.34283 -24.20836 418
4687.39453 -788.91748 -96.67522 446
4682.30322 -816.07123 -97.68787 446
4678.90527 -844.59088 -97.58377 445
4773.01367 -863.07605 -24.52803 275
4720.83594 -970.51678 -22.60406 497
4659.77686 -1105.25317 -99.45055 443
4656.63623 -1134.60034 -98.40723 443
4655.24463 -1163.39661 -99.92743 443
4653.55273 -1192.80811 -99.05143 443
4651.33203 -1222.43311 -100.11177 442
4649.11084 -1252.35315 -99.49669 442
4647.20068 -1281.95801 -99.94682 442
4650.61426 -1311.95715 -101.48939 327
3651.61182 -1978.95898 -67.77911 443
4506.49951 -4793.79297 -81.51690 468
4485.94824 -4830.86328 -80.44322 444
4466.72021 -4869.55713 -81.78088 440
4448.12012 -4908.83594 -82.36041 436
4431.01611 -4950.70703 -83.73936 423
4417.46631 -4996.69531 -84.31920 418
38674.48828 -44542.92969 8876.94824 1000
38466.61328 -44302.71094 10800.45898 1000
3415.13599 -3886.14038 -35.52744 459
4402.70361 -5103.49023 -85.67577 384
4401.68164 -5167.45459 -88.29930 384
4401.72314 -5231.99414 -89.85679 391
4401.52832 -5297.96436 -91.90949 390
4400.86572 -5363.73193 -93.06752 394
4401.28369 -5434.23535 -94.49536 394
4398.69482 -5499.49805 -96.76875 388
3050.65039 -4987.71582 -57.19658 468
655.39453 -1036.70935 112.55911 315
654.79272 -1035.88184 131.94707 386
654.68408 -1035.40295 151.33693 386
654.28992 -1034.98792 170.65880 444
654.24445 -1034.89697 189.91013 444
653.96869 -1034.65259 209.39081 444
646.63629 -1035.84412 -3.99847 482
646.71564 -1036.07275 15.71369 498
646.69623 -1036.08203 35.23616 499
647.02100 -1036.15637 54.55955 499
646.79706 -1036.25647 73.89684 499
646.89056 -1036.62744 93.11335 490
647.21960 -1036.88281 112.57469 490
647.25330 -1037.04114 131.91621 490
647.24756 -1037.14343 151.22231 490
647.71259 -1037.60095 170.61604 458
647.66833 -1038.07007 189.93272 457
648.20190 -1038.28259 209.38806 457
642.00909 -1042.11206 -4.08115 336
642.73389 -1043.73596 15.21008 336
2904.37964 -5941.45068 22.23231 392
2855.22900 -5931.09375 23.41595 373
2808.02515 -5926.63721 22.66551 337
2769.96265 -5940.67871 23.86845 268
2795.21582 -6093.30664 21.75975 497
2671.88745 -5916.23828 24.03350 443
2623.22583 -5902.62793 24.13579 444
2620.33862 -5894.08105 130.51537 478
2577.54565 -5895.25195 25.53101 479
2578.57959 -5894.17285 130.49973 479
2534.80029 -5894.87842 25.00210 479
2534.14526 -5893.28369 129.95842 479
2490.45776 -5887.73584 26.29852 480
2490.04810 -5887.90771 129.58817 480
2448.20435 -5887.61963 26.44183 480
2448.76758 -5886.50342 130.27194 480
2408.35718 -5892.18799 26.21656 481
2408.28369 -5891.93311 129.48755 481
2366.78125 -5892.33789 27.25417 482
2365.93872 -5890.10400 130.81334 481
2325.94141 -5892.89941 27.64253 482
2324.08081 -5890.59229 129.99835 482
2354.93359 -5969.35693 233.94081 405
2310.52002 -5960.65869 25.45585 340
2312.70679 -5967.91455 130.28496 340
2319.52734 -5986.52002 233.94745 482
1248.67358 -3179.80249 20.70868 295
1305.51770 -3335.37720 73.22744 373
2310.22144 -6077.14209 129.93874 351
1198.69934 -3101.63135 23.49979 316
1276.66748 -3317.83154 73.18167 467
2249.85205 -6026.39893 235.08289 495
1168.35486 -3074.56372 23.98589 417
1254.13550 -3319.02734 73.35668 468
1153.95801 -3096.86377 23.99663 417
1231.57654 -3319.53906 73.25228 468
1141.08496 -3119.65674 23.22252 418
1209.16968 -3320.66138 73.31178 468
1128.02795 -3143.76416 22.66046 413
1187.24976 -3321.90332 73.53535 469
1115.22644 -3170.96484 22.09197 407
1165.07556 -3322.97656 73.94756 469
1102.17651 -3197.55884 21.09040 412
1142.87708 -3323.71509 73.93512 470
1090.07349 -3226.28516 20.29960 403
1120.29480 -3324.98511 74.03263 470
1078.06885 -3259.05103 19.32117 383
1098.69116 -3325.63574 74.39697 471
1067.25977 -3296.75659 18.88084 259
1079.53711 -3335.84131 73.95540 462
1056.24329 -3333.97119 17.44223 357
1066.04187 -3365.93506 73.31709 346
1832.52954 -5992.79199 130.98573 317
1051.82202 -3397.13013 15.57672 288
1060.23743 -3506.27466 12.18721 301
1067.83508 -3619.36890 8.67431 296
3399.38623 -23069.06641 4760.29053 1000
1993.27002 -20317.02148 -1547.50964 1000
134.96202 -1530.26807 106.85599 351
134.54871 -1528.21094 131.98758 417
134.62897 -1527.12012 156.75871 466
134.77763 -1526.61267 181.98216 466
134.72348 -1526.16187 206.72609 494
134.69820 -1526.03174 231.93388 497
125.15265 -1526.50208 6.59417 493
30.58805 -1168.31982 -76.96304 498
125.20892 -1526.58630 56.64841 498
125.31100 -1526.87769 81.79958 477
125.48569 -1527.20764 106.79769 434
125.55277 -1528.43494 131.98267 434
125.35195 -1530.28357 156.82552 373
-389.71381 -2020.22595 97.98266 340
-389.24533 -2018.48767 131.60759 407
-388.40884 -2017.10449 165.39270 408
-388.25449 -2016.06885 199.47324 460
-388.04913 -2014.66211 233.46362 460
-402.26349 -2018.43933 29.52202 384
-53290.85156 -29946.42773 -8950.35254 1000
-6727.35449 -2694.10181 -1078.50464 1000
-257.70200 -72.27437 36.34694 321
-255.66023 -69.63272 36.98819 322
-275.93942 -73.70358 38.02412 318
-255.70174 -67.47707 37.13815 352
-273.71582 -70.94941 38.64857 321
-257.51688 -65.63384 36.71135 351
-272.17068 -68.35125 39.25814 345
-259.42538 -63.71790 36.28912 351
-273.95441 -66.36520 38.85134 345
-291.64185 -69.62825 41.12196 318
-275.88843 -64.42359 38.43186 347
-291.93622 -67.25118 41.13401 341
-277.89633 -62.44202 38.05703 324
-293.84644 -65.14822 40.73728 315
-283.54422 -60.95047 36.67301 323
-200.03882 -10.98400 53.46968 324
-200.10837 -9.18564 53.44574 324
-200.07884 -7.40034 53.48214 324
-200.06860 -5.53104 53.51968 324
-200.08652 -3.78934 53.51703 324
-200.06027 -1.93390 53.46496 324
-200.05019 -0.12548 53.51536 324
