# .PCD v.7 - Point Cloud Data file format
VERSION .7
FIELDS x y z rgb
SIZE 4 4 4 4
TYPE F F F U
COUNT 1 1 1 1
WIDTH 726
HEIGHT 1
VIEWPOINT 4458.875488 -4096.405762 139.257843 0.014942 -0.148805 0.002420 0.988751
POINTS 726
DATA ascii
-67652.06250 10802.74121 -6573.92480 1000
-283.19397 62.10300 37.80849 323
-279.41550 63.88217 38.70590 347
-295.55460 66.60764 41.34578 341
-262.82526 63.20074 36.48388 351
-277.32834 65.87533 39.06077 345
-294.11340 68.82359 41.58690 319
-260.89963 65.17017 36.96127 351
-275.55414 67.77673 39.45113 345
-259.00626 67.02408 37.28812 351
-276.12601 70.24184 39.21562 321
-258.04260 69.03431 37.44337 324
-278.13107 72.99591 38.55407 318
-259.89676 71.65864 36.84594 321
-261.82330 74.34767 36.15640 321
-46074.55859 16124.75879 962.76685 1000
-55372.23438 27395.35742 15663.26465 1000
-38493.85938 19950.08008 10284.90430 1000
-24337.51172 18530.22461 4693.78809 1000
-29147.21680 32959.79688 -2742.81128 1000
-351.33316 901.73206 -68.00299 1000
-10168.68359 22311.85352 1745.12720 1000
-18675.46680 42145.87500 -5936.14160 1000
-488.53455 1968.50330 31.44942 442
-491.81067 1978.28894 64.60660 314
-475.18713 1966.98474 31.57505 497
-476.66354 1972.48401 65.20226 497
-478.34515 1978.08679 98.72256 496
-464.57724 1975.66821 31.12205 404
-7688.56250 27937.45703 -4654.31738 1000
9.06727 1450.00806 12.89864 453
8.58935 1455.72949 36.48190 399
18.16263 1446.06262 13.55020 488
18.12901 1449.47180 37.01239 488
17.82580 1453.21094 60.79930 485
17.45903 1456.72974 84.37634 450
26.88265 1447.04724 13.25947 486
26.79727 1449.82349 36.91078 485
26.88030 1453.18738 60.65028 453
26.83112 1456.13599 84.18907 485
-803.29358 17731.01172 3663.46924 1000
35.85883 1453.64319 12.69295 392
35.59369 1458.56812 36.24911 322
-343.89835 31345.59180 -381.23660 1000
1490.57861 15353.48535 131.63757 467
1479.49255 15274.63672 383.25592 488
1579.17468 15311.39844 132.91031 471
1573.67285 15233.37109 383.04007 488
1671.15515 15273.20020 129.83063 475
1663.47571 15195.04492 382.73749 488
1760.85046 15239.69824 130.33386 475
1754.91809 15159.01562 379.37677 489
1850.37866 15201.77441 131.53578 476
1842.00122 15127.14551 381.08420 489
1944.26501 15167.06934 129.64644 476
1931.60791 15089.49609 380.43085 489
2030.36292 15130.30371 131.02379 476
2024.26770 15055.94238 381.25134 490
2123.08643 15093.90234 129.67905 477
2113.74805 15018.28809 379.46072 489
2210.82031 15059.85840 133.29747 477
2202.47583 14984.29395 381.06802 490
2301.30713 15021.68164 130.17097 477
2287.97583 14951.81348 377.83353 490
2388.83447 14988.33203 131.89230 478
2378.06128 14918.48047 376.55981 490
2476.87256 14952.87109 131.90320 478
2467.65308 14881.58398 376.18942 491
2568.47339 14916.28809 131.17000 478
2556.01855 14848.17871 375.78217 491
2655.74316 14883.82812 131.99023 479
2641.12720 14816.24707 378.53961 461
2742.93018 14849.20508 132.86617 479
2732.46899 14786.80566 377.23999 422
2828.55127 14814.84277 130.67572 479
2817.12524 14752.60449 375.09695 422
2916.83862 14779.69336 131.47949 480
2906.86694 14722.36523 376.99890 422
3021.97168 14839.49121 -114.73178 458
3007.04077 14742.84473 130.29797 480
2992.88867 14691.45801 376.67496 423
3110.62573 14807.12891 -115.73322 458
3092.67578 14710.56934 132.94009 480
3080.22827 14661.37305 375.78223 423
3200.65869 14768.17578 -113.63146 458
3180.75928 14675.31738 131.26062 480
3168.09204 14629.37305 375.88504 423
3287.10669 14732.88281 -113.89293 459
3266.15063 14641.57129 133.46455 481
3257.14844 14598.97559 375.79669 423
3373.10938 14696.43164 -115.07967 478
3352.01367 14605.40625 130.71561 481
3346.58765 14575.44043 377.12701 302
3458.79321 14663.85938 -113.92123 478
3439.65527 14571.72168 132.77483 481
3435.26636 14554.58691 375.29630 302
3548.09570 14628.40039 -112.62524 478
3525.93921 14538.19238 132.59018 481
3525.06348 14529.57324 376.37326 302
3633.05127 14593.12988 -116.18754 478
3610.95483 14502.92480 132.44412 481
3613.17310 14508.13574 375.80441 302
3720.97144 14560.33594 -114.21686 479
3695.71313 14468.38379 129.49098 482
4118.49707 16168.39062 403.03687 439
3805.74902 14526.37891 -112.56361 479
3782.86597 14435.66211 130.44942 482
4213.70117 16128.36816 405.64062 424
3890.97632 14490.62012 -114.05866 479
3867.41919 14402.84766 131.45334 482
4307.03027 16088.67480 404.81815 424
3978.50269 14456.81543 -112.19375 479
3954.80249 14369.45117 131.20796 482
4402.72266 16049.14453 403.36551 425
4061.57690 14424.01660 -113.64184 479
4039.83374 14333.33789 131.13759 482
4498.44824 16010.05859 404.44916 415
4149.70703 14388.32910 -113.78893 479
4123.04199 14300.65430 131.85750 482
4593.33984 15970.01855 404.27112 434
4232.76270 14356.00684 -113.88985 480
4211.10791 14265.05273 131.59024 483
4691.62256 15933.71973 402.58893 434
4321.49316 14319.88770 -112.02840 480
4292.28955 14233.09863 131.26045 483
4786.46973 15900.01855 403.73526 434
4406.35645 14288.90039 -110.91600 480
4378.68555 14200.04199 133.14873 491
4490.75635 14252.33887 -112.28031 480
4462.39453 14164.79102 129.60709 491
4576.41357 14220.56543 -112.56383 480
4547.80908 14132.32812 132.57643 491
4767.67188 14821.76855 384.52130 493
4766.30615 14826.52148 642.30359 492
4661.32861 14186.55859 -112.81214 480
4634.59229 14099.76953 132.58649 491
4851.39551 14771.50098 385.16531 493
4851.93457 14775.44043 639.42487 493
4748.51221 14150.40527 -114.19421 480
4717.20117 14067.39551 129.61345 491
4933.17969 14722.59375 386.70908 493
4933.30518 14725.46387 640.57367 493
4833.38477 14115.69531 -113.18933 482
4805.74365 14032.29980 129.52107 491
5015.61035 14672.35645 383.83505 494
5018.77100 14675.39941 636.19659 493
4915.87451 14083.81738 -113.03761 482
4889.95557 14001.41992 132.88719 491
5102.03369 14621.39648 384.48126 494
5100.50830 14624.54980 636.07324 494
5001.89697 14051.25293 -112.05933 482
4973.23682 13967.04297 133.44038 491
5183.13916 14573.29590 382.18280 494
5184.38135 14576.79102 637.55725 494
5085.52588 14017.50391 -110.94993 482
5059.71924 13936.98535 130.37119 491
5066.98242 13958.50879 375.03809 430
5269.46973 14523.69141 634.56860 494
5173.66846 13981.75879 -109.72381 482
5144.05029 13901.73633 133.16212 491
5148.73340 13922.37305 373.23004 430
5348.45264 14476.80469 634.47339 495
5256.12158 13948.69238 -110.81519 482
5228.64453 13870.96191 131.95375 492
5234.75049 13887.91699 372.44479 430
5433.82324 14428.68262 635.52106 495
5340.36279 13914.58984 -111.28288 482
5313.47754 13838.40625 130.27029 492
5316.97363 13852.35352 374.22253 430
5513.62354 14376.94824 633.69702 495
5425.41162 13881.59473 -110.48478 482
5394.16211 13803.15918 131.43655 492
5403.28271 13818.33105 372.06116 439
5599.58301 14336.50586 633.09137 499
5511.00195 13847.60840 -109.84087 482
5481.22412 13769.45801 133.57326 492
5488.33838 13792.41406 374.75922 388
5688.22656 14299.96680 634.30725 499
5594.42578 13814.51855 -111.64667 482
5565.54004 13736.76953 133.77748 492
5574.42236 13761.30566 374.87704 388
5774.22266 14268.70898 636.39618 499
488.42447 949.06079 -19.82478 459
489.66702 952.31158 -3.13417 405
490.88638 955.39374 13.57952 405
492.78714 960.07513 30.09185 339
5681.97070 13781.34375 -111.24265 482
5649.67236 13704.73633 132.46678 492
5660.05664 13733.82422 374.79401 388
5863.59082 14233.60059 636.21259 499
493.09973 943.33771 -19.23891 491
494.00616 945.96008 -2.60849 490
495.01410 948.69409 14.14231 490
496.18268 951.69818 30.58694 494
497.32672 953.88135 47.42387 490
498.30896 956.59460 64.25964 489
5766.19971 13747.87598 -112.32922 482
5734.45410 13670.10840 130.91188 492
5945.73779 14181.52344 382.90204 480
5951.09082 14199.80957 635.19794 499
498.53864 940.13776 -19.05470 499
499.56552 942.76611 -2.45932 499
500.62997 945.55469 14.25757 499
502.14017 948.75940 30.81062 486
503.17447 951.41132 47.46811 482
504.69727 954.80206 64.28880 438
5850.61279 13712.79004 -111.93273 482
5816.76172 13637.29785 131.29083 491
6017.44775 14111.74219 383.95779 481
6039.55859 14163.88379 635.32080 499
504.78638 938.63458 -19.28325 483
505.92645 941.76093 -2.62890 482
507.53482 945.46808 13.87800 443
509.39914 949.82001 30.43600 437
5935.40332 13678.96973 -112.77557 482
5902.68555 13607.57129 131.71790 491
6089.10449 14038.44141 380.85715 481
6126.23779 14130.63770 636.29169 499
511.95816 939.64825 -19.95182 443
514.07886 944.68762 -3.54119 385
6020.27637 13644.91992 -110.12997 482
5987.05811 13571.72461 130.22647 491
6159.28174 13968.02246 380.96271 482
6215.19141 14092.63184 634.59875 499
6103.13232 13612.30078 -112.06677 482
6074.01074 13542.21289 132.79466 491
6229.90186 13897.44629 378.64203 482
6302.07227 14059.59277 636.15637 499
6189.01318 13576.86621 -110.35864 482
6157.95996 13507.41992 132.38721 491
6300.54590 13827.79297 379.58643 483
6387.79004 14024.63281 636.10040 499
6275.12744 13543.96777 -113.57368 482
6240.14404 13473.10742 131.52615 494
6372.78418 13756.59180 381.12631 483
6478.84473 13992.48340 634.76740 499
6361.79346 13512.75879 -111.61099 482
6328.77393 13441.70898 131.16603 494
6453.16699 13717.25977 380.67749 499
6565.18262 13956.00684 634.30005 499
6583.40479 13995.32812 888.54285 499
6659.42773 14156.87207 1153.69128 481
6446.14160 13475.70605 -111.25989 482
6412.23730 13406.45020 130.80956 494
6541.29492 13680.76172 378.37967 499
6652.28027 13920.72266 633.67426 418
6672.07422 13961.41211 888.82007 499
6731.85059 14084.97754 1152.72522 481
6529.47314 13445.24121 -113.12035 482
6496.08105 13376.81543 133.50925 494
6626.40576 13645.66699 377.90634 499
6742.24609 13890.32715 635.56390 418
6761.89258 13928.36914 891.75842 498
6615.45264 13408.80957 -110.49108 482
6583.52783 13343.46289 132.68756 494
6724.54639 13635.62793 379.99863 499
6822.26953 13838.25098 635.46893 468
6825.92773 13843.17676 886.60126 467
6699.88086 13374.91895 -113.47387 481
6669.49463 13311.49512 132.17822 494
6880.87207 13740.58496 380.48734 468
6882.54834 13748.51270 635.58508 468
6886.41113 13755.44336 886.76892 468
6784.44580 13340.68555 -110.68497 481
6752.33398 13276.92480 133.23073 494
6941.98438 13656.39746 382.18039 469
6946.93945 13658.92188 631.20892 469
6947.30273 13664.41992 882.40601 469
6872.90479 13306.55273 -111.45432 481
6836.27637 13242.47461 133.39125 494
7003.61963 13566.36621 378.95416 470
7006.99609 13572.15430 631.66815 470
7007.29492 13580.25000 878.20892 469
7082.72070 13726.87402 1141.59692 372
6957.24268 13276.70410 -110.50486 481
6925.56152 13208.55664 131.47710 493
7084.95117 13520.31445 379.00677 498
7083.78418 13521.04980 629.55530 498
7083.47656 13521.35254 877.42798 498
7149.73975 13651.76270 1138.67139 390
7176.93555 13702.19336 1395.51636 463
7180.49072 13711.48047 1649.45874 463
7042.90869 13240.82129 -113.95655 481
7008.59326 13175.93750 131.81432 493
7168.11719 13482.66113 379.44086 498
7169.21729 13479.70605 628.03967 301
7171.27881 13486.43164 880.63489 498
7298.62354 13727.47461 1148.17908 452
7341.72314 13812.44824 1410.81506 484
7551.44336 14210.36426 1711.13196 368
7552.88330 14215.82324 1977.94446 495
21004.64062 39888.21094 8325.32617 1000
7128.09424 13208.36914 -113.24768 481
7095.26611 13143.53809 132.13567 493
7256.38232 13448.05859 380.82855 498
7242.55322 13422.82422 630.14417 498
7261.79150 13452.03320 880.88879 497
7387.37256 13694.06641 1147.22986 452
7432.81641 13776.27441 1412.96606 484
7213.47900 13170.72461 -112.73339 481
7181.95605 13112.76953 130.33968 493
7347.31152 13416.86621 381.55948 498
7330.96338 13388.39160 630.32239 497
7345.56592 13417.64453 882.19678 497
7475.02637 13657.28711 1151.12329 452
7524.25049 13745.18262 1413.66602 484
7298.89355 13140.80469 -114.66094 480
7265.12744 13079.90332 132.43225 493
7433.01758 13379.34375 381.09161 497
7420.96338 13354.35938 631.31641 497
7435.80762 13383.30859 882.10590 497
7565.88525 13627.12695 1152.36426 452
7613.81299 13710.68848 1412.83606 484
7388.09961 13106.52539 -113.03676 480
7354.62305 13044.75391 133.70650 493
7520.43066 13346.85254 380.94662 497
7505.19727 13320.81348 631.85681 497
7524.88086 13348.38086 882.74646 497
7658.82031 13590.33008 1152.38721 470
7703.34131 13676.41211 1412.80396 484
7472.95264 13072.21191 -111.83645 480
7438.47705 13012.28027 132.83524 492
7607.31836 13309.28418 382.34225 497
7594.66064 13286.79688 632.01398 497
7612.99512 13315.07227 881.49774 497
7745.37842 13556.63379 1151.06384 469
7558.92822 13034.95117 -113.15821 480
7525.15234 12978.57324 133.41267 492
7696.80566 13275.73047 380.55774 497
7681.94141 13252.17480 633.93109 497
7697.68994 13282.04883 883.71771 497
7837.55859 13522.58594 1152.53125 469
7646.76025 13001.42773 -113.74753 480
7611.47656 12942.59668 131.95912 492
7785.12305 13241.25977 383.41608 497
7771.72412 13217.69336 630.03833 496
7787.52246 13246.66309 884.27606 496
7926.93555 13487.74609 1154.40137 469
7735.72314 12959.27441 -119.27200 479
7699.50830 12906.34277 126.44648 492
7873.21631 13199.44238 376.32419 496
7875.35840 13204.44531 627.95959 496
7811.63574 13089.32910 873.43890 265
8022.66992 13446.12012 1147.48999 470
7823.05029 12926.19629 -122.92788 479
7786.74902 12872.47656 124.20458 491
7963.57080 13165.16113 377.42255 496
7966.14844 13167.31250 626.24463 496
7868.46045 13008.09668 870.73834 265
8113.48340 13411.04004 1146.92529 469
7908.14893 12892.33691 -122.03007 479
7872.58545 12835.20215 123.35873 494
8053.83154 13129.28027 374.40958 496
8054.70850 13133.66895 629.65894 496
7930.07959 12927.06543 868.80560 265
8201.47754 13378.73730 1151.79138 469
7996.35449 12858.39258 -122.81879 479
7962.00244 12805.43652 123.79376 493
8142.38330 13096.09766 377.27661 496
8040.62451 12934.72461 621.30426 354
7987.32910 12845.35352 864.53333 265
8296.63184 13342.36035 1152.51379 465
8082.35205 12821.79785 -123.91109 479
8051.25195 12771.58887 124.53663 493
8232.37207 13060.92090 377.76547 495
8231.39355 13063.64355 627.11877 495
8051.81836 12777.18750 864.35406 495
8388.71680 13310.11133 1153.92419 465
8169.27930 12787.23535 -120.33784 478
8136.35645 12737.49609 124.21594 493
8319.80078 13022.80371 375.34531 495
8321.94141 13028.72949 629.58362 495
8141.44385 12742.47559 864.75110 495
8478.70898 13275.51172 1154.38831 465
8256.25098 12752.50586 -124.43692 478
8223.88770 12702.49414 126.31424 492
8414.74609 12996.54492 375.96338 432
8413.58398 12993.68652 629.57910 432
8313.96680 12840.59766 875.99854 306
8581.59668 13254.56445 1154.48303 440
8344.32910 12718.97168 -122.53364 478
8312.05176 12668.39746 123.20525 492
8531.49121 13007.22461 379.08319 459
8542.60742 13020.22363 633.53406 431
8566.09961 13055.81836 889.48175 427
8694.44336 13257.38477 1158.60522 433
8433.99512 12683.92578 -121.38122 477
8402.50000 12634.93848 124.64512 492
8645.18555 13004.72363 377.65036 459
8672.16211 13041.08203 635.45642 430
8696.18652 13079.81738 895.41107 425
8523.17676 12648.07617 -125.54526 477
8490.52246 12598.93652 127.25232 492
8756.89062 12999.51758 380.09171 458
8788.88086 13046.93555 638.94592 457
8825.95703 13107.19922 900.25836 424
8612.95215 12615.26855 -124.29026 485
8579.23340 12565.41309 124.63625 491
8868.76562 12992.65625 381.87387 457
8901.32129 13043.13477 638.10083 456
8702.20703 12577.98242 -122.12010 484
8667.88770 12533.23438 123.55184 491
8984.21973 12991.74902 384.60120 456
8791.38574 12544.69238 -123.25955 484
8759.17578 12496.04395 125.70915 490
9099.96387 12986.45117 384.62061 455
8881.46582 12511.01855 -123.24210 484
8846.47949 12462.38281 126.13666 490
8972.13770 12476.43066 -126.79959 483
8938.21973 12427.22656 127.00972 490
9060.02637 12437.20508 -127.28153 483
9029.60645 12394.51758 126.89449 489
9152.57422 12403.59082 -125.81511 482
9120.19336 12358.99609 126.18672 489
9243.23926 12367.39062 -126.61527 482
9209.24414 12324.42285 126.04812 489
9333.11426 12333.48145 -127.70707 482
9299.28027 12291.18848 125.54469 488
9425.40820 12298.41895 -128.76801 481
9393.77832 12255.48340 122.79633 488
9519.08887 12263.65332 -128.54308 481
9486.61328 12218.33984 124.59174 487
9609.49414 12226.01270 -129.71454 480
9575.94043 12181.26953 126.13854 487
9700.93359 12188.12207 -129.06206 480
9670.67480 12147.45703 125.01394 486
9796.40820 12152.33887 -131.63417 480
9760.48340 12113.27734 125.11640 486
9888.45215 12119.18164 -130.21104 479
9855.96387 12077.44922 125.79437 485
9980.53711 12082.22852 -132.48860 479
9947.53223 12039.15430 124.45520 485
10074.65137 12044.97656 -129.67467 478
10044.23926 12003.90039 122.77352 485
10168.59473 12007.89355 -133.31546 478
10138.90723 11966.05566 126.54434 484
10265.58984 11971.60059 -130.66971 477
10232.47754 11933.08105 123.38178 484
10358.80078 11932.06836 -133.39391 477
10330.32227 11897.10840 122.77244 370
10457.91602 11895.03711 -134.92030 476
10432.53223 11869.34766 125.42315 370
10613.41113 11926.76465 -398.08084 466
10554.17871 11858.08887 -132.06201 476
10530.37695 11837.11230 123.84164 369
10712.48340 11890.34863 -395.33630 465
10647.12598 11819.82227 -136.28532 475
10632.27051 11802.11523 126.70174 433
10806.59570 11850.61035 -398.38666 465
10748.18164 11785.20508 -133.75601 475
10725.34668 11759.66113 125.52802 432
10906.74902 11812.40918 -399.87970 464
10845.50879 11745.37109 -134.96263 474
10823.91113 11724.08887 123.93729 432
11002.04395 11775.51660 -400.82938 464
10942.69727 11710.47754 -137.44353 474
10919.75586 11685.65039 126.35876 432
11100.53223 11734.60742 -403.51410 463
11040.30469 11669.85449 -135.16531 473
11017.27734 11643.99316 122.68054 431
11201.25293 11695.98340 -404.32858 463
11138.07422 11631.99609 -136.00517 473
11112.19043 11603.73828 123.88664 431
11298.45312 11660.67578 -404.97073 462
11238.50781 11592.81152 -139.83189 472
11212.60938 11564.13281 125.85593 430
11402.85254 11617.25488 -406.69476 461
11335.72168 11554.66797 -141.26822 471
11311.96387 11527.70801 124.16399 430
11501.29492 11577.61719 -407.25491 461
11436.97266 11516.89648 -141.28726 471
11410.61816 11488.96582 125.03471 293
11600.98633 11540.24609 -408.66901 460
11539.38281 11474.78711 -138.98206 470
11528.35059 11463.67871 125.49974 314
11710.26855 11502.70215 -408.49023 444
11639.70605 11437.17773 -142.03984 470
11641.44727 11439.05664 122.64221 314
11822.30371 11476.85449 -410.54703 443
11744.42383 11396.41016 -143.97153 469
12106.01855 11752.87598 122.83631 411
11935.49707 11445.41895 -415.12448 444
11846.82227 11358.40234 -142.84015 444
12150.90723 11653.68652 125.53437 411
12051.23828 11416.14258 -416.21295 443
11964.75586 11331.04102 -144.69498 444
12232.34375 11586.20312 123.20245 406
12172.89453 11389.30273 -418.74628 443
12079.31836 11305.14258 -144.71834 443
13175.45215 12340.35645 122.90276 459
12289.14844 11362.13574 -421.16815 442
12201.13867 11277.18359 -147.32602 442
13272.52441 12276.23145 121.56591 459
12415.24902 11335.63965 -421.62936 395
12319.80176 11250.35742 -149.77267 441
12278.42969 11215.48828 124.20420 462
12566.31348 11334.36328 -427.45773 373
12437.23926 11218.28516 -150.46382 440
12396.38184 11182.30762 123.50784 463
12732.86621 11343.50488 -430.59781 372
12556.95703 11190.61035 -150.43819 441
13553.14551 12084.29883 123.28593 371
12897.16016 11355.84375 -437.58386 371
12686.88379 11166.34570 -153.01408 395
13643.89941 12015.31152 123.22269 371
13077.05762 11372.08008 -438.61200 343
12835.64551 11160.49707 -154.38045 394
13735.57910 11947.18457 124.77448 371
12989.59961 11155.67969 -154.86581 393
13146.85547 11154.75195 -157.48457 392
13318.60742 11159.96484 -158.77289 369
13200.61914 11062.62109 125.67966 414
13527.05371 11196.42285 -163.58543 342
13358.69043 11057.78027 126.14751 413
13742.88867 11238.26367 -166.09483 341
13530.70605 11058.47559 121.80717 345
3402.21338 791.78223 -92.47083 460
3409.74316 771.71832 -92.04616 383
38952.45312 -2797.14062 2035.57556 1000
10973.62695 -782.83655 1930.28931 1000
4612.23779 -548.59137 -92.73200 436
4595.66162 -574.48242 -91.32399 458
4620.45312 -606.08893 -168.16319 412
4580.02393 -601.12012 -91.91743 454
4592.39697 -630.48688 -167.11194 475
4570.66162 -627.71002 -90.73479 396
4577.09668 -656.14111 -165.47864 476
4562.89844 -654.89246 -90.48271 393
4563.88574 -682.47638 -165.69994 488
4554.89062 -681.98480 -90.23136 436
4553.32568 -709.57538 -165.49457 488
4720.65088 -736.36786 -98.99277 372
4544.66016 -735.76385 -164.51991 485
4731.48682 -767.36554 -100.09080 320
4536.18164 -762.77454 -164.52094 487
4734.81445 -796.78961 -100.15092 442
4528.76660 -789.14850 -164.43849 487
4572.64551 -797.09180 -93.05581 453
4520.72998 -815.94653 -164.60428 485
4568.56592 -824.23145 -91.85694 499
4514.84424 -843.43805 -163.74214 486
4566.65527 -852.76599 -93.14174 498
4509.73242 -870.24451 -163.52330 486
4504.85107 -896.87476 -163.76976 486
4629.19971 -922.32733 -96.34679 498
4501.20996 -924.18207 -163.99570 479
4561.28125 -937.29071 -93.40633 498
4499.20312 -952.35516 -164.01343 479
4552.98584 -964.10455 -92.62727 498
4611.17529 -977.41571 -19.89657 498
4496.77686 -979.92224 -164.34445 479
4493.69092 -1008.01251 -165.19589 479
4490.90625 -1035.56946 -164.64560 457
4587.50244 -1058.49670 -96.10233 279
4488.40625 -1063.32349 -165.17235 457
4508.45557 -1069.01331 -91.58581 497
4486.25439 -1091.95911 -165.38255 457
4483.69385 -1119.69360 -165.92055 457
4481.78369 -1147.39209 -166.72514 457
4517.22363 -1157.32007 -92.87329 496
4528.88916 -1160.41321 -19.46251 496
4547.42725 -1165.73596 55.52189 497
4478.07129 -1176.23499 -166.37782 456
4701.70850 -1296.27905 -104.18410 432
4697.31543 -1326.01550 -104.57572 417
4692.33887 -1354.95984 -104.39738 422
4577.06055 -1351.61951 -99.19632 413
3437.34888 -2024.82471 -124.88239 459
3423.72607 -2044.12000 -124.37380 441
4572.33398 -2942.24219 -574.11639 1000
4330.92236 -5084.06934 -84.32236 297
4288.99316 -5095.09131 -83.25084 399
4345.81152 -5230.24316 -88.13443 497
4151.23486 -5054.43115 -79.97887 427
4135.12451 -5097.50781 -81.28468 454
4123.40332 -5146.39746 -82.71729 434
3143.73901 -3947.64966 -112.54247 291
3148.14062 -3953.11060 -31.66391 498
4118.13672 -5273.89404 -85.92676 401
4118.79541 -5340.39111 -87.62334 402
4116.22217 -5407.18457 -88.96460 401
4116.89990 -5474.78516 -91.01506 400
4114.82617 -5544.29834 -91.57542 399
9756.69824 -16052.29590 2599.31006 1000
2608.91553 -6081.31934 21.39216 346
15897.27051 -38705.78906 -4696.04150 1000
2544.97534 -6031.46582 -83.54791 367
2563.14429 -6071.86914 21.51597 461
2491.31885 -6005.77148 -82.87082 379
2439.95483 -5978.45996 -79.98689 268
2378.65356 -5931.61768 -78.61593 348
2380.02441 -5933.87744 130.27246 325
2330.81812 -5915.43457 -77.63667 355
2344.77832 -5953.57178 25.65860 448
2335.11011 -5925.82471 129.56720 464
2285.55884 -5908.42334 -75.79190 413
2298.92188 -5940.97852 25.58446 481
2292.33594 -5925.60010 129.29726 464
2243.25293 -5901.59375 -75.12201 420
2256.39673 -5938.94385 25.65167 482
2251.91699 -5925.44971 130.28232 340
458.17847 -1049.46472 77.01620 348
457.78931 -1048.26282 95.36311 414
457.63214 -1047.71863 113.79034 414
457.44202 -1047.38403 131.80014 464
457.62604 -1047.25903 150.02824 464
457.69482 -1047.29736 168.29460 493
457.69327 -1047.60168 186.60727 493
457.89600 -1047.99402 205.07979 497
450.19989 -1046.95520 -14.15016 463
450.03699 -1046.78345 4.10982 463
450.06363 -1047.03821 22.49090 493
450.15192 -1047.21008 40.72858 493
450.39844 -1047.28101 59.19757 498
450.47327 -1047.95349 77.18919 498
450.56287 -1048.19580 95.45355 479
451.08716 -1049.04663 113.57913 479
451.24048 -1050.00098 131.89569 436
451.50629 -1050.83472 150.14697 436
452.17523 -1052.41675 168.35545 376
453.06161 -1055.22729 186.81694 303
443.80374 -1049.24500 -14.10332 477
444.04922 -1050.03027 3.95113 436
444.57883 -1051.57227 22.22152 375
445.51154 -1053.71008 40.46083 303
2118.63135 -5897.18945 -73.68801 429
2132.91919 -5936.23584 26.60169 483
2131.15723 -5930.91846 130.25055 416
2218.32837 -6183.75293 236.65302 432
2078.71704 -5894.97656 -73.09637 433
2091.76147 -5935.63232 27.49104 484
2089.47729 -5929.25293 130.64214 416
2037.40588 -5895.18164 -72.74557 381
2051.33594 -5933.26514 27.45498 484
2049.51733 -5926.44873 130.75308 417
1997.42188 -5896.22949 -73.27596 381
2016.23865 -5947.94775 27.75508 333
2006.99670 -5924.66406 130.20058 417
1958.60034 -5895.13184 -71.76792 381
2011.44763 -6064.07617 26.13888 332
2000.82495 -6028.24121 130.08200 322
1918.23975 -5896.23926 -71.43128 381
2009.29297 -6185.31299 23.45265 330
1998.01343 -6150.03711 130.47948 314
1969.78540 -6058.10742 233.14162 497
1879.75928 -5896.47852 -71.05800 376
1029.36731 -3251.60864 19.94516 280
1061.38208 -3360.42676 74.06502 370
984.98718 -3172.13721 23.63866 319
1033.63904 -3341.09766 74.22474 470
966.60870 -3180.96289 -31.23013 297
949.03149 -3117.22754 25.62327 315
1011.35272 -3341.28638 74.22144 470
946.89368 -3184.07031 -30.55685 297
923.85583 -3099.45264 26.07658 408
989.44000 -3341.66064 74.65500 471
926.81488 -3187.58472 -31.28287 297
909.71899 -3121.77368 25.81592 407
968.19238 -3342.40820 74.16460 471
906.44336 -3190.89014 -30.91360 297
895.04688 -3144.25635 24.77443 409
946.04968 -3343.27686 74.32259 471
888.10217 -3197.92920 -30.87744 372
880.57294 -3170.61108 23.84739 402
924.78430 -3342.93628 74.94588 471
875.23041 -3230.25732 -32.12505 363
867.41241 -3197.81152 23.70812 402
903.37024 -3343.52759 74.64705 472
863.04169 -3267.20825 -34.14241 351
852.67908 -3225.87915 23.01094 401
881.06189 -3344.67358 75.26694 472
839.62439 -3256.93530 22.17098 377
859.86700 -3344.58350 74.77923 473
826.99585 -3294.61694 20.26933 370
839.30847 -3348.53735 74.68233 444
815.07928 -3338.63501 19.20300 355
821.64972 -3364.79541 75.26218 447
804.73224 -3388.24268 17.74100 323
806.93585 -3501.66797 14.03829 292
12093.73145 -58063.49219 7917.99805 1000
815.86847 -3658.63867 8.92893 284
7215.61377 -38010.14062 -4972.14697 1000
4589.70801 -25742.74219 4000.42139 1000
-82.13018 -1529.23218 157.07835 378
-82.26222 -1527.99255 182.48560 438
-82.06456 -1527.20813 207.70328 438
-82.07516 -1526.26599 232.93143 479
-91.50612 -1525.73657 6.27465 498
-91.14967 -1525.64429 31.54070 498
-91.21011 -1525.40686 56.57226 493
-91.27030 -1525.45557 81.83923 493
-91.35966 -1525.70825 107.00165 493
-91.17015 -1526.16687 132.20152 463
-91.54640 -1526.52869 157.40791 463
-91.66468 -1527.16699 182.27043 412
-91.60349 -1528.32043 207.63406 345
-2819.82788 -9637.52051 -33.51781 1000
-601.77936 -2012.26697 236.54553 283
-613.90277 -2006.98132 27.74952 495
-613.53400 -2005.73376 62.41306 497
-613.42413 -2005.69153 97.08065 497
-613.39075 -2005.55652 132.18739 474
-613.24677 -2005.46106 166.87871 429
-613.35559 -2006.50464 201.86967 366
-255.67807 -72.57114 36.01322 321
-253.75592 -69.90115 36.70881 322
-274.03589 -73.97533 37.71093 318
-253.39952 -67.64619 36.85725 352
-271.74106 -71.21729 38.44044 319
-255.19939 -65.76881 36.44741 351
-269.99451 -68.55193 38.94975 321
-257.10382 -63.85735 36.02579 351
-271.52835 -66.49601 38.67125 345
-289.61142 -69.78132 40.80602 318
-273.50873 -64.51611 38.28327 347
-289.56488 -67.41536 40.94859 341
-275.48563 -62.60495 37.82925 346
-291.56427 -65.25150 40.49501 341
-296.97476 -63.71247 39.36726 313
-196.80679 -11.10189 53.34057 324
-196.78943 -9.27962 53.37447 324
-196.82365 -7.46156 53.31090 324
-196.79497 -5.72732 53.38937 324
-196.76965 -3.85878 53.31340 324
-196.76901 -2.05513 53.37666 324
-196.71971 -0.26078 53.30946 324
