# .PCD v.7 - Point Cloud Data file format
VERSION .7
FIELDS x y z rgb
SIZE 4 4 4 4
TYPE F F F U
COUNT 1 1 1 1
WIDTH 664
HEIGHT 1
VIEWPOINT 4164.154297 -4095.987549 130.111359 -0.001461 -0.133981 -0.001013 0.990982
POINTS 664
DATA ascii
-65562.83594 3484.54175 -14171.59277 1000
-275.35010 58.22282 33.30943 320
-269.09082 59.45317 34.88997 326
-283.38834 61.80117 37.50437 323
-264.72598 60.98996 35.94877 350
-279.14084 63.48985 38.57034 347
-295.12665 66.20041 41.22224 341
-262.77469 62.92429 36.44355 351
-277.13312 65.46778 38.96241 345
-293.15665 68.34096 41.52460 340
-33286.95703 5929.92480 82.73064 1000
-260.86734 64.78421 36.76049 351
-275.33002 67.41245 39.27153 345
-294.85843 70.96748 41.13173 319
-259.04288 66.60433 37.20850 352
-275.26788 69.74372 39.21783 322
-257.40115 68.51160 37.51384 325
-277.15659 72.42144 38.63540 319
-259.17169 71.13680 36.88812 322
-261.21613 73.75806 36.29383 321
-263.12433 76.37654 35.65233 321
-4744.12256 1106.02368 -445.01111 1000
-55673.25000 24170.62109 -11007.23535 1000
-36198.59766 22252.69727 3573.02637 1000
-13286.28223 8431.22559 -2762.97192 1000
-2919.14917 4993.32471 1091.14355 1000
-264.25464 1940.30493 35.24749 486
-265.60699 1947.30359 67.51884 407
-252.43452 1942.29553 34.98679 486
-253.35001 1947.22998 67.50326 454
-254.11229 1951.09399 99.39565 450
-75.72323 1008.45428 -53.49924 1000
-9375.58203 68588.44531 117.06633 1000
1190.33496 15368.98730 381.72601 470
1289.40710 15434.31055 131.74823 469
1279.13354 15334.06934 385.19269 473
1380.04028 15392.01660 131.42944 472
1373.73376 15294.66211 383.06613 477
1473.92505 15361.91602 130.10945 476
1464.58069 15264.83984 380.20334 477
228.31931 1451.46777 12.87252 380
229.24022 1461.55530 36.39599 308
1563.34314 15328.58496 129.69479 476
1557.73669 15232.55176 381.20999 478
236.62651 1443.88123 13.30347 480
237.06068 1448.22693 37.17110 480
237.44063 1453.11548 60.87911 451
238.09766 1457.79309 84.53852 380
1657.56641 15298.15430 133.04033 477
1647.32947 15199.84863 382.17062 478
245.50919 1442.64062 13.70662 491
245.91364 1446.45715 37.30254 491
246.24071 1450.54211 60.91529 489
246.57663 1454.13770 84.47233 490
1749.45764 15265.21875 130.13852 477
1738.15918 15166.89551 381.45053 478
3860.26831 32789.52734 -7565.34912 1000
254.63150 1445.62427 13.41142 409
255.31396 1450.93835 36.94405 409
1841.01318 15233.79004 130.67307 477
1830.18079 15133.57129 378.78870 479
1928.70996 15199.23242 132.01930 477
1917.95569 15103.82617 380.04227 479
2022.63977 15167.17969 131.47090 478
2010.23291 15072.04980 378.50745 479
2112.67725 15137.56543 131.30421 478
2099.64795 15040.08496 378.61029 480
2199.75122 15104.82324 129.81221 478
2188.89136 15007.99609 377.81570 480
2292.66602 15073.34375 131.66046 479
2279.07861 14977.95801 379.82751 480
2382.53345 15043.55469 129.76056 479
2366.75635 14944.46582 377.15363 488
2472.26807 15009.53125 129.73964 479
2455.31372 14915.58105 378.84589 488
2558.38257 14979.30957 131.49704 479
2546.20605 14886.26758 379.09372 489
2649.70215 14948.48633 130.67856 480
2632.24805 14852.31348 378.28000 489
2740.44434 14917.81250 132.00339 480
2722.06372 14821.65332 379.62241 489
2825.13745 14883.72070 134.13271 480
2809.98218 14793.58887 379.64297 489
2914.94116 14852.61523 131.65573 480
2896.17139 14764.03027 378.32050 489
3005.15137 14820.42969 130.25992 481
2985.88086 14729.95801 378.34387 490
3091.64233 14789.59375 132.16707 481
3075.04419 14699.77051 376.16705 490
3180.02759 14762.09082 131.17461 481
3163.02515 14670.68262 377.12924 490
3266.48608 14729.98340 133.56523 481
3250.65381 14640.42871 379.08762 490
3356.96411 14697.93262 133.13814 481
3336.41748 14610.77734 378.94177 490
3442.75684 14668.30664 132.72104 481
3423.58325 14579.07520 379.05438 491
3532.24731 14637.50391 133.44254 482
3509.78101 14550.79102 377.27545 491
3617.22363 14608.22168 133.55098 482
3598.09741 14520.66309 378.45139 491
3708.56445 14576.19727 130.71709 482
3684.68188 14490.18750 374.79996 491
3794.52515 14544.06934 133.55312 482
3773.64600 14458.02344 374.77942 491
3881.06348 14515.04883 134.42682 482
3858.39038 14428.27832 374.40680 491
3969.64014 14483.65625 132.34370 482
3946.38110 14398.83301 376.79630 491
4056.55371 14454.07031 134.20723 482
4033.46729 14370.75098 376.56619 492
4143.75244 14423.18164 132.82251 483
4119.50439 14339.65430 377.37415 492
4226.86182 14391.35742 132.96455 483
4203.65723 14308.32812 376.07007 492
4314.67334 14361.68945 134.19728 483
4292.71631 14278.22656 374.62848 492
4401.53955 14328.49316 133.98468 483
4377.24268 14251.24902 377.07950 495
4586.81689 14948.16504 645.73383 494
4593.17920 14965.74219 899.20740 413
4488.61133 14300.13184 131.01961 483
4463.08984 14218.09668 375.06570 495
4675.17041 14900.07715 642.16974 494
4680.62891 14920.16992 900.88727 413
4575.51221 14269.89453 133.30151 483
4552.35938 14190.31348 374.78961 495
4758.37842 14851.73535 641.87860 494
4764.48242 14872.23438 899.09137 414
4661.62598 14240.57031 132.42113 483
4636.79346 14157.86230 377.73306 495
4844.32422 14804.73340 639.43854 495
4851.19092 14824.50781 895.84540 414
4749.84326 14207.50977 134.70799 483
4722.66699 14131.69141 377.19266 495
4929.87744 14759.75098 641.55762 495
4937.18262 14778.84277 897.17908 414
4835.05127 14179.91113 131.45886 483
4810.98877 14098.95703 377.24628 495
5013.44434 14709.26465 640.03302 495
5017.80029 14728.33887 897.37079 414
4920.50684 14146.17285 134.05067 483
4893.53809 14071.66602 376.01068 495
5096.53076 14663.36914 638.81262 495
5105.26758 14682.34082 894.06671 414
5009.86035 14118.83008 131.45917 483
4982.67480 14041.24512 375.72247 495
5180.59961 14615.17285 637.34528 496
5187.04297 14635.21777 894.67487 414
5094.50537 14086.40527 132.56104 483
5069.83057 14009.13770 377.22775 495
5267.88184 14569.12012 640.14594 496
5272.59277 14589.55469 892.33722 415
5180.83838 14054.40137 133.29790 483
5155.97217 13981.25879 376.50452 495
5350.39844 14524.17090 637.78064 496
5357.64990 14539.95703 891.76630 415
5267.80615 14026.06250 133.40140 483
5239.82617 13949.90820 375.19257 495
5441.81396 14489.50391 639.30957 499
5445.68164 14508.46973 892.40900 417
5353.21484 13997.25293 131.26923 483
5324.84473 13921.22363 376.58563 495
5529.36670 14458.90234 639.66412 499
5535.25537 14478.34082 892.83929 417
5441.52588 13963.16211 133.78680 483
5411.26172 13892.80566 377.55899 495
5619.77002 14428.01172 638.69775 499
5626.27734 14447.62109 893.92700 417
5526.62207 13932.39746 134.18987 483
5499.34814 13862.35156 377.46466 495
5708.27832 14393.18555 639.99670 499
5717.25684 14415.63672 892.84436 417
5614.33252 13902.40723 132.83124 483
5586.08984 13829.31641 376.76529 495
5797.95557 14363.09375 637.84985 499
5806.67432 14384.52051 895.26917 417
5702.23242 13874.86426 130.89435 483
5671.35059 13802.13379 376.57462 495
5885.13184 14328.95801 638.04413 499
5894.46729 14354.74609 891.47821 417
5788.10547 13844.75391 133.52734 483
5757.55713 13769.94824 376.73181 495
5977.53467 14298.72559 638.59802 499
5984.51611 14323.89453 892.77417 417
5872.91309 13812.27832 132.73044 483
5844.12305 13740.35742 376.60001 495
6064.10693 14265.36523 639.93134 499
6074.27393 14291.26270 894.96490 417
5961.35889 13782.89648 130.97490 483
5931.11816 13712.27051 377.34088 495
6123.99854 14167.90527 636.31873 395
6162.76562 14259.17676 896.18726 417
6046.71826 13751.81543 130.98517 482
6018.98486 13682.47461 375.89075 495
6212.68750 14134.42676 638.46167 395
6255.47754 14228.07617 892.40051 417
6135.05176 13719.54395 131.50710 482
6104.52832 13649.55664 376.84549 494
6305.25732 14104.11914 637.82410 390
6345.05029 14198.93359 893.97968 417
6426.48389 14376.37988 1164.76855 444
6433.09766 14399.57812 1423.79260 382
6223.81299 13688.85059 133.11433 482
6192.70557 13620.93750 375.01413 494
6393.90381 14068.68555 638.23584 390
6435.36865 14164.95117 894.08112 416
6498.38184 14302.99707 1161.58582 475
6501.23584 14315.65234 1421.19153 482
6308.85742 13659.88184 132.09325 482
6279.91357 13591.88477 377.00720 494
6480.15039 14037.41504 636.94720 390
6528.04834 14133.04590 897.30621 416
6610.86572 14316.75977 1165.82849 422
6631.90527 14369.86230 1428.63342 287
6396.53125 13628.16504 130.91345 482
6367.12109 13561.08496 376.03436 494
6601.64014 14071.90332 641.03717 498
6606.01660 14085.92285 894.70038 469
6609.40039 14087.86523 1151.08105 469
6484.43604 13596.90430 133.33908 482
6451.21094 13531.79883 377.34152 494
6670.34277 13998.01855 639.21448 470
6674.56934 13996.28125 891.24915 470
6674.51611 13997.93262 1145.60767 470
6572.13965 13565.86133 132.72096 482
6539.28418 13498.45410 375.47324 494
6736.86328 13913.14355 636.81927 471
6737.33594 13914.10742 889.17169 471
6739.29492 13912.02441 1143.49475 470
6660.23730 13537.27930 134.42528 481
6627.21631 13470.20801 377.92886 494
6801.60547 13825.37793 637.74188 471
6801.49658 13825.95410 888.84760 471
6799.38184 13828.71094 1138.56421 471
6748.17041 13505.23047 130.67966 481
6712.62891 13440.34082 375.84448 493
6867.16162 13750.69043 636.25134 498
6868.36621 13751.63867 886.98041 498
6869.81396 13750.57129 1139.34851 497
6989.41846 14001.35938 1411.78247 451
6833.48242 13476.05664 131.12041 481
6803.81982 13410.46094 379.92462 493
6959.20654 13717.94238 634.65106 498
6956.49658 13721.19336 887.96143 497
6958.56152 13718.17871 1137.35986 497
7083.82471 13968.70020 1412.81128 451
7319.54590 14440.41309 1725.11206 469
7322.82617 14446.29688 1990.98633 496
7321.89014 14449.86621 2257.55664 496
6921.06689 13444.40820 134.09863 481
6890.87158 13376.51465 376.44409 493
7046.76709 13688.31152 634.58081 497
7034.12549 13658.89746 886.84015 497
7046.24561 13686.59961 1138.52954 497
7174.83789 13937.95605 1412.84265 451
7213.34229 14017.09277 1682.85754 483
6317.39209 12239.97168 0.09495 481
6976.51953 13347.91016 380.50320 493
7138.15674 13654.47852 635.05511 497
7120.22266 13628.13477 887.59186 497
7134.99805 13654.12598 1138.00769 497
7265.95459 13907.73633 1413.62329 451
7304.18018 13986.30371 1684.22607 483
7099.98828 13381.25488 134.43028 481
7063.87549 13318.30078 378.54907 493
7223.62549 13623.69922 636.43707 497
7212.05664 13596.51367 888.81866 497
7227.67090 13624.10059 1142.13342 497
7356.20850 13873.79785 1417.57544 469
7398.30518 13953.53711 1683.48157 483
7186.25391 13348.56348 130.79372 480
7155.71875 13285.35938 379.46878 492
7316.52051 13589.41699 635.32404 497
7301.15869 13562.48145 887.94141 497
7314.22363 13593.35547 1140.84961 496
7448.76904 13841.99805 1419.69958 469
7488.23828 13920.35449 1686.67004 483
7276.03223 13321.01465 133.25107 480
7241.40088 13258.37012 379.60782 492
7406.26611 13556.41602 639.20435 497
7390.82812 13532.33594 889.64575 496
7404.85986 13557.03516 1140.80530 496
7540.70801 13807.68848 1417.78174 468
7366.38135 13289.88965 134.37877 480
7331.84570 13224.33301 380.65619 492
7495.43945 13525.58984 637.16040 496
7481.58496 13500.69727 890.08411 496
7497.96436 13525.54004 1142.88477 496
7631.56836 13772.11914 1420.30774 468
7455.86328 13258.23535 130.92674 480
7417.88428 13196.36914 378.50150 492
7586.70801 13493.53125 636.04065 496
7569.59619 13469.22754 891.40680 496
7586.12061 13494.72754 1146.21582 496
7722.12305 13741.06543 1421.45679 468
7542.51953 13223.58691 133.26585 479
7509.70557 13164.09961 380.45544 491
7676.88232 13462.39453 636.34344 496
7659.58691 13434.51758 890.19415 496
7613.83496 13347.02344 1135.22302 389
7812.71338 13707.51855 1422.69006 468
7631.83545 13193.97363 133.74164 479
7596.01611 13132.51953 382.36111 491
7765.00977 13430.58887 638.16565 496
7767.32227 13429.23145 894.57806 495
7678.92529 13274.99609 1132.55127 267
7909.71191 13674.55566 1424.09570 468
7721.19775 13163.53906 133.46454 479
7685.36426 13102.87012 379.19437 491
7859.64648 13395.99121 637.46027 495
7857.51514 13398.23438 894.83698 495
7752.60693 13217.38086 1132.82397 267
8001.32227 13643.50098 1427.47119 468
7809.82861 13130.23145 143.18240 479
7776.89600 13069.91406 388.94452 490
7949.68994 13364.74707 648.89819 495
7842.13428 13184.06445 892.45947 491
7826.69873 13160.39941 1144.64099 267
8092.90234 13611.67090 1437.47314 464
7901.61426 13099.54980 139.76155 478
7865.42041 13039.82227 392.17297 490
8038.03271 13332.56055 648.87177 495
8040.05420 13330.73145 905.01935 495
7903.62842 13108.99609 1140.23975 267
8187.54883 13579.29492 1439.22717 464
7990.98828 13067.47852 143.53044 478
7956.34961 13010.57422 392.56226 490
8132.09521 13297.49414 650.80676 494
8129.40381 13299.66895 907.52441 494
7980.19678 13050.65527 1139.43518 267
8279.21191 13547.72461 1439.49768 463
8084.01318 13037.64746 142.90413 478
8046.01709 12977.88965 390.78510 492
8222.82129 13266.33496 652.45831 494
8221.45996 13265.84961 905.18542 494
8062.71973 13011.91406 1141.77173 303
8377.92383 13523.26270 1443.57312 438
8171.71143 13003.47070 144.34567 477
8134.85254 12945.24609 391.79288 492
8339.67383 13274.19434 652.08594 457
8344.52246 13281.43945 912.49121 428
8366.41992 13316.45605 1168.93323 424
8496.48145 13527.71680 1446.51123 431
8261.80859 12972.89258 144.33238 477
8225.81055 12913.79883 391.90683 491
8451.89062 13272.50098 654.89661 457
8476.17969 13309.74512 913.32007 427
8496.00781 13347.29785 1176.96692 423
8356.41699 12937.98145 143.60370 477
8320.53711 12881.98047 394.05573 491
8566.56641 13272.50293 659.10437 456
8600.58301 13322.34277 918.24310 455
8633.25977 13376.50879 1184.48743 422
8445.96875 12905.62793 142.94804 476
8409.47754 12853.70605 391.69424 491
8680.11914 13271.13281 661.26654 455
8712.89062 13322.69727 920.45941 454
8540.36328 12873.99316 142.87445 476
8500.17285 12818.38184 394.65335 490
8795.24512 13269.27148 664.81995 454
8828.15137 13323.48535 923.88751 453
725.95660 958.73077 1.08387 428
729.15259 963.61847 19.55913 365
8632.31445 12842.45508 140.79039 476
8593.26465 12786.99902 394.29434 490
8914.10352 13269.54004 664.01581 453
728.96497 950.53296 1.63885 474
730.85016 953.58142 20.07575 473
733.05615 956.65991 38.97968 428
735.74304 960.81274 57.53020 421
8722.18066 12810.90430 142.08371 475
8683.63867 12757.09766 394.79141 489
9039.13379 13281.39648 666.88782 438
733.77997 945.58783 1.71868 496
735.57526 948.06677 20.44224 496
737.57104 950.97668 39.06282 496
739.27527 953.44543 57.79086 496
741.03302 956.33759 76.61012 495
744.77106 961.79175 95.22819 423
8816.49023 12778.61328 142.27783 475
8777.99414 12724.74023 393.13647 489
740.60181 942.86926 1.55077 469
742.39630 945.46301 20.36872 469
744.48547 948.41315 38.81313 469
746.12909 950.96686 57.59882 469
748.37604 954.05267 76.46947 421
8906.85840 12745.47461 144.47263 475
8871.38379 12691.29492 395.39932 489
749.32782 943.32928 1.11466 421
752.11627 947.25568 19.73758 357
9001.72949 12714.79785 145.26851 474
8964.37305 12658.97363 397.86252 488
9093.17578 12679.94824 143.22430 481
9055.81543 12628.91992 395.36295 488
9188.31152 12647.45508 142.15578 481
9150.27051 12596.32617 395.38132 487
9281.02930 12613.53320 144.11453 481
9243.40918 12563.87012 397.55722 487
9379.93945 12579.97461 144.29604 480
9342.17480 12529.99219 396.79425 486
9472.20801 12548.03906 145.18903 480
9433.40820 12498.98145 399.11646 486
9570.14062 12513.74414 142.50519 479
9531.55469 12463.33203 401.12927 485
9666.59570 12480.67578 146.51587 479
9626.91309 12432.54590 401.39426 485
9760.25977 12448.09180 145.06079 478
9722.10449 12400.92676 399.60538 485
9858.66699 12412.99316 144.52156 478
9816.86523 12365.67285 403.10535 484
9956.22656 12382.69434 145.96037 477
9915.39160 12333.18164 403.61990 484
10050.43457 12349.91113 144.23640 477
10010.79297 12300.72461 402.36465 483
10150.86719 12311.58008 142.79581 476
10110.98242 12264.11328 406.02399 482
10247.72559 12280.11230 145.48349 476
10208.28027 12232.39844 405.27042 482
10345.15234 12246.24902 145.41367 475
10304.65137 12197.35645 405.04745 481
10448.05859 12210.45020 145.61377 475
10404.02148 12162.32520 407.12195 481
10547.56543 12175.93359 146.09915 474
10505.51270 12128.83203 407.06271 480
10646.24121 12142.92188 144.41331 474
10603.36328 12094.46973 407.86676 480
10748.65332 12105.08984 144.39804 473
10707.18359 12061.51953 408.65161 479
10850.80176 12072.83496 144.65456 473
10805.03320 12024.42676 410.23581 479
10948.19727 12033.70020 146.91876 472
10907.40430 11991.94141 407.98282 478
11050.39746 11998.11328 146.66516 471
11011.72070 11955.81055 409.43631 477
11156.08789 11963.98340 146.03151 471
11113.51367 11920.02344 410.94177 477
11260.86914 11928.53418 147.57310 470
11217.74609 11881.63184 411.18390 476
11364.43555 11894.24805 147.07249 470
11317.92285 11846.51953 412.50171 476
11466.86914 11857.60742 144.54233 469
11423.30762 11810.41895 415.53979 475
11573.20117 11820.84570 147.72458 468
11529.01270 11777.52344 415.06732 474
11678.42383 11782.55273 148.54901 443
11634.28320 11741.28320 415.72440 474
11801.52637 11761.70312 148.50838 443
11744.68848 11705.59668 417.46338 469
11919.68848 11736.03320 148.18053 442
11853.33789 11672.56934 417.00140 468
12039.78223 11713.97168 148.45200 442
11969.47363 11641.54199 421.33542 467
12165.49609 11689.30273 147.81078 442
12080.90039 11608.90332 421.65277 466
12285.15918 11665.28320 148.91513 441
12201.53223 11582.54883 420.83615 446
12412.59277 11640.11230 145.37599 440
12325.34180 11561.24805 423.05786 444
12551.39453 11623.21680 147.24472 393
12459.35938 11542.19824 425.88828 443
12706.36426 11629.90430 145.77792 392
12593.71094 11520.97852 424.16504 442
12865.08594 11629.96680 147.08154 391
12723.65723 11505.20508 426.47812 441
13038.62305 11646.57031 147.58325 369
12858.80664 11484.53320 430.85211 440
13235.01953 11675.47070 149.17493 341
12998.54590 11464.16309 428.96783 439
13458.74707 11727.88477 147.16814 276
13147.62012 11453.59570 431.48056 382
13335.36816 11475.19531 437.34537 375
13535.71191 11504.44238 437.20288 373
13738.50098 11534.58105 441.43811 372
1248.88855 378.78192 233.86494 1000
38110.98828 11365.86523 -3736.16382 1000
3660.57690 903.75824 16.01317 302
3658.18774 878.81952 15.73524 414
14268.96289 2944.59082 3775.27100 1000
4931.61279 -405.74207 57.34586 383
4945.83740 -437.21841 -22.90324 428
4923.03174 -435.62274 56.54748 334
4917.47021 -465.31863 -23.14853 412
5022.37842 -474.69147 54.90882 440
4899.49707 -493.06744 -21.65523 474
4884.60352 -521.80988 -22.26070 475
4874.48145 -550.11462 -21.25737 487
4856.76270 -578.11182 -20.71932 326
4840.89258 -605.67151 -20.23868 328
4828.54053 -633.78595 -20.11872 433
5009.11475 -657.80756 55.61629 270
4820.28125 -661.92938 -19.71972 433
4890.58447 -671.01892 57.40033 498
4813.32764 -690.62085 -20.86009 433
4990.42725 -715.73297 55.13720 498
4807.91357 -718.83606 -20.79003 434
4802.28076 -748.47064 -20.73142 496
4799.85254 -777.11334 -20.28499 495
5867.15820 -989.59998 -343.91443 1000
4798.04639 -806.91284 -20.60416 495
4934.88037 -830.12915 136.17400 350
4796.62305 -836.04962 -20.91016 495
4922.56982 -858.83392 135.76709 399
4953.00586 -864.34607 216.62415 498
4794.29150 -865.19171 -20.82863 495
4791.95312 -894.43774 -21.26330 495
4886.99023 -913.17285 55.95321 497
4791.02881 -923.78918 -20.47515 495
4848.61963 -936.01465 56.40263 497
4788.88330 -953.47736 -21.78518 494
4703.64795 -966.33209 -484.94589 1000
4787.02393 -983.04761 -20.76925 494
4784.21777 -1012.86383 -20.82211 494
4783.20312 -1042.73328 -22.06547 494
4780.51025 -1072.73999 -21.71942 493
4778.54639 -1102.55884 -22.42390 493
4777.32812 -1133.36853 -21.91690 493
4775.46143 -1163.33850 -22.29868 493
4772.40918 -1193.60974 -22.97074 492
4770.48145 -1223.01074 -22.62887 492
4776.16406 -1255.23499 -23.70320 408
4792.67090 -1290.91968 -23.79254 311
3777.52124 -1932.56042 -2.32813 497
4684.80908 -4747.37012 26.29067 444
4660.64893 -4781.06689 24.60040 458
4640.40918 -4817.89014 25.73108 471
4620.36084 -4855.46289 24.36284 480
4600.97363 -4897.13525 25.28131 472
4585.99219 -4940.69482 24.12247 462
3563.80835 -3864.57520 48.38076 382
4567.71191 -5042.74951 23.84630 421
4567.82471 -5105.69824 22.97419 411
4569.14209 -5171.56006 21.62323 410
4570.72510 -5237.81348 20.27118 408
4570.36670 -5304.36475 20.26300 407
4571.34131 -5372.55859 19.37398 406
763.86456 -1032.66711 10.72108 433
763.45227 -1032.26660 31.30516 477
763.50049 -1032.12549 51.64370 477
763.45343 -1031.97095 71.57613 477
763.32385 -1032.08167 91.86755 477
763.29114 -1031.72583 111.99554 498
763.14197 -1031.85693 132.49179 498
763.24573 -1031.87427 152.42529 498
763.35864 -1031.75415 172.69685 498
763.16376 -1031.69409 193.00877 498
763.29816 -1031.98950 213.03273 494
763.48889 -1032.03003 233.50232 434
757.63208 -1036.96460 10.61091 416
757.59094 -1037.38354 31.13939 416
757.87097 -1037.70789 51.36845 416
758.33344 -1038.01392 71.66280 416
758.91827 -1038.81116 91.93680 351
759.43390 -1039.66943 111.92304 351
3237.74731 -4949.16553 36.71543 386
3126.02002 -5911.71387 31.81488 318
3068.28955 -5889.99658 31.36353 424
3015.38257 -5873.12598 32.41213 436
2965.80640 -5863.32959 32.88672 498
2913.61694 -5848.83203 32.56611 447
21993.98242 -46014.77344 -13467.02930 1000
2864.97607 -5838.78809 33.33723 451
2818.63916 -5832.35205 33.91387 460
2773.41016 -5827.22656 33.42286 445
2792.11353 -5870.25488 138.36674 477
2728.28442 -5824.97656 33.54110 450
2747.72485 -5870.90674 139.70103 478
2685.47925 -5824.40674 34.27408 453
2702.13477 -5864.95459 138.54189 478
2642.24146 -5823.07520 34.96685 456
2659.83618 -5866.22852 137.76256 479
2598.87036 -5823.98779 34.35249 457
2619.00977 -5870.92578 137.75502 479
2556.40503 -5824.21094 34.83438 455
2576.46216 -5871.56348 138.81947 480
1400.97229 -3150.71851 23.70677 281
2515.91162 -5824.19141 35.34650 456
2533.77563 -5870.59863 137.42789 481
2593.21069 -6010.19043 244.31906 468
1348.71570 -3076.79199 26.16491 304
1441.99048 -3305.40869 76.87969 467
2512.38208 -5921.47510 138.73216 343
2528.27539 -5957.75928 243.58554 487
1322.07678 -3065.89673 26.88758 423
1418.65222 -3307.18579 77.46166 466
2512.80786 -6026.55713 138.18759 329
2483.81445 -5955.24219 244.11966 463
1308.26489 -3087.36133 26.39274 424
1395.37390 -3308.25244 77.83929 467
2504.51880 -6114.82324 138.93353 429
2444.81787 -5961.02148 243.75974 381
1295.84839 -3110.26782 25.76013 420
1372.55090 -3309.10352 77.36862 467
1281.47290 -3131.74561 25.25210 429
1349.58459 -3309.91602 77.82037 467
1269.63599 -3156.67822 25.00594 423
1327.58728 -3311.58252 78.03402 468
1257.90027 -3184.68872 24.31545 422
1304.46704 -3312.79614 78.09812 468
2289.50439 -5994.06738 137.04681 253
1245.72668 -3214.10986 23.18751 414
1281.49341 -3313.55371 77.56513 469
1235.87817 -3249.12500 22.50554 339
1259.18298 -3314.54199 77.79170 469
1227.13611 -3287.86987 21.22849 351
1239.80371 -3324.33594 77.40155 456
1220.32300 -3333.27539 19.91046 340
1225.54517 -3349.45166 77.33931 361
1218.47803 -3397.03809 17.93929 305
1224.18372 -3414.41309 76.16753 318
1225.56628 -3490.52832 15.46666 308
1296.81128 -3708.07983 71.81274 471
1230.54980 -3577.74780 12.74902 306
1271.36816 -3706.43701 71.41828 381
1238.48779 -3680.63574 9.52038 303
1253.43042 -3730.55664 71.08324 311
1243.46875 -3778.74561 6.31553 341
12384.89453 -59216.16406 -5790.56689 1000
252.45084 -1538.10828 107.51331 262
252.47806 -1536.06348 132.81697 338
252.04218 -1535.21570 158.47449 406
252.18907 -1534.71069 183.59204 406
251.76407 -1533.76538 208.68196 406
242.92140 -1533.77991 6.68176 482
242.82851 -1533.88306 31.96709 482
242.84911 -1534.38367 57.29907 482
242.56512 -1534.26453 82.50259 483
242.52121 -1534.54333 107.71494 443
242.39882 -1534.71765 133.20352 443
242.63043 -1535.11121 158.39886 443
242.65883 -1535.50745 183.72612 385
242.41603 -1535.98303 208.99278 385
-248.96193 -2042.86902 132.22552 328
-248.70183 -2040.57178 166.13783 398
-248.75317 -2039.37073 199.85660 453
-248.09029 -2038.13916 233.94987 488
-260.83640 -2039.18445 30.42275 450
-261.27945 -2039.80847 64.40611 394
-261.76715 -2041.13940 98.16398 324
-13628.02637 -67484.67969 8048.96240 1000
-9694.59961 -43934.29688 11402.04004 1000
-9015.13867 -30955.13281 -6842.48779 1000
-7390.30371 -10530.07910 -1145.04260 1000
-49226.29688 -35338.55078 11145.00391 1000
-262.83154 -74.70061 36.12323 321
-260.85245 -72.06597 36.79399 321
-258.93307 -69.43915 37.44521 324
-279.07748 -73.49581 38.53921 318
-259.34775 -67.26501 37.43118 349
-276.96204 -70.67566 39.16390 321
-261.23044 -65.44379 37.05275 351
-275.82077 -68.13211 39.53405 345
-30868.41602 -5831.77490 -2975.62476 1000
-263.12228 -63.56081 36.62762 351
-277.52655 -66.14765 39.23584 345
-294.91852 -69.29089 41.54942 319
-265.03412 -61.63162 36.25065 351
-279.45981 -64.16586 38.78333 347
-295.54028 -67.02567 41.50125 340
-268.54385 -60.01626 35.34080 326
-282.71048 -62.46345 38.06129 324
-299.16681 -65.19341 40.69127 315
-274.45505 -58.67919 33.84111 320
-288.49475 -60.98149 36.74891 323
