# .PCD v.7 - Point Cloud Data file format
VERSION .7
FIELDS x y z rgb
SIZE 4 4 4 4
TYPE F F F U
COUNT 1 1 1 1
WIDTH 693
HEIGHT 1
VIEWPOINT 4432.080078 -4095.407471 138.627548 0.013748 -0.147900 0.002314 0.988904
POINTS 693
DATA ascii
-23564.82617 2297.68945 -225.96930 1000
-46493.28125 5678.66895 -5206.23975 1000
-283.39139 62.20689 37.93634 323
-265.08945 61.41346 36.15181 350
-279.64160 63.90252 38.78659 346
-295.84192 66.69651 41.49499 341
-263.09875 63.32637 36.61720 350
-277.59863 65.90281 39.11204 345
-294.57877 68.90755 41.55856 319
-261.12695 65.23811 37.00046 351
-275.79266 67.93575 39.55545 345
-14530.47949 2700.85010 -1069.06042 1000
-259.23471 67.08391 37.36759 351
-276.58545 70.34988 39.14739 321
-258.34683 69.12982 37.44432 324
-278.51187 73.15346 38.60891 318
-260.28369 71.80333 36.82522 321
-262.21640 74.39185 36.17558 321
-25598.40039 54102.15625 12052.87500 1000
-20137.12891 50360.76953 12790.88574 1000
-462.03497 1965.64905 31.52470 482
-464.00836 1971.35999 65.27169 482
-465.43402 1977.35901 98.58187 440
-450.14169 1968.40845 31.58112 488
-451.64935 1975.00818 65.10815 455
-453.75458 1982.65601 98.71568 334
-6940.47705 43246.03125 2282.25928 1000
-3238.79956 37935.64844 752.27625 1000
25.98862 1458.11011 12.41744 335
35.59629 1447.18994 13.10661 456
35.16246 1451.06982 36.95689 456
35.07326 1456.53625 60.46387 313
44.48273 1445.33252 13.27908 499
44.46187 1448.04395 37.19674 499
44.43929 1451.43311 60.48021 499
44.17364 1453.98352 84.17435 488
53.22385 1448.11377 13.32436 446
53.02375 1451.05664 36.84650 446
52.86855 1454.86621 60.36799 446
52.98774 1458.22583 84.05244 388
1395.27100 15399.42676 131.03702 467
1488.64124 15352.21387 132.19093 468
1481.35498 15270.82324 382.21451 488
1577.05518 15311.67969 128.50146 475
1569.73560 15232.29199 382.79224 488
1670.28149 15275.34180 131.69922 475
1663.21082 15197.05273 380.42194 489
1759.51721 15240.37793 129.57365 475
1754.95581 15161.63281 381.33041 488
1850.05640 15206.31543 128.51675 476
1843.53601 15128.20898 380.01151 488
1941.57996 15171.74121 132.25136 476
1931.95898 15091.83887 377.52863 489
2032.69666 15134.70703 129.36626 476
2023.71777 15055.86426 377.18878 489
2123.94482 15097.49805 129.15742 477
2112.42578 15023.35645 379.48892 490
2210.44653 15062.94141 129.10733 477
2201.85522 14990.23926 379.64291 490
2301.68213 15029.54199 132.52821 477
2290.55786 14957.25391 376.36154 490
2387.80469 14995.68457 128.98938 478
2377.58887 14923.25781 376.29297 491
2479.58691 14958.37891 128.95778 478
2467.60596 14887.17773 378.39285 491
2568.14185 14925.49414 128.76118 478
2555.59082 14854.02832 376.84476 491
2653.68286 14891.35645 128.59656 479
2645.23975 14820.65527 375.12900 491
2742.97729 14857.66504 129.38184 479
2729.06519 14786.24414 376.43573 492
2830.84253 14821.56250 132.10925 479
2819.69287 14753.44824 376.10669 492
2917.85400 14789.05762 132.14113 480
2908.03174 14720.42871 375.19308 495
3005.83643 14750.70801 131.38568 480
2994.10571 14686.69434 373.41672 495
13143.49316 64188.43359 -11793.00586 1000
3093.21045 14718.60645 131.64668 480
3081.40894 14652.69434 377.12436 495
3179.16284 14683.47168 132.56209 480
3166.60303 14619.88965 374.31476 423
3266.85376 14649.35742 130.24170 481
3255.56323 14591.73047 376.38058 423
3373.26709 14711.38281 -115.69085 459
3351.92578 14615.12402 132.41553 481
3339.55933 14562.43066 376.55365 423
3462.93970 14675.77051 -114.09114 459
3438.63037 14580.18750 130.47627 481
3430.39331 14529.91016 375.90778 423
3547.13745 14638.25781 -117.08159 459
3528.20483 14546.75586 129.10153 481
3517.16748 14501.41211 373.10568 424
3635.84033 14606.08398 -115.23989 478
3613.27539 14513.42969 128.95992 481
3603.89551 14470.68848 375.48599 424
3719.33472 14572.57617 -113.27901 479
3697.52148 14481.28711 130.73018 482
3688.93188 14437.21289 375.25647 424
3806.24268 14537.56250 -114.44678 479
3783.35083 14446.25488 130.63725 482
3773.12476 14409.60254 372.64914 424
3893.87451 14504.39551 -112.90212 479
3868.79541 14412.66602 131.33276 482
3860.77124 14384.86816 373.94894 302
3981.93726 14467.43555 -115.01106 479
3957.29004 14379.54980 132.03110 482
3950.98560 14360.79980 373.53299 302
4064.05518 14437.47461 -115.95713 479
4041.57837 14346.87402 128.58672 482
4040.64136 14336.01562 374.98532 302
4151.21191 14401.99316 -114.22242 479
4128.17236 14313.52441 129.37447 482
4127.28662 14313.72461 374.74530 302
4237.85693 14366.73145 -111.91714 480
4210.23340 14276.95898 131.32420 483
4693.58203 15943.67773 404.36459 439
4324.80957 14332.35059 -114.67630 480
4295.48877 14246.78320 130.88538 483
4787.67090 15905.82031 402.87064 440
4410.17773 14302.51855 -113.63812 480
4383.57568 14210.72070 132.44676 483
4878.80908 15865.48633 400.19458 440
4494.87891 14267.04883 -113.01669 480
4469.10352 14179.38574 129.46555 483
4973.55664 15825.87793 401.53348 440
4580.52490 14231.14258 -113.04386 480
4552.29785 14144.56250 132.16832 483
4766.33203 14823.62500 383.92828 493
4768.07812 14829.95703 640.38672 493
4666.09961 14197.68750 -113.76416 480
4637.37158 14110.00195 131.73543 491
4849.80957 14776.58203 385.37213 493
4852.61621 14779.45020 639.02161 493
4749.01172 14164.91699 -111.97722 480
4724.39453 14077.07031 132.53271 491
4936.26318 14727.53516 384.87613 493
4936.94580 14728.43652 637.78839 493
4834.31885 14131.23535 -111.13683 480
4808.04248 14046.93555 131.44463 491
5018.01416 14675.73145 385.80890 494
5018.72900 14677.92578 639.50671 494
4923.01562 14097.83105 -112.84826 480
4893.20557 14012.98340 131.50441 491
5100.23047 14624.98340 385.11865 494
5101.31738 14628.56152 636.57428 494
5006.32812 14063.44922 -112.07831 480
4978.87744 13979.27441 130.64856 491
5183.66846 14576.15332 381.46527 494
5186.55811 14582.24609 636.22058 494
5093.48779 14032.34668 -111.33503 481
5062.60938 13949.21094 128.94273 491
5269.29004 14529.57910 382.07401 495
5271.29785 14533.09961 637.85413 495
5176.89160 14000.06836 -111.92111 481
5145.58496 13914.01074 129.05516 491
5350.81299 14478.87891 385.15930 495
5352.49658 14483.91797 634.38300 495
5259.93848 13965.35352 -113.15351 481
5229.18359 13883.32324 131.37404 491
5435.38184 14427.79297 384.67023 495
5433.16211 14434.38477 635.88159 495
5348.41895 13932.18848 -114.27545 481
5317.97119 13851.83496 128.90674 491
5515.10693 14380.47461 380.73758 496
5517.51465 14384.22754 632.35413 495
5431.69043 13898.43457 -113.67586 481
5401.91357 13815.71191 129.30426 491
5604.18994 14343.19629 380.21774 499
5604.13672 14346.46289 634.74304 499
5517.62988 13866.20410 -111.93557 482
5484.30127 13785.23730 132.38618 491
5691.75781 14309.29395 380.57578 499
5689.90869 14311.96777 633.67053 499
5600.87402 13832.60547 -112.86518 482
5571.45752 13752.26953 129.70981 491
5779.69922 14272.56641 383.74643 499
5778.49316 14276.06055 635.20422 499
5686.78369 13796.02930 -113.67043 482
5655.24512 13720.73535 130.55075 491
5863.72607 14237.98438 384.28183 499
5866.81055 14243.91797 632.79510 499
5770.65137 13764.80957 -110.67325 482
5740.96387 13688.55176 130.00186 491
5747.07471 13707.80566 371.82489 430
5952.81934 14209.02051 632.99213 499
5854.94482 13732.99023 -112.19367 482
5823.21924 13654.34570 132.75819 491
5834.61279 13674.52344 374.92899 430
6042.85156 14172.30371 633.03900 499
511.51572 956.55597 -4.90689 409
513.26208 960.66150 12.02191 342
5940.00391 13696.02051 -111.42416 482
5909.47607 13623.35156 131.20451 491
5916.26660 13639.37793 375.54962 430
6128.00000 14138.84863 634.74969 499
515.10754 948.58954 -3.86281 461
516.01343 951.04926 12.85097 461
517.32391 953.64435 29.64440 461
518.33972 956.47192 46.53062 461
519.71545 959.11121 63.66380 460
6024.69629 13663.53516 -113.85881 482
5994.85645 13587.39551 130.61868 491
5999.47803 13604.50586 374.22116 431
6215.93408 14103.12891 633.88513 499
519.92285 943.95123 -3.80890 491
521.18176 946.58862 12.95456 498
522.45135 949.29938 29.77129 498
523.75635 952.12683 46.85965 498
524.91876 954.77112 63.77014 498
527.01080 959.83636 80.59664 371
6113.45898 13629.51562 -111.17969 482
6080.72217 13554.64746 132.72050 491
6084.64014 13573.65039 374.96399 439
6270.68652 13992.95117 630.14313 374
525.86523 941.67938 -3.80089 481
527.30768 944.79663 12.96340 480
528.87097 947.93353 29.74431 480
530.45654 952.02118 46.39066 425
533.30865 958.14514 63.22735 308
6196.93848 13596.40234 -113.35717 482
6164.51074 13525.11914 129.86717 491
6173.21729 13542.12402 373.10648 388
6358.25293 13957.96973 633.80273 362
533.07385 941.90546 -4.18095 440
534.78424 945.93127 12.41043 439
538.22540 953.26648 28.83480 308
6280.58545 13565.83105 -114.14040 482
6248.12402 13490.17578 131.46565 491
6258.05029 13514.45410 374.69397 388
6446.49707 13930.04980 631.73193 362
6501.14600 14041.83301 889.90295 499
542.87610 947.93738 -5.50593 308
6368.40674 13529.16016 -113.05335 482
6335.09082 13458.96680 133.24139 491
6345.26953 13484.48047 375.08432 388
6537.50342 13898.49219 634.32483 330
6586.90869 14007.70312 890.63007 499
6660.52246 14160.06055 1154.25940 481
6454.05713 13495.06738 -111.96142 482
6419.05176 13423.65527 131.36826 491
6543.46533 13694.41406 377.24335 499
6631.14111 13871.59570 633.93854 329
6677.03564 13973.85254 888.22980 499
6732.16260 14092.74219 1152.69434 477
6539.99707 13462.25195 -112.48691 482
6504.01855 13392.65625 130.77553 491
6633.25537 13659.33887 378.75119 499
6747.56006 13898.54199 635.76807 499
6760.93652 13934.45703 890.52203 467
6622.72510 13428.13281 -112.07710 481
6589.55078 13357.21289 131.35054 491
6717.80811 13623.38965 378.05716 499
6822.70264 13840.36621 637.21045 468
6826.51123 13844.31543 885.77728 468
6708.26807 13396.93164 -112.78851 481
6675.73877 13324.74414 129.91814 491
6804.73438 13590.18262 380.53159 499
6884.30957 13751.17188 634.21777 469
6887.61377 13753.58203 885.04584 468
6945.64014 13874.88770 1145.77295 372
6795.21533 13363.84668 -113.15421 481
6762.13232 13291.33105 129.71939 490
3317.40601 6625.30859 121.01495 498
6945.15234 13663.52734 632.62134 469
6947.31787 13668.28906 883.94940 469
7007.11084 13784.55859 1140.02539 372
6879.91846 13329.02148 -111.49783 481
6845.65088 13260.87207 132.00858 493
6979.21143 13522.86816 377.91583 498
7008.35596 13573.75977 628.99335 470
7007.18311 13580.38770 880.85529 470
7069.64014 13695.74609 1138.33838 373
6967.60693 13293.57422 -113.69101 481
6930.13379 13225.94336 131.47716 493
7065.35449 13487.73242 381.08328 498
7088.94678 13531.30469 629.37793 498
7090.29395 13535.24121 880.13782 498
7140.06934 13632.32422 1137.23120 390
7188.13721 13722.94629 1396.87671 409
7187.34277 13717.53711 1652.55652 409
7182.64062 13716.55078 1905.84192 486
7186.55127 13721.27051 2166.98267 486
7189.89600 13727.44434 2423.14380 485
7052.65381 13262.22461 -112.11217 481
7018.03711 13193.74316 130.25012 493
7154.12842 13455.62207 381.30823 498
7163.31885 13472.38672 629.72919 498
7163.51074 13473.72266 879.04285 498
7231.49365 13601.74023 1137.46802 390
7342.97900 13817.67188 1409.69189 484
7137.60889 13225.97754 -114.58157 481
7102.15137 13159.28711 130.58675 493
7239.62451 13418.16895 378.63547 498
7248.58350 13437.55762 629.56610 498
7249.47852 13440.27441 878.12848 497
7322.04639 13570.79395 1137.49316 390
7435.16260 13782.83984 1413.90442 484
7223.47656 13193.82520 -113.19893 480
7191.18896 13127.72461 130.55122 493
7328.09131 13383.72070 382.76251 498
7336.06836 13400.93262 632.56036 497
7338.49121 13402.35840 881.70801 497
7410.51416 13543.67773 1140.31323 390
7506.42529 13717.09766 1409.59106 454
7310.17139 13161.57324 -115.68229 480
7276.51367 13097.24023 130.61693 493
7415.91797 13349.62891 381.12326 497
7425.02295 13367.42480 628.90338 497
7424.96240 13369.56641 878.70868 497
7504.39014 13512.25488 1140.14404 390
7595.85742 13678.16211 1412.72925 467
7398.29346 13127.48535 -112.69778 480
7363.85303 13060.51660 133.27489 492
7504.77637 13316.80371 379.70908 497
7512.94775 13333.03516 630.22479 497
7514.53516 13335.74902 883.41290 497
7594.40430 13479.91309 1143.38306 390
7705.84961 13679.94336 1417.26306 484
7483.81348 13094.56836 -112.24564 480
7449.64355 13029.44629 132.49345 492
7613.83398 13322.94531 382.32587 497
7599.62646 13299.71484 632.77728 497
7602.30518 13301.15430 880.48798 497
7687.47070 13446.99121 1145.42773 389
7796.79590 13646.38770 1417.99011 483
7569.89551 13060.28711 -114.41088 480
7537.16797 12996.41602 132.63403 492
7702.31592 13288.53516 382.25162 497
7688.23584 13267.18945 632.95374 497
7688.73145 13265.59668 884.74146 496
7776.98682 13419.80762 1144.97021 389
7659.85547 13025.04688 -112.40697 479
7623.85693 12960.92969 132.37096 492
7790.34619 13254.72754 381.85519 497
7776.62793 13231.81738 631.25037 496
7779.56689 13233.09668 885.52667 496
7928.55078 13489.81543 1152.88745 470
7746.20605 12985.92969 -124.69561 479
7711.86328 12923.01270 121.78182 491
7884.89258 13213.67090 371.83392 496
7887.12158 13216.25879 626.55463 496
7887.17041 13215.43750 878.66040 496
8023.91211 13451.25586 1144.13721 466
7834.76270 12950.12598 -124.54393 479
7800.55225 12889.20215 124.01582 491
7970.96680 13180.54199 372.49524 496
7975.71777 13180.94336 625.56451 496
7975.41016 13184.34668 878.35248 496
8116.17334 13415.28809 1147.95520 466
7919.97217 12915.31348 -125.58162 479
7886.35840 12855.69629 123.78048 491
8059.80762 13145.80664 375.35056 496
8060.74854 13146.09863 626.35193 496
8065.86084 13149.14355 877.68536 495
8205.62695 13378.93262 1148.60144 465
8009.39014 12878.96289 -122.92438 479
7975.61621 12823.31836 121.71071 491
8148.54443 13109.99805 373.28363 496
8150.16650 13110.31836 626.69080 495
8152.86426 13111.00195 877.11670 495
8298.21191 13345.22949 1150.06958 465
8099.10889 12846.52637 -126.78304 478
8060.65332 12789.24609 122.59306 490
8239.72070 13072.62793 376.36646 495
8240.73828 13075.39746 626.36627 495
8244.00488 13075.38086 880.37714 495
8387.45898 13314.47754 1150.44568 465
8184.64355 12811.41113 -123.75803 478
8148.34082 12756.15918 122.58905 490
8331.02051 13036.37207 374.44589 495
8332.35156 13042.02539 625.67328 495
8334.07715 13041.72656 882.17242 495
8479.42188 13277.67676 1150.58081 465
8275.33203 12775.84961 -125.36981 478
8236.78418 12719.10547 121.08746 490
8428.41504 13022.81934 374.39410 431
8431.03418 13019.12305 627.77405 431
8432.39062 13026.88379 882.05493 334
8588.81738 13265.00586 1152.47546 440
8360.79004 12743.36230 -126.92828 477
8324.14746 12685.17969 123.90202 490
8545.13281 13022.12402 377.31586 459
8560.25000 13044.29785 630.78894 430
8569.89160 13062.40918 887.58270 334
8701.71094 13264.49414 1157.16150 433
8449.36230 12709.15137 -126.94223 477
8412.85840 12652.63965 122.35950 492
8654.16309 13019.15820 376.68634 458
8685.82910 13066.06055 635.40582 457
8711.10352 13099.89844 890.52313 425
8540.31836 12673.72754 -124.69256 477
8501.54688 12616.92871 120.60576 491
8768.51465 13015.78125 377.68213 458
8801.77441 13062.76270 637.18329 457
8840.98242 13127.06934 894.73969 424
8629.23438 12638.28418 -126.61317 477
8591.87207 12585.98145 120.80496 491
8880.34570 13009.00586 377.18500 457
8913.72461 13062.31836 639.06726 456
8718.82812 12601.96680 -128.30634 476
8680.40820 12548.47168 121.59492 491
8994.41895 13007.53613 380.72989 456
8806.37500 12569.22656 -129.98100 476
8773.44238 12518.24023 124.21445 490
9108.50098 13002.03320 379.05545 455
8899.19141 12534.58105 -128.42911 476
8863.67969 12482.94043 124.15719 490
8987.37598 12499.17383 -130.49629 475
8952.16602 12446.79102 122.98763 490
9078.72266 12463.54297 -130.06900 483
9042.19043 12412.20410 122.89358 489
9169.16406 12427.16016 -130.36008 482
9133.46973 12378.98730 123.84879 489
9258.54199 12392.49902 -128.59505 482
9222.62793 12341.88086 121.14202 488
9351.83398 12354.73242 -130.98305 481
9316.14160 12309.53125 122.40199 488
9442.93164 12322.20312 -133.09012 481
9409.69238 12273.28223 122.79588 488
9534.46484 12284.99805 -131.66406 481
9501.13965 12240.19727 120.23627 487
9629.17090 12251.02148 -130.33620 480
9594.47852 12201.33984 120.04554 487
9721.40527 12216.10059 -134.02977 480
9687.10840 12167.72461 122.97101 486
9815.38086 12179.12891 -135.63057 479
9777.23047 12132.12500 120.42588 486
9909.42578 12142.68945 -132.70305 479
9871.06055 12098.36719 123.53027 485
10002.76465 12106.66699 -135.85260 478
9968.20801 12061.95410 122.19820 485
10096.84570 12070.24023 -136.43762 478
10062.77637 12024.09277 118.98621 484
10193.06934 12030.73047 -134.42097 477
10155.58691 11987.87598 122.67913 484
10287.30762 11995.45898 -138.24039 477
10249.48828 11951.97461 119.11279 483
10382.56055 11958.65234 -136.57341 476
10348.17676 11914.43652 121.76881 483
10478.21387 11923.17090 -138.40657 476
10442.41113 11878.30762 119.54242 482
10573.12109 11886.66504 -139.62390 475
10537.60840 11841.15332 119.63438 482
2582.42993 2819.92017 375.78937 1000
10672.31152 11846.96289 -137.89937 475
10637.58301 11807.30664 118.44481 481
10770.90527 11811.62109 -139.26361 474
10732.67285 11770.85742 119.48220 481
10867.89746 11774.40723 -142.82619 474
10828.78223 11730.31543 122.69669 480
10966.32129 11736.02637 -141.20367 473
10929.19238 11696.33301 121.71202 480
11064.95508 11695.43555 -142.87811 473
11026.27344 11656.65332 119.33908 479
11162.24121 11657.20703 -141.47250 472
11127.14941 11618.49219 118.31770 478
11263.29492 11618.69043 -144.42686 472
11225.70508 11579.69922 121.43804 478
11362.20801 11580.10840 -142.13660 471
11330.01660 11546.22168 120.44977 367
11465.21680 11542.46191 -146.99953 470
11435.01562 11510.41895 119.78754 367
11568.19238 11504.15723 -146.36382 470
11541.85449 11475.77930 120.70290 366
11670.60840 11465.45215 -148.64612 469
11648.87305 11440.52734 121.50470 366
11769.33984 11424.65234 -145.89226 469
11752.19238 11408.17676 122.21113 365
11884.53809 11394.35254 -147.55325 444
11856.51172 11367.71875 117.92236 427
12003.44922 11369.79492 -149.97545 443
11958.63379 11328.89941 119.33930 426
12121.24512 11338.64746 -148.91988 442
12066.51367 11288.86719 120.11585 395
12237.41699 11313.81348 -150.88058 441
12181.97363 11259.39941 118.21969 395
12356.86719 11285.31445 -154.19626 442
12293.00293 11224.51172 117.40111 394
12640.97656 11402.16797 -436.20813 372
12480.73926 11257.16016 -152.69672 441
12413.31738 11197.26562 121.57692 438
12809.05469 11414.98828 -440.20493 371
12601.33887 11228.95508 -156.97153 440
12542.06152 11174.87402 119.06662 438
12978.44141 11421.99707 -443.54633 370
12748.20410 11219.91797 -156.43692 394
12673.75293 11152.03613 120.78395 439
12901.60254 11214.13965 -160.92255 393
12807.62598 11135.04980 121.46165 319
13054.89648 11211.82910 -159.24571 392
12947.93555 11118.85449 117.13737 318
13228.65625 11221.66113 -163.17668 370
13103.28418 11115.67383 120.96049 285
13422.97363 11250.90234 -169.02267 342
13639.84082 11289.47266 -171.29079 341
3422.38184 796.14606 -94.74524 491
3432.05908 799.36572 -38.79326 409
3436.24146 778.18927 -95.69216 311
51941.65234 9740.08496 13307.20898 1000
4653.14600 -525.53888 -95.57484 423
4626.82861 -551.51868 -94.83208 461
4609.49805 -576.94586 -93.81174 471
4593.33936 -603.24829 -92.77362 485
4581.77783 -629.67444 -93.16077 462
4571.89160 -655.66980 -92.21398 461
4563.98877 -683.49969 -91.90849 464
4555.50732 -710.24054 -91.83170 393
4549.93848 -736.63843 -92.48729 393
4545.93799 -764.19049 -92.08955 392
4541.27051 -791.82159 -92.12560 392
4538.83301 -818.92340 -91.58701 298
4538.65625 -848.16705 -92.40747 297
4751.20850 -917.82111 -103.28979 379
4534.98340 -903.05280 -92.20261 424
4583.39746 -941.85089 -95.63216 498
4743.32031 -1005.06396 -103.75666 380
4629.08496 -981.21332 -21.70963 398
4739.59033 -1034.17468 -104.50258 380
4512.73096 -1012.46844 -93.34741 454
4517.36523 -1041.85168 -93.22710 452
4511.05713 -1069.80542 -92.85883 427
4500.33691 -1095.05432 -93.42101 448
4503.00000 -1124.81323 -93.67765 417
4626.96973 -1157.08691 52.92208 281
4499.49902 -1152.82336 -93.89472 297
4493.94189 -1180.78186 -93.13908 297
4490.24365 -1208.98108 -94.07749 390
4487.99023 -1236.65186 -94.48028 390
4484.30225 -1264.65417 -93.71208 390
4480.87793 -1292.66589 -94.74744 389
4476.38232 -1320.58289 -94.57705 389
4473.57324 -1349.53430 -95.46377 389
4473.09521 -1378.43848 -96.01893 369
40890.81250 -23673.98633 -2197.84814 1000
3483.10767 -2024.52917 -62.97872 342
28503.44727 -32398.09570 7969.74609 1000
4273.35547 -4891.36963 -79.55190 403
4250.37061 -4924.66455 -79.20567 436
4228.66016 -4959.57617 -79.85992 478
4207.76807 -4995.95752 -80.09770 476
4189.10352 -5037.66992 -80.30488 464
4174.86084 -5082.59082 -82.30538 454
4162.14502 -5132.22607 -81.66590 434
3184.24927 -3949.43604 -32.12540 451
4157.57764 -5255.91992 -85.50153 404
4155.93652 -5323.38867 -86.84982 403
20001.04492 -26392.49219 -7578.29102 1000
4155.35107 -5390.79102 -89.15668 402
4154.62402 -5457.34766 -91.12727 401
4155.56201 -5528.04639 -92.63053 398
2676.13232 -6031.68311 23.34974 281
2627.34888 -6018.86230 25.04354 496
2588.98511 -6029.63867 -81.78073 354
2590.28491 -6036.70312 23.98171 440
22588.43750 -54093.00781 14798.20117 1000
2533.86890 -6002.49268 -81.23475 390
2482.10864 -5981.75586 -80.54675 398
2422.36060 -5936.21533 -78.00608 290
2419.73730 -5929.33252 131.19711 326
487.12766 -1047.89832 95.28065 343
486.74799 -1046.36890 113.69726 410
486.38785 -1046.03638 132.23059 410
486.45081 -1045.51270 150.56285 461
486.30389 -1045.40210 168.89122 461
486.43262 -1045.38782 187.13884 492
486.50562 -1045.43213 205.73103 491
478.73160 -1045.33020 -15.15565 460
478.62408 -1045.01965 3.54957 461
478.65619 -1045.25525 22.11564 491
478.64432 -1045.18030 40.38746 492
478.86380 -1045.49609 58.70675 492
478.98828 -1045.52527 77.29830 499
479.13126 -1046.08398 95.38728 499
479.19122 -1046.24976 113.77548 481
479.53278 -1046.88062 132.05037 481
479.91010 -1047.46997 150.46281 481
480.00601 -1048.43457 169.06866 440
480.49396 -1049.37305 187.28474 439
481.00250 -1050.76074 205.75948 380
472.34641 -1047.31848 -15.02688 479
472.42667 -1048.03259 3.36158 439
472.92953 -1049.07336 21.70543 439
473.36734 -1050.25488 40.28456 380
474.30692 -1052.61401 58.60358 308
2283.84106 -5899.85889 -74.48764 366
2297.47388 -5934.14746 27.85099 481
2294.78979 -5931.10449 131.47797 414
2239.91919 -5894.97900 -73.40780 424
2253.43848 -5929.11865 28.70629 482
2252.83984 -5929.00537 132.25865 415
2198.44678 -5893.04736 -73.46439 380
2211.42651 -5926.75684 27.77842 483
2211.44775 -5926.80078 130.74669 415
2157.96875 -5892.43652 -72.02949 374
2172.34009 -5930.75293 29.02341 483
2170.81104 -5924.69727 132.26532 416
2259.14771 -6178.47607 346.79523 499
2118.24316 -5893.34961 -72.78364 375
2131.42017 -5930.52783 28.63856 484
2128.06006 -5923.54932 131.55533 416
2076.86108 -5892.78760 -71.40669 375
2089.55420 -5930.03223 28.83395 484
2087.08740 -5921.35791 131.46353 417
2036.58740 -5892.64502 -71.68348 375
2055.61548 -5948.52783 28.67902 334
2046.38904 -5918.68945 131.74467 417
1997.76819 -5892.37549 -71.57753 375
2052.75488 -6062.54883 28.30252 333
2042.09192 -6028.91895 131.06136 316
2046.88745 -6045.89697 236.07103 401
2049.67188 -6184.55762 25.86543 331
2038.19019 -6148.98193 131.49159 315
2008.47253 -6053.99463 235.08633 497
1034.67761 -3195.71265 22.81408 306
1079.53345 -3344.84424 75.33515 382
1014.05530 -3199.05664 -31.90654 286
994.64209 -3131.90430 25.80733 315
1054.79736 -3339.09692 74.81186 470
987.90924 -3179.76904 -30.75701 297
963.58337 -3094.61670 27.01213 380
1033.42554 -3339.16602 75.78161 470
967.29785 -3182.11890 -30.57673 297
948.04718 -3112.57568 25.94621 387
1011.48853 -3340.52222 75.40865 471
947.02094 -3184.31274 -29.75425 297
934.16913 -3135.78662 25.66487 410
990.01508 -3340.76318 75.77625 471
926.85858 -3186.56104 -29.41883 297
920.15869 -3160.73608 25.19069 404
967.46954 -3341.69727 75.69118 471
913.78912 -3216.31030 -31.37906 374
906.10413 -3187.63452 24.87376 404
945.70990 -3341.67310 75.58073 471
900.93030 -3251.18579 -32.13183 351
892.60797 -3214.96802 23.47351 403
924.87726 -3342.30493 75.40900 472
878.60022 -3243.80908 22.45357 394
902.54828 -3343.32617 76.00661 472
866.45746 -3279.22803 21.77559 373
881.49579 -3343.51392 76.49995 473
854.35803 -3320.01514 20.46989 368
863.02240 -3356.88672 76.31364 456
844.04181 -3369.93115 19.05361 341
850.60803 -3396.25366 75.73600 313
838.46143 -3444.51367 16.56532 287
846.10260 -3580.06299 12.18079 274
853.87402 -3731.30933 7.63781 287
87.87122 -2791.17603 -566.45148 1000
-54.06799 -1531.93225 56.88926 301
-53.80971 -1529.38086 82.15635 374
-53.59047 -1528.12134 107.70238 435
-53.91393 -1527.44458 132.69225 436
-53.80641 -1526.89307 157.76173 478
-53.72334 -1526.35925 182.79018 478
-53.42200 -1525.86267 207.93266 498
-53.63659 -1525.67444 232.91957 498
-63.21931 -1525.89429 6.97034 493
-63.19402 -1525.99573 32.02825 465
-62.85155 -1526.21924 57.35348 465
-63.24337 -1526.62292 82.46584 415
-63.09645 -1527.63403 107.30125 415
-63.14759 -1528.95239 132.52744 349
-574.42035 -2013.07446 98.18764 356
-573.72607 -2010.32068 132.64331 420
-573.60590 -2009.06995 167.54158 469
-573.27002 -2008.39636 202.30681 495
-572.90118 -2007.68604 236.73204 497
-587.11005 -2008.89832 28.59141 431
-587.65619 -2010.98499 63.45908 295
-21596.22656 -55485.66406 10992.29395 1000
-256.04910 -72.50004 36.05082 321
-254.02501 -69.92581 36.74046 322
-274.40378 -73.93140 37.77499 318
-253.78937 -67.58306 36.96340 352
-272.12070 -71.13643 38.46534 319
-255.66057 -65.77462 36.48667 351
-270.33221 -68.52361 38.97636 321
-257.52515 -63.87364 36.09150 351
-271.96271 -66.54406 38.67326 345
-289.95975 -69.74091 40.83904 318
-273.85272 -64.56549 38.31440 347
-290.01562 -67.32053 40.95053 341
-275.85257 -62.49987 37.82559 346
-291.94693 -65.28085 40.61111 341
-299.26071 -64.06477 38.87856 256
-197.30772 -11.09973 53.36888 324
-197.26730 -9.24941 53.38949 324
-197.25800 -7.44620 53.34541 324
-197.31329 -5.65166 53.38752 324
-197.22948 -3.87141 53.34789 324
-197.24260 -2.06699 53.32511 324
-197.19022 -0.24271 53.34947 324
