# .PCD v.7 - Point Cloud Data file format
VERSION .7
FIELDS x y z rgb
SIZE 4 4 4 4
TYPE F F F U
COUNT 1 1 1 1
WIDTH 702
HEIGHT 1
VIEWPOINT 4600.577637 -4103.862793 137.896042 0.020438 -0.145094 -0.001037 0.989206
POINTS 702
DATA ascii
-282.17712 61.80311 37.46786 323
-298.61063 64.60172 40.11037 315
-263.65787 61.02773 35.88139 350
-278.13348 63.48961 38.40016 347
-294.14835 66.22220 41.13063 341
-261.73553 62.89069 36.30170 351
-276.04337 65.47910 38.86703 345
-292.17529 68.34535 41.43670 340
-259.80820 64.79943 36.72044 351
-274.24615 67.49207 39.18391 345
-293.88071 71.03857 40.90631 318
-257.86694 66.60713 37.06119 352
-274.19720 69.73190 39.10772 322
-256.29501 68.57356 37.44347 325
-276.06958 72.44629 38.45993 319
-258.07870 71.13800 36.75213 322
-259.98553 73.77765 36.14889 321
-261.87219 76.47947 35.46888 321
-63638.33203 23132.23047 -2130.41064 1000
-12762.49316 12813.69238 129.94055 1000
-30332.05273 39834.44922 9253.18652 1000
-8418.48340 20459.58008 -2047.24915 1000
-611.78754 1976.07788 63.07969 370
-596.50116 1972.63818 63.31236 497
-598.00897 1977.07605 97.92361 498
-601.94489 1987.42346 132.29318 393
-586.34125 1982.99524 63.66832 419
-8048.71826 24505.62109 3536.69043 1000
-117.46512 1456.00659 11.18261 380
-107.05679 1448.48804 12.06057 480
-107.75964 1453.20667 35.68061 440
-108.54164 1458.81226 59.62821 378
-98.17604 1447.83276 12.05425 498
-98.45356 1451.40405 35.94983 498
-98.89356 1455.37244 59.87672 498
-99.68129 1458.73596 83.59372 497
-100.22128 1462.98914 107.67470 476
-89.21964 1451.91199 11.90699 460
-90.04936 1455.38904 35.76838 460
-90.42472 1459.25940 59.46093 460
-90.84323 1463.52075 83.64302 409
-81.73828 1464.22925 10.95695 341
886.74158 47762.55859 3273.00708 1000
112.58776 118.59899 117.79141 1000
112.64527 119.37726 131.45331 1000
1492.54431 15402.79297 135.97475 466
1483.18567 15301.19727 385.88907 471
1584.55798 15358.53711 136.17677 466
1576.73730 15259.26953 385.41238 471
1579.21375 15288.38867 636.86212 464
1676.73486 15319.33691 133.67046 473
1667.26440 15219.66406 383.59271 475
1665.76514 15218.89453 634.00421 457
1766.67957 15281.76758 132.44554 474
1755.39331 15181.02441 384.34036 475
1856.85815 15245.14453 135.53906 474
1847.50244 15145.39160 382.13284 476
1947.30420 15208.14844 136.37671 475
1934.15686 15107.16309 381.72931 476
1456.27710 11419.33887 2.26076 475
2025.60071 15074.44336 381.09125 476
2127.01758 15135.09375 135.18852 475
2114.39990 15038.25293 380.75577 477
2218.53955 15095.68750 133.55998 476
2201.98706 14999.71094 380.18594 477
2307.08203 15059.72949 132.71674 476
2294.35107 14962.41699 383.78323 478
2394.24072 15025.63672 134.02621 476
2382.40942 14927.54297 381.96515 478
2483.46436 14988.18750 134.93353 477
2471.45874 14893.01758 380.17496 478
2572.48120 14949.89062 135.64919 477
2557.71582 14855.73926 381.69205 486
2660.13330 14915.07520 134.79842 477
2646.72583 14821.39355 381.40732 487
2748.06714 14877.84375 133.94144 478
2734.21875 14785.36719 379.33136 487
2837.84644 14843.48145 132.24779 478
2817.79395 14749.83398 379.40921 487
2923.55811 14806.18945 135.07477 478
2906.66431 14716.03418 380.93887 488
3012.72559 14773.78125 135.14740 479
2991.48755 14680.25293 377.42606 488
3098.93652 14738.07715 135.37712 479
3080.69263 14646.24707 379.72910 488
3184.37256 14702.98730 135.04391 479
3168.56055 14614.01855 376.83871 488
3271.25293 14667.05664 135.04535 479
3254.90161 14575.66504 378.10324 492
3358.13916 14631.90430 133.60049 480
3341.33301 14543.80371 375.65335 492
3444.49121 14596.19629 132.53662 480
3425.71167 14507.49219 378.38937 492
3529.57397 14558.70605 133.15759 480
3511.28516 14473.64746 376.74438 493
3617.18286 14525.65527 132.13121 480
3597.63574 14441.29785 375.11896 493
3705.02100 14491.32520 132.92311 481
3680.55786 14406.06445 377.47540 493
3788.97974 14454.38477 135.12630 481
3769.57373 14371.00293 378.01077 493
3874.89673 14418.78516 134.77995 481
3853.26733 14339.41309 375.51865 493
357.91678 944.29785 2.66980 440
358.90244 947.52240 18.71095 380
360.12048 952.71643 34.29202 308
3960.67017 14385.84277 133.59843 481
3937.73560 14303.97559 376.40231 494
362.88556 938.91431 3.32469 480
363.41290 940.87811 19.29105 480
363.98734 942.81067 35.07607 480
364.60376 945.55084 51.03908 407
365.24814 947.76715 66.92209 439
366.28134 952.16650 82.84854 353
4044.39551 14350.45801 133.67027 481
4023.51489 14272.47363 374.01422 494
368.31320 936.06952 3.37219 499
368.85355 937.90869 19.27763 499
369.40524 939.69641 35.23845 499
369.86261 941.78357 51.14413 498
370.32715 943.26013 67.11363 498
370.76053 945.27594 83.16101 498
4131.15527 14315.12109 132.26743 481
4106.65186 14237.64062 375.75079 494
374.31476 934.95331 3.50604 492
374.86716 936.87103 19.31557 492
375.41965 939.08856 35.29341 462
376.20874 941.67236 51.08439 451
376.60883 943.71228 67.20924 414
377.83203 947.31189 83.12954 354
4212.86963 14282.47754 133.72940 482
4190.87158 14203.77539 373.28061 494
380.84668 936.39374 2.82985 462
381.90714 939.39520 18.83453 411
382.76669 943.02441 34.71840 345
4298.65137 14244.62988 135.38931 482
4278.65332 14169.98535 375.10471 494
390.27634 946.17456 1.34935 269
4386.10449 14212.33496 133.31895 482
4360.95068 14134.58203 375.54779 494
4467.30029 14177.90430 134.71056 482
4445.60840 14102.13574 375.26968 494
4554.61914 14142.67188 134.51730 482
4532.54639 14069.20508 376.20731 495
4639.32861 14106.00684 133.53513 482
4613.16699 14036.67773 376.16644 495
4838.28516 14735.03613 638.45667 492
4857.26514 14795.63672 895.36987 413
4722.82568 14073.27344 131.13269 482
4698.04590 14001.83301 372.48935 495
4923.49707 14680.15332 640.43030 493
4942.63574 14742.28027 894.96741 413
4805.22705 14039.06641 134.51691 482
4784.25830 13969.47363 372.66534 495
5006.19141 14631.73145 639.62146 493
5028.27344 14693.27539 895.36682 413
4890.09863 14006.44141 135.00801 483
4865.66357 13935.12988 374.53043 495
5088.96582 14578.72754 638.48474 493
5111.56641 14647.63477 894.40021 413
4973.30908 13970.14844 134.38167 483
4952.12598 13901.92383 373.69193 495
5170.61328 14529.80078 635.61957 494
5193.63281 14594.71484 892.48413 413
5057.90918 13936.52539 132.02094 483
5036.78564 13866.91699 374.24725 495
5252.92969 14478.64355 634.24243 494
5275.91846 14545.66797 890.32819 414
5143.49463 13900.48730 131.89087 483
5119.69531 13833.30469 373.13849 495
5333.52979 14432.08887 635.47296 494
5360.92383 14499.81348 892.56604 414
5226.50732 13865.50000 131.27328 483
5201.44141 13800.99707 372.19150 495
5417.45703 14378.35840 635.17029 495
5444.31543 14451.16211 891.18359 414
5311.64941 13832.93652 134.43349 483
5285.26709 13767.39844 374.46490 495
5496.80908 14330.07031 634.47162 495
5524.85254 14403.81934 889.19800 414
5393.95703 13798.81445 133.67863 483
5368.88525 13734.81250 375.22986 495
5583.14404 14284.28613 634.59778 499
5607.15234 14354.65820 886.81030 417
5479.76758 13764.05469 133.14349 483
5455.83936 13701.40918 372.20383 495
5670.54883 14249.90820 634.68762 499
5698.89111 14319.94238 887.77820 417
5562.08447 13729.55566 133.26857 483
5538.46338 13667.35156 373.51096 495
5753.55811 14212.16211 632.72772 499
5787.33398 14289.31836 889.06940 417
5648.23145 13694.14160 132.00156 483
5620.55371 13634.99902 374.09415 495
5841.59717 14177.37207 632.47626 499
5875.80420 14256.41895 886.83002 417
5730.66260 13659.75391 132.01427 483
5704.13379 13598.20996 372.71106 495
5929.06445 14143.20898 634.70959 499
5962.14990 14223.78906 886.21503 417
5816.61230 13625.27246 132.06697 483
5789.43604 13566.20605 374.92844 495
6017.32275 14107.35059 631.31592 499
5899.25000 13591.17578 131.05125 483
5874.89697 13531.59375 374.06180 495
6104.05859 14069.58203 632.25623 499
5983.31934 13560.19434 132.31541 483
5958.37061 13501.04785 373.83817 498
6189.39648 14036.88965 633.74457 499
6068.55762 13522.92090 132.65616 483
6041.50635 13468.02734 371.31802 498
6242.70166 13922.56543 631.45929 439
6150.03760 13490.00684 130.62524 483
6124.82373 13434.20996 374.62164 498
6323.74072 13869.75391 627.76996 498
6381.83301 14006.48438 887.45612 499
6236.24805 13454.54883 133.10791 483
6209.30664 13401.21582 372.17395 497
6409.90527 13835.18262 629.36334 491
6470.87158 13970.33984 888.09564 499
6320.31299 13420.88770 131.15436 483
6295.02441 13365.02441 373.69290 497
6494.39844 13800.74805 628.27789 491
6558.68896 13931.57520 888.35760 499
6637.10449 14107.50488 1152.58594 467
6404.48828 13384.68066 131.20491 483
6377.09766 13334.25293 372.79810 497
6581.44678 13770.15527 628.17816 491
6643.72998 13898.83008 888.15082 499
6698.93555 14016.56738 1148.14575 481
6754.67090 14130.70801 1410.75024 380
6487.88037 13353.79199 131.39041 483
6462.03809 13299.55469 373.89670 497
6670.25439 13734.87988 631.52063 433
6729.96094 13864.10254 888.14172 499
6812.53125 14026.80664 1151.00549 354
6614.10010 13401.55566 -110.56281 479
6572.10059 13317.06445 132.95863 482
6548.65039 13265.47070 371.40689 497
6801.22266 13785.70215 635.76788 499
6804.89746 13797.41504 884.57660 466
6807.08496 13801.91309 1139.53687 466
6699.34131 13367.62988 -114.18520 479
6656.78955 13285.10938 131.52982 482
6632.68848 13233.86914 374.50839 497
6862.59570 13700.47461 632.37134 467
6864.70264 13704.30176 881.16174 467
6867.71338 13709.81348 1134.19531 467
6783.05762 13336.05469 -111.64085 479
6739.58643 13248.98926 130.70958 490
6715.84131 13199.22656 373.13666 497
6924.87354 13613.70215 628.52350 468
6923.84473 13615.92578 878.48090 468
6926.08594 13620.93945 1128.34631 467
6867.61182 13298.02637 -111.63475 479
6825.56348 13214.61133 131.37038 490
6801.08398 13166.52051 374.84064 497
6984.76270 13524.21777 627.72528 469
6985.73584 13531.13965 879.51733 468
6989.18701 13534.71094 1128.75439 468
6954.48633 13263.89258 -114.35714 479
6910.14062 13182.34668 133.68669 490
6885.04053 13134.83301 372.37726 497
7051.43213 13453.12305 628.46796 498
7049.95605 13456.29883 875.17932 498
7052.73975 13454.97559 1123.51294 498
7197.49170 13733.15527 1401.00708 480
7419.38672 14167.49316 1703.44922 376
7423.22705 14172.99023 1967.42249 494
7424.42090 14175.73828 2231.02246 487
7039.31396 13229.40625 -114.89779 479
6996.47803 13146.96777 132.25591 490
6970.00146 13101.35059 372.75827 497
7138.27295 13417.97852 629.48450 498
7140.12012 13420.77539 876.84796 498
7138.85498 13418.38867 1122.82080 498
7282.10596 13696.87891 1397.66919 480
7123.29492 13193.60840 -113.71154 479
7081.65088 13114.49902 130.94179 490
7057.10596 13067.97461 372.32587 496
7211.69092 13358.64844 625.75665 498
7210.55762 13359.23633 876.11896 498
7224.06836 13386.62988 1124.58411 498
7318.46631 13564.08008 1390.05835 476
7320.82666 13559.69336 1645.20166 476
7318.82373 13559.34961 1897.19983 495
7321.72559 13566.15039 2152.68140 343
7208.46582 13160.67871 -114.64687 479
7164.96338 13077.33984 133.53882 489
7142.21338 13033.86914 372.60690 496
7298.93799 13324.31348 628.53265 498
7298.26855 13322.95996 875.06927 498
7309.95752 13350.34375 1127.87476 497
7459.24902 13627.29883 1400.53967 479
7293.53320 13123.20898 -115.38778 478
7250.99316 13042.11719 129.72368 489
7226.06299 12999.00391 372.01862 496
7383.99805 13286.36621 628.33368 498
7382.55420 13284.95215 875.39996 498
7396.23291 13315.47070 1127.87036 497
7551.84180 13591.27832 1404.06128 479
7379.92188 13088.55664 -111.93457 478
7336.59521 13011.53027 130.90720 489
7312.30078 12966.78125 374.83627 496
7471.18750 13253.77637 627.19135 498
7470.95068 13253.46875 873.97723 497
7485.90430 13280.38672 1124.86121 497
7638.44141 13556.32324 1403.27026 479
7466.02148 13056.54102 -112.15706 478
7422.26660 12976.75684 131.60915 489
7400.66162 12934.01172 373.57074 376
7555.72656 13216.22754 626.02795 497
7558.28662 13217.64062 876.71094 497
7571.13916 13243.66992 1129.14966 497
7729.00195 13520.28906 1404.57959 479
7549.86475 13021.29883 -115.84363 478
7506.91016 12942.17383 130.23950 489
7485.08643 12902.59375 375.60870 444
7643.22168 13183.07129 627.55286 497
7645.62988 13181.48340 876.27252 497
7660.85938 13208.48633 1128.16162 497
7817.20410 13481.25293 1406.60864 470
7637.73340 12984.59668 -115.19122 478
7593.04443 12904.64160 132.84456 489
7570.69238 12868.48633 375.66132 444
7729.63867 13146.25488 628.91766 497
7732.02490 13144.37988 878.93787 497
7745.58643 13171.22070 1127.35168 497
7907.30371 13447.76660 1405.66846 470
7721.08301 12943.73535 -98.17358 478
7675.32568 12866.14941 143.73888 488
7655.02881 12826.52148 390.00507 444
7816.19385 13105.72168 643.27271 497
7817.02930 13106.83984 891.36884 497
7772.47363 13032.89941 1136.81995 384
7995.83203 13406.83105 1422.79578 469
7808.96875 12908.44434 -102.32466 477
7762.23096 12835.02344 144.94553 488
7739.83057 12794.12012 389.71320 462
7920.09277 13094.00977 645.01050 497
7917.73438 13097.51562 895.75702 496
7780.10547 12864.02148 1128.37012 386
8084.91748 13372.36523 1424.44910 469
7896.69775 12876.32617 -100.23154 477
7848.31055 12797.27441 146.57391 488
7828.53076 12762.94922 389.76672 422
8006.59326 13059.40137 645.87457 496
8005.56641 13060.41602 897.34473 496
7830.52197 12771.55957 1125.84265 496
8174.58447 13337.07324 1424.80518 469
7983.94141 12838.04883 -100.70259 477
7937.68018 12762.49609 146.99294 488
7914.01074 12729.26465 390.45804 422
8002.72461 12878.31934 641.81989 424
7971.68262 12825.31250 885.84271 321
7916.33350 12735.72559 1125.63147 496
8264.77832 13300.45215 1425.83398 469
8067.26025 12804.78223 -102.24663 477
8024.23340 12729.04688 146.82034 487
8001.98828 12697.17676 390.63239 422
8181.35303 12988.63867 648.25494 496
8061.50586 12795.88086 886.16144 444
8002.24365 12701.65039 1124.97693 495
8358.06055 13269.52441 1426.46924 471
8155.76025 12766.69336 -99.31788 476
8110.41602 12695.80859 146.55920 487
8098.86084 12674.83008 391.03256 302
8270.29883 12951.43750 647.85583 496
8269.01758 12950.21680 896.61920 495
8087.92871 12665.91797 1128.14075 495
8446.69043 13231.16797 1428.61731 471
8242.95508 12734.69824 -103.27332 476
8194.83008 12658.83203 147.67873 487
8193.92578 12651.76660 393.01486 296
8358.59375 12917.51465 648.06116 495
8357.60352 12915.22363 898.06403 495
8176.53613 12629.02930 1127.42346 495
8538.86523 13198.71387 1431.43201 443
8331.51172 12695.24512 -100.18301 476
8281.92383 12625.28613 147.98355 487
8290.26660 12630.83887 394.51553 296
8473.24707 12915.44336 648.34198 433
8468.64941 12910.56934 900.84595 433
8472.17871 12920.53711 1157.33948 347
8650.74707 13192.40039 1437.85535 442
8418.30566 12659.38184 -100.33794 476
8369.83789 12590.59180 144.47131 486
8510.46582 12800.65918 397.27527 495
8595.65918 12931.71387 653.26953 459
8595.38965 12936.42090 908.93359 431
8613.20215 12964.86719 1162.54663 346
8505.11621 12626.56445 -103.66518 475
8459.97266 12555.79980 144.28090 486
8600.46777 12764.02930 399.18002 495
8705.77246 12925.87305 653.25208 459
8724.60645 12954.95801 909.94281 430
8759.12598 13008.20020 1168.87988 345
8592.91113 12589.31641 -102.13947 475
8546.65918 12516.59375 145.97955 486
8686.84668 12728.86133 398.91968 494
8819.81543 12923.10254 658.55042 458
8849.69336 12969.43262 915.02344 457
8681.34180 12553.44727 -103.59742 475
8635.03027 12484.84863 147.83678 485
8791.59766 12713.77246 400.58087 400
8928.80273 12916.98926 657.77594 457
8771.34180 12516.14258 -102.90018 475
8724.06445 12447.51660 146.86926 485
8919.16309 12730.18945 400.59839 399
9041.41992 12913.82031 662.15198 456
8858.82129 12481.48340 -101.05003 474
8812.70801 12413.54492 147.98436 485
9050.50586 12752.32227 401.02234 398
8947.04199 12445.78613 -101.16348 474
8899.52734 12376.32324 145.81827 484
9171.26660 12759.33008 402.07315 392
9037.24609 12410.33691 -103.76123 474
8990.10254 12338.92285 144.84700 484
9284.47559 12750.91309 403.14001 391
9125.14258 12371.41699 -105.23436 473
9079.52539 12303.75781 144.94887 484
9396.94336 12739.16895 403.33386 391
9216.82715 12333.13867 -102.29028 473
9165.18457 12267.74805 147.62982 483
9307.61426 12298.98340 -103.00510 473
9258.15234 12234.04688 148.65660 483
9397.09375 12260.60254 -105.44048 472
9348.57031 12196.61035 145.32291 482
9486.19922 12226.78906 -104.93578 472
9436.11133 12160.86328 146.42482 482
9580.43359 12188.99414 -104.25806 471
9529.15430 12123.71973 145.56905 482
9543.45605 12141.93359 398.51306 423
9668.00391 12150.37695 -104.69557 471
9619.21094 12087.02441 145.22081 481
9630.03320 12101.40723 398.31039 423
26117.89062 33032.57422 2929.20996 1000
9759.29102 12111.87402 -105.74492 471
9711.18066 12051.48145 146.72311 481
9721.18555 12063.20215 397.73392 423
9851.79688 12077.29395 -105.31049 470
9800.93262 12013.51758 148.84886 480
9814.21680 12025.72559 399.53549 430
9945.99219 12039.58691 -105.39043 470
9895.87109 11978.14941 148.18974 480
9906.48340 11994.16309 398.89694 430
10037.00684 11998.08496 -105.97930 469
9987.78711 11939.93457 148.89796 480
10003.40625 11959.82715 401.96399 429
10132.07324 11962.37207 -108.87061 469
10079.38086 11900.62988 149.09819 479
10224.75098 11926.31738 -107.59332 469
10173.27148 11863.96484 146.32326 479
10319.31543 11887.21387 -108.12978 468
10266.67480 11825.44629 148.37793 481
10411.66797 11846.24512 -111.19975 468
10360.92480 11791.47949 148.18011 481
10506.88672 11811.30664 -111.44286 469
10454.85645 11751.48730 145.62849 480
10602.23145 11768.51074 -108.65116 468
10549.93457 11712.88574 149.21835 480
10696.33398 11730.11816 -111.50523 468
10647.60938 11677.00098 145.22163 479
10794.00098 11694.64355 -110.82613 467
10740.41699 11638.98340 147.34346 481
10888.15723 11652.39258 -114.05459 467
10835.61523 11598.58594 146.37984 481
10986.72852 11614.61426 -111.54346 466
10936.17090 11558.59180 146.14478 480
11083.84766 11575.50293 -111.70121 466
11032.77148 11520.00098 148.80812 479
11180.97559 11533.11719 -115.42110 472
11130.75781 11482.70215 145.46877 479
11278.72266 11494.87500 -113.76878 472
11228.41797 11443.75879 149.40848 478
11378.99512 11458.27637 -115.93835 471
11327.80762 11403.82031 147.35788 478
11478.73047 11416.32715 -116.35543 471
11427.18652 11364.39844 147.79123 477
11577.07715 11374.43066 -114.84968 470
11526.53125 11327.25586 148.61351 476
11677.09570 11334.37988 -118.93391 470
11627.98535 11285.04688 148.06682 476
11789.31152 11306.67969 -119.17213 446
11728.95215 11246.49414 148.55588 475
11905.95508 11278.42969 -116.81188 445
11831.54102 11206.78809 146.79053 470
12021.72070 11249.71582 -122.07370 445
11937.29199 11173.00684 147.92058 470
12134.75781 11220.29199 -120.00764 444
12046.15430 11139.12207 148.20935 450
12255.92773 11193.73828 -121.76368 443
12162.34473 11109.49512 148.61086 449
12373.95020 11161.84668 -124.34200 442
12279.57617 11081.18945 146.10905 448
12491.04004 11131.08105 -123.94989 442
12399.20605 11052.51074 148.19756 447
12639.14844 11126.85059 -124.66612 395
12521.13965 11022.80762 149.97986 445
12791.51562 11123.52344 -126.45393 394
12645.32129 10999.05859 146.66016 444
12950.46680 11127.83496 -131.41020 372
12773.26562 10971.28027 149.44890 443
13121.36914 11131.67090 -132.05873 371
12903.64941 10946.75098 149.71446 442
13321.65430 11163.55371 -135.04547 343
13051.26172 10935.16504 148.12241 385
13210.74707 10934.48730 150.03816 384
13365.22754 10927.43750 148.00450 383
13557.79102 10947.28906 150.71825 343
13769.09570 10982.72852 151.98489 342
14088.55078 11095.32422 149.21773 277
44277.28516 30818.16992 -3345.43872 1000
24753.37305 10980.78223 1483.02710 1000
3265.01538 758.96332 -78.88252 457
3271.04883 739.66809 -79.49710 444
4485.61133 -587.60449 -83.30246 425
4462.11035 -611.79132 -81.99384 463
4444.51514 -637.00922 -81.74002 469
4427.99902 -661.39014 -80.91867 483
4416.30420 -687.06500 -80.91325 458
4405.91162 -713.11945 -80.33186 456
4396.72021 -738.43359 -80.31187 459
4389.11328 -764.04932 -79.94807 459
4383.03271 -790.57343 -80.43313 384
4378.61230 -816.54449 -79.85118 384
4373.42871 -843.07593 -80.09871 384
4368.21973 -869.57239 -80.15682 421
4424.45508 -908.63879 -82.90250 499
4423.08301 -962.95569 -83.27757 498
4411.66895 -988.81506 -83.38020 498
4451.40137 -1026.38953 -85.78196 352
4495.04785 -1065.52881 59.66306 498
4499.28320 -1065.36279 134.53023 497
4398.52832 -1098.04541 -84.04483 282
4365.28955 -1117.77869 -82.28374 497
4371.47998 -1202.91406 -84.66949 496
4387.88428 -1207.76868 -11.65757 496
4396.43750 -1210.39624 61.55315 410
4331.04590 -1219.86304 -82.21069 415
4316.69385 -1329.32593 -83.50208 426
4314.91895 -1357.04517 -84.51088 421
4316.99414 -1386.85132 -84.25080 437
3271.97217 -2060.94019 -115.26626 293
3260.46802 -2080.74634 -115.59917 288
3266.43018 -2083.89551 -53.71296 398
4122.83008 -5145.14307 -81.35335 426
4070.77246 -5144.51416 -80.08397 427
4019.31812 -5142.19043 -79.75379 428
3967.53369 -5141.20361 -77.98897 425
19295.58594 -25455.87891 133.36159 1000
3942.46265 -5172.69727 -78.04702 438
3936.40918 -5230.44629 -80.73966 405
2974.13232 -3972.14404 -108.54664 467
4109.49561 -5537.34863 -91.98295 390
4068.95581 -5553.32275 -91.73983 449
4005.68774 -5534.11133 -88.78590 397
3953.58496 -5533.57080 -88.94772 409
2568.83179 -5078.71240 -48.59958 371
2412.55005 -6017.27148 -76.11869 372
2360.36475 -5993.48486 -74.70066 414
2312.13940 -5974.48242 -73.54104 446
2265.06543 -5959.21826 -71.88898 447
2218.18018 -5947.25488 -71.29949 453
2175.98755 -5940.50049 -70.23401 460
2130.68726 -5928.53662 -69.99487 469
2088.68677 -5924.25391 -68.61974 472
2102.40112 -5962.17627 32.98677 483
2140.27100 -6076.86963 135.72717 483
2045.19055 -5916.88867 -67.84783 477
2061.03003 -5960.84082 32.87560 484
2006.00940 -5915.04248 -68.03968 481
2017.38989 -5953.26562 33.43222 479
2021.12097 -5965.60693 136.02209 454
1964.63782 -5910.67871 -68.01019 496
1977.20874 -5953.27148 33.48458 485
1924.76733 -5912.02100 -66.87433 485
1937.37402 -5956.68555 33.47523 485
2015.23047 -6206.11230 241.86171 436
1883.32153 -5907.53613 -66.81578 486
1897.70923 -5955.60693 32.77670 486
1844.61292 -5908.57324 -65.96615 486
1858.31384 -5953.88477 33.23271 486
1882.35913 -6034.52148 134.98061 486
1804.16504 -5904.30664 -66.70293 486
1817.11926 -5952.78076 33.76106 487
1823.56226 -5973.17676 134.96884 417
1763.03284 -5902.64453 -65.92219 485
1812.18689 -6069.10840 31.94457 327
1801.32361 -6032.01807 135.78537 487
1723.98169 -5901.02734 -65.20132 486
1806.50317 -6196.57080 29.10225 325
1761.38562 -6035.43896 135.67171 432
1684.43262 -5898.93555 -65.35085 486
1646.06140 -5898.52832 -65.17859 487
1606.55591 -5896.07520 -64.73151 487
1569.03516 -5895.52979 -64.68185 487
1529.40662 -5895.09082 -64.28673 488
880.77100 -3341.13135 20.91932 274
1565.07947 -6201.05420 29.63263 496
835.16394 -3236.64868 -29.08828 292
853.03595 -3315.74658 22.25444 307
798.05145 -3164.10620 -25.82415 300
832.71442 -3317.82544 22.35483 495
1438.03809 -5993.01221 34.80008 444
764.40613 -3104.41235 -22.46045 349
812.79193 -3326.19092 22.71592 495
1396.10791 -5979.18750 33.83205 488
744.61719 -3106.56299 -21.99512 312
822.70752 -3471.70508 17.50759 495
1362.05933 -5998.86182 33.24157 343
300.15500 -1054.94153 26.97594 304
300.00180 -1053.46667 45.00051 376
299.65540 -1052.88916 62.48544 377
299.63690 -1052.21436 80.40753 437
299.73810 -1052.21106 97.88253 437
299.66998 -1051.90442 115.51358 437
299.42606 -1052.12744 133.17104 479
299.54037 -1051.99915 150.74362 479
299.50653 -1052.14050 168.16096 479
299.57803 -1052.31409 186.03094 498
299.50009 -1052.49548 203.55446 498
292.80307 -1050.20398 -7.87758 497
292.76114 -1050.56201 9.74783 497
292.72797 -1050.85669 27.63445 498
292.79605 -1051.33154 45.09380 493
292.99490 -1051.59326 62.75276 493
293.03677 -1052.19543 80.43186 493
293.10995 -1052.52966 97.82045 464
293.22025 -1053.18445 115.47948 464
293.24271 -1053.80298 133.02773 464
293.36038 -1054.47058 150.81024 413
293.58734 -1055.15198 168.32123 413
293.78171 -1056.20447 185.94734 413
293.79694 -1057.63770 203.96750 346
287.22202 -1055.76465 -8.56353 346
702.88232 -3197.32935 -26.23445 366
795.41351 -3671.92090 11.26567 490
689.06329 -3229.46484 -28.12199 358
690.69434 -3238.13989 25.53902 258
675.53705 -3267.41064 -29.44738 343
673.96454 -3259.20142 24.94529 369
662.69037 -3311.63745 -31.78995 331
658.68268 -3293.18359 23.76057 353
651.27246 -3366.99438 -34.39870 315
645.73804 -3336.93408 22.77642 355
648.47601 -3484.91992 -39.77945 280
633.81342 -3391.63110 20.68749 321
649.92548 -3629.31641 -47.53245 284
633.60083 -3528.98071 16.86648 282
638.12463 -3702.33716 11.19334 281
-4505.98975 -35880.91797 3690.38745 1000
-1283.19226 -7421.01807 7.68947 1000
-244.39116 -1525.93042 4.14594 452
-244.56725 -1525.67041 29.99734 452
-244.54330 -1525.38513 55.51480 487
-244.26094 -1525.32581 81.16529 488
-244.51788 -1525.14136 106.53355 488
-244.32304 -1524.81958 132.31618 488
-244.33655 -1524.95605 157.66234 499
-244.36342 -1524.78870 183.46909 499
-244.39494 -1524.97717 208.86723 499
-254.82697 -1527.46692 3.97559 324
-1208.03943 -5804.83936 717.05566 1000
-768.04926 -2005.32874 24.42571 371
-767.42810 -2003.49658 60.49974 433
-767.15424 -2002.52380 96.37165 477
-766.64465 -2001.66138 131.41718 498
-766.40668 -2001.07190 167.17325 495
-766.40802 -2001.16882 202.70374 494
-766.86072 -2001.89258 238.46962 467
-9676.92871 -11651.38379 126.12777 1000
-256.29056 -75.03432 35.24850 321
-254.25061 -72.35040 35.90058 321
-252.21101 -69.68892 36.60051 322
-272.38608 -73.73447 37.64455 318
-252.09695 -67.50198 36.67339 352
-270.21924 -70.98588 38.27866 319
-254.02611 -65.66241 36.23240 351
-268.43921 -68.33169 38.80806 345
-289.95123 -72.41271 40.17654 318
-255.81248 -63.71492 35.89555 351
-270.26666 -66.37328 38.49735 345
-287.93643 -69.57736 40.70732 318
-257.71811 -61.88644 35.46840 351
-272.23187 -64.36581 38.06536 347
-288.23004 -67.21153 40.69165 341
-259.54623 -59.95079 34.98877 350
-274.15802 -62.39361 37.56937 347
-290.08673 -65.08919 40.34993 341
-279.01172 -60.83427 36.48521 323
-295.29297 -63.56453 39.22571 313
84.92714 -0.40310 128.38560 314
84.99354 -0.32638 128.38622 314
85.05904 -0.24941 128.38594 314
85.12637 -0.17309 128.38719 314
85.19506 -0.09769 128.38588 314
85.26380 -0.02213 128.38615 314
85.33201 0.05337 128.38672 314
85.40153 0.13045 128.38672 314
85.46952 0.20610 128.38753 314
85.53967 0.27972 128.38680 314
