# .PCD v.7 - Point Cloud Data file format
VERSION .7
FIELDS x y z rgb
SIZE 4 4 4 4
TYPE F F F U
COUNT 1 1 1 1
WIDTH 700
HEIGHT 1
VIEWPOINT 4571.722656 -4102.412109 139.279190 0.019429 -0.147014 -0.000501 0.988943
POINTS 700
DATA ascii
-5330.68652 526.25800 -408.33771 1000
-282.89783 61.97683 37.56970 323
-299.50735 64.62805 40.19697 315
-264.31903 61.09441 36.01143 350
-278.80698 63.60792 38.59654 347
-294.85968 66.31556 41.25601 341
-262.39288 62.96170 36.40006 351
-276.72388 65.50108 38.97028 345
-293.00830 68.48531 41.60686 319
-260.46054 64.92593 36.83294 351
-274.94016 67.58361 39.26608 345
-294.83911 71.24036 41.02222 318
-258.46786 66.76006 37.20986 352
-275.06165 69.90632 39.15409 321
-257.08090 68.67545 37.46674 325
-276.98306 72.59386 38.51704 318
-258.87613 71.26597 36.84121 322
-260.84946 73.89299 36.15191 321
-262.80847 76.65852 35.49874 321
-18103.40039 35986.14062 8163.35352 1000
-20681.99023 54564.05078 3015.91528 1000
-581.13849 1967.92297 30.25994 476
-583.43646 1973.63867 64.53336 433
-568.26202 1969.64795 30.70846 493
-569.95612 1973.90295 64.20316 493
-572.10608 1979.46826 98.20418 472
-558.79651 1980.96130 29.79283 416
-8553.41797 60052.94922 14297.18945 1000
-89.79608 1454.58813 11.97999 384
-79.82589 1448.50525 12.67500 482
-80.46475 1452.60706 36.46564 482
-81.08716 1457.82690 60.17732 442
-70.89700 1448.17529 12.63463 490
-71.45654 1451.77832 36.39196 498
-71.87138 1455.28491 60.22098 498
-72.24989 1458.96228 84.22559 497
-73.34392 1469.63159 108.16208 378
-62.37508 1453.05859 12.34072 458
-62.84510 1456.51904 36.18358 458
-63.24147 1460.99988 60.11019 405
-64.01487 1466.95679 84.18651 323
-1247.87500 66465.53125 -14207.59375 1000
858.49292 26358.52734 4936.89355 1000
1492.90808 15385.83398 137.44118 466
1482.60925 15281.55273 386.60388 471
1584.76599 15339.70312 136.53812 470
1572.83521 15239.90039 386.90100 471
1675.63306 15302.09961 135.52148 474
1666.17896 15204.14355 386.55719 486
1766.29370 15263.04395 133.52478 474
1754.97668 15165.19434 385.79880 487
1854.98975 15225.06738 136.04182 475
1844.54944 15130.70996 385.82471 487
1944.35132 15188.17969 134.95192 475
1934.17688 15096.93262 383.02441 487
4530.44092 34700.71094 -8016.52881 1000
2035.18311 15151.82227 133.44550 475
2024.16284 15060.23242 384.94766 488
2125.48975 15116.93262 134.82829 476
2113.87061 15025.86035 381.22366 488
427.95438 2314.75024 -214.27966 1000
2217.33887 15082.09473 134.88101 476
2204.66626 14987.35059 384.60947 488
2304.05322 15042.98535 133.08708 476
2290.55811 14954.33496 382.36353 489
2395.24878 15006.01953 136.38956 477
2378.20020 14920.67773 382.62595 489
2481.21875 14972.91504 133.70227 477
2468.39331 14886.39160 380.29846 489
2570.97144 14937.60742 136.35728 477
2555.17798 14850.54785 383.36807 490
2659.73535 14899.05078 136.75487 478
2645.71143 14813.26172 379.17221 490
2746.02002 14864.28711 133.52745 478
2730.06689 14779.66602 379.17447 490
2832.42236 14826.33496 132.94276 478
2819.00293 14746.75586 381.44290 491
2921.55469 14790.56152 134.08299 479
2905.08130 14709.08496 379.05161 491
3009.20483 14754.93750 135.38965 479
2990.59546 14675.32520 377.95978 491
3096.35229 14720.45898 133.86781 479
3080.86426 14641.78613 380.46002 492
3182.09229 14684.91797 135.51604 479
3165.75659 14607.11523 378.57166 492
3268.01147 14649.88770 135.98810 480
3251.73291 14572.16211 380.05103 492
3356.69580 14614.41895 132.43086 480
3337.35547 14539.54004 378.21524 492
3439.58813 14579.70312 133.62512 480
3426.14722 14504.07812 377.78622 493
3528.31396 14546.50293 132.89180 480
3508.08374 14470.07031 378.63092 493
3615.33887 14511.30762 133.21756 481
3595.72607 14438.63965 377.35910 493
3697.33325 14474.78418 135.02359 481
3681.80688 14404.81738 377.44693 493
3785.41577 14441.41504 133.21494 481
3767.14746 14371.30859 375.45422 493
3869.75098 14405.69531 132.27699 481
3853.48706 14335.23926 375.85193 494
3954.80493 14372.34570 135.80818 481
3936.33716 14300.74121 376.75671 494
4039.83057 14337.80664 133.14459 482
4020.26758 14270.26855 378.21698 494
4126.70654 14303.52539 133.91075 482
4105.53564 14235.83789 375.63785 494
4211.79248 14269.35352 135.81512 482
4191.65332 14201.69434 377.35577 494
384.85663 949.74213 1.59035 385
386.08670 954.72064 17.54055 314
4293.60303 14232.82715 135.94284 482
4274.75635 14166.79395 373.97714 494
388.17252 940.09595 -13.68681 483
388.97925 942.30731 2.37169 483
389.71964 944.71521 18.37749 444
390.40500 947.79071 34.60912 427
391.13660 949.82135 50.63726 443
392.26163 953.86707 66.56213 358
4378.42285 14196.43164 132.59270 482
4360.73926 14133.63965 374.08676 494
393.44501 936.83154 -13.27467 499
394.28656 938.92993 2.65439 499
394.74252 941.00848 18.80996 499
395.60742 943.45062 34.87661 487
396.63196 946.77753 50.65488 490
396.90582 947.43097 66.91854 498
398.66769 953.16541 83.02909 442
4462.85449 14162.21191 133.96880 482
4447.04932 14101.81543 374.98779 494
399.58408 935.29956 -13.47754 491
400.08600 937.53748 2.64191 491
400.79947 939.84906 18.51669 491
401.69986 942.56805 34.72529 463
402.51233 944.87860 50.85710 458
403.29065 947.52765 66.94881 406
4548.89258 14128.66309 132.03990 482
4529.65332 14067.73535 374.90329 495
405.91519 935.93378 -13.89589 458
406.80206 938.71918 2.14481 458
408.08865 941.96967 18.00247 406
409.98087 947.90479 33.79562 339
4632.66211 14094.15430 133.49815 483
4611.92969 14034.00098 374.97220 495
4843.82227 14743.85645 639.54309 492
413.74103 940.04034 -14.90613 338
4719.04053 14061.76953 133.21332 483
4700.15137 14000.88867 376.49561 496
4927.61475 14691.34668 641.05859 493
4803.76855 14026.41113 134.68790 483
4784.06934 13968.75684 373.14670 498
5010.67480 14643.20020 640.52161 493
4888.44434 13993.49902 131.88815 483
4868.44873 13933.84570 376.39029 498
5091.52002 14593.75488 640.64209 493
5002.25879 14044.91016 -109.74503 480
4968.82568 13958.04785 131.62399 483
4949.69531 13902.48145 374.43414 498
5176.03857 14542.93066 639.81781 494
5088.31787 14013.72559 -109.86616 480
5055.99365 13925.30078 131.43369 483
5035.95361 13869.54102 375.73337 499
5257.65039 14491.45898 636.95221 494
5172.85254 13975.58984 -108.33693 480
5139.99023 13889.57227 134.05859 483
5120.34082 13836.39062 373.58994 499
5336.85449 14440.45410 634.92609 494
5254.14746 13944.01270 -110.46870 480
5224.89111 13855.56445 133.65707 483
5204.44238 13801.05469 372.35745 499
5420.26074 14393.15430 637.38293 495
5340.36523 13908.57617 -111.20148 480
5305.28857 13822.57910 133.23251 483
5286.60010 13768.19141 374.27985 499
5503.67578 14341.44141 634.83960 495
5424.20215 13872.03809 -108.74676 480
5390.64062 13785.72656 131.87280 483
5373.35010 13734.15137 375.98355 499
5584.42480 14295.29199 633.68848 499
5507.27344 13841.56641 -109.46348 480
5476.55518 13753.83203 135.12431 483
5453.56201 13704.69238 374.25604 499
5672.29541 14258.38184 636.37744 499
5591.27832 13806.45801 -110.91514 480
5560.65674 13718.62305 132.27036 483
5538.56592 13669.17773 374.74176 465
5762.22998 14224.59473 635.19495 499
5678.76660 13769.59570 -109.40512 480
5642.05811 13685.92578 134.95163 483
5624.43555 13638.22168 371.94324 465
5845.67188 14187.78613 632.87482 499
5760.30371 13738.25000 -108.16118 480
5728.25977 13649.31641 133.13152 491
5709.88135 13607.44043 372.19348 425
5935.11182 14154.37207 632.47632 499
5847.02393 13703.29980 -109.36309 480
5810.55127 13618.71777 130.97519 491
5796.16504 13578.19531 374.07214 425
6019.12598 14118.89453 632.34351 499
5931.21826 13669.23828 -111.31563 480
5894.60693 13582.94922 132.90799 491
5880.26270 13546.07422 375.40634 425
6109.59766 14083.02539 633.13336 499
6016.17822 13634.36621 -111.08006 480
5981.00830 13549.75000 131.41982 491
5966.39307 13516.48828 374.12964 425
6197.51660 14047.55566 636.12659 499
6098.83887 13600.40723 -111.99641 480
6061.93604 13515.10645 133.04308 491
6051.27734 13489.26758 374.51340 303
6254.75732 13953.00391 631.14508 343
6183.66064 13562.17578 -111.87873 480
6148.15918 13482.37109 130.95403 491
6138.43750 13464.02832 373.78769 303
6324.50000 13880.67676 630.08911 493
6270.71484 13529.14258 -112.65534 480
6232.30273 13446.54980 134.65549 491
6229.98389 13445.08301 374.46512 303
6411.98633 13846.66016 629.66907 493
6474.56250 13983.79492 885.52515 499
6354.93604 13496.79883 -112.71943 480
6317.90479 13412.97949 132.98514 491
6322.41406 13425.49414 376.44849 297
6500.48975 13810.76172 630.19104 493
6563.29150 13946.72656 887.14575 499
6643.15820 14119.67285 1154.01868 467
6439.42676 13462.26855 -108.69736 480
6401.61377 13381.10254 130.72319 491
6521.85791 13634.38379 379.58023 499
6584.34668 13773.29688 631.97083 493
6648.36621 13911.71289 886.68671 499
6710.61572 14039.68262 1150.02917 481
6521.73438 13425.04395 -111.03983 480
6485.07178 13349.19531 131.43973 491
6604.62891 13601.56641 378.23315 499
6672.47754 13737.92480 629.26263 493
6737.03955 13878.43848 887.75031 499
6821.39941 14054.09863 1155.66663 354
6607.93750 13389.58203 -111.71315 480
6569.89502 13312.29102 130.80130 491
6693.77783 13566.04883 380.45483 499
6807.74609 13801.32617 633.31982 499
6811.01514 13809.78711 888.24255 466
6826.84033 13843.04199 1140.50574 371
6692.72803 13357.97363 -111.86813 480
6654.46191 13279.46680 133.32948 491
6776.58008 13529.92188 378.45544 499
6869.46484 13716.51562 635.14984 467
6873.29980 13721.87695 884.13385 467
6887.06201 13753.38281 1138.18311 372
6776.00830 13322.72949 -113.12075 480
6736.83643 13243.80859 133.25685 490
6865.45410 13496.85645 379.30545 499
6931.35352 13625.60254 631.45038 468
6933.37598 13632.36426 880.54443 468
6949.90771 13661.53809 1132.83801 372
6863.56299 13288.89746 -111.87984 479
6824.39502 13211.81543 130.91371 490
6948.10303 13459.88770 378.29922 499
6989.38525 13537.16895 631.64081 469
6992.03564 13544.79199 878.72998 469
7009.30908 13575.34473 1131.21082 373
6945.44531 13252.64941 -109.76556 479
6906.54736 13176.66699 134.00618 490
7037.87939 13425.47070 380.17294 498
7058.26025 13467.53223 626.80347 498
7059.31445 13467.67871 876.53149 498
7069.15869 13491.53613 1125.73254 391
7436.87891 14200.25586 1440.81787 376
7431.32910 14186.97852 1705.44592 376
7431.13916 14189.55957 1970.44006 494
7434.49463 14193.41113 2234.47192 487
7032.12061 13218.90918 -110.08849 479
6992.99219 13142.89453 133.56583 490
7123.42480 13389.03613 380.90689 498
7143.86914 13434.23730 626.91113 498
7145.00684 13435.41113 879.14850 498
7159.63135 13459.54883 1126.82361 391
7304.55518 13736.38184 1403.55103 479
7118.79004 13182.00098 -113.98740 479
7079.48682 13110.40918 131.44064 490
7210.16992 13355.85059 377.85672 498
7216.08105 13370.88770 626.25159 498
7219.43799 13373.25098 875.20325 498
7247.22266 13430.25586 1129.22778 391
7329.84180 13582.39160 1395.22925 476
7326.90039 13578.71387 1648.78369 476
7326.70117 13578.34473 1900.04602 494
7335.88623 13589.01660 2158.20459 482
7203.02344 13149.69238 -111.50018 479
7165.43359 13074.82715 130.01765 490
7293.69727 13320.24023 379.61771 498
7306.05322 13336.13281 626.34265 498
7306.17529 13337.60156 875.97925 498
7337.74316 13397.75879 1128.39380 391
7483.52734 13664.25488 1404.84753 470
7290.18213 13112.33496 -113.65375 479
7248.50439 13042.16602 131.50014 489
7380.95410 13284.03223 380.53662 498
7392.57861 13300.70508 630.07684 498
7391.13184 13301.11523 877.71252 497
7426.38281 13368.36133 1129.92908 391
7542.43359 13580.75684 1402.36829 468
7374.73193 13077.77148 -112.22346 479
7332.85938 13009.28125 130.92261 489
7467.85010 13248.25977 378.32016 498
7478.52051 13265.11230 627.28430 497
7480.44336 13266.24316 876.81030 497
7517.93408 13335.00488 1131.14697 390
7661.88477 13597.23730 1405.77588 470
7458.48145 13043.70410 -112.28109 478
7420.83203 12975.60059 132.53864 489
7553.70508 13214.77441 379.18082 497
7565.85498 13229.67578 631.00372 497
7565.96191 13232.97070 879.62494 497
7607.63916 13307.02930 1133.60498 390
7752.81787 13560.43652 1406.72241 484
7544.53076 13008.36328 -114.00614 478
7506.99268 12941.45117 131.95309 489
7643.66113 13179.30176 378.11032 497
7651.54150 13195.89355 630.18634 497
7651.10205 13198.95020 877.99200 497
7698.64600 13275.91016 1133.95044 390
7840.02393 13526.27832 1410.01135 484
7630.66064 12973.12988 -115.20212 478
7593.25781 12907.01562 131.85683 489
7603.68945 12926.31152 376.22897 428
7742.16699 13160.66309 629.02484 497
7738.38525 13162.69629 877.37616 497
7788.07812 13242.00391 1135.41650 390
7930.66504 13488.49902 1412.36548 484
7717.38037 12933.79102 -90.73540 479
7676.51172 12865.66699 152.59320 488
7686.83350 12882.86328 399.50980 428
7827.59375 13121.61816 650.44257 497
7824.80908 13120.82324 900.38452 496
7877.03564 13205.95996 1156.59692 390
7804.60645 12898.05273 -92.29039 479
7762.41699 12829.79785 153.06317 488
7774.77295 12849.62402 399.22318 428
7927.16455 13108.83301 655.53455 496
7927.79590 13112.81348 903.85553 496
7964.36328 13174.32617 1158.10217 390
7889.40137 12864.95312 -93.16394 479
7849.13623 12797.88086 154.64897 488
7857.34424 12811.05371 397.57483 428
8018.95410 13073.75293 652.07892 496
8018.98584 13075.56641 903.54712 496
8059.79639 13143.57812 1161.86853 389
7975.87793 12829.44141 -93.04043 479
7934.86084 12761.14551 152.81502 488
7944.06592 12777.44824 399.48541 436
8026.31348 12907.73535 649.67621 425
7992.82812 12856.19336 895.08002 388
8148.02979 13109.88770 1160.95349 389
8061.68555 12796.22168 -94.64902 478
8023.05322 12729.01270 153.04735 488
8033.16455 12747.01855 398.14105 386
8193.82324 13004.66992 656.61401 496
8089.22559 12832.79980 897.57581 443
8241.53418 13077.48438 1164.46008 381
8148.72949 12759.74414 -93.22640 478
8111.02832 12693.32324 152.91003 487
8124.13916 12715.67578 399.64514 386
8281.85645 12965.69727 656.78534 495
8282.68066 12967.69336 905.37976 495
8330.72363 13045.15723 1166.74707 381
8239.55566 12724.72070 -92.75489 478
8194.09473 12657.27051 153.41570 487
8345.22852 12889.84961 406.03906 495
8371.14551 12929.42871 658.54584 495
8369.26172 12932.45020 908.89758 495
8422.52148 13011.36230 1166.50537 381
8324.68555 12689.08203 -91.84003 478
8281.48340 12623.52734 151.68816 487
8432.56641 12851.97363 406.25464 495
8486.41309 12933.52051 659.51257 432
8481.57812 12929.13379 912.27753 432
8561.62109 13054.30273 1175.10352 345
8411.70898 12653.05566 -95.60837 477
8372.62793 12588.93848 152.89426 490
8519.46289 12816.93457 404.12616 495
8613.76953 12957.87109 659.78918 431
8609.31543 12953.23340 916.28015 431
8704.90039 13100.93164 1180.06091 344
8501.55957 12616.05469 -92.51322 477
8457.03711 12554.12402 153.10378 489
8607.21191 12780.01270 406.86469 494
8725.86133 12957.10547 665.87231 458
8738.93457 12976.12305 920.19653 430
8586.75195 12580.71777 -95.32552 477
8545.65723 12518.10742 153.52444 489
8713.23340 12765.70996 406.35550 400
8838.97754 12951.97461 667.41913 457
8870.64941 13000.72461 926.22211 429
8676.21094 12545.56641 -97.02235 477
8634.47461 12482.20312 153.98050 489
8841.14648 12782.07129 409.30441 399
8951.81250 12946.80078 667.94452 457
8764.59473 12508.32812 -97.58506 476
8721.96582 12447.15234 151.81934 488
8968.08203 12806.07324 408.41846 398
8853.92676 12474.91895 -95.46108 476
8812.20117 12410.80469 155.30696 488
9100.30957 12822.83398 411.50229 397
8944.91016 12437.31055 -97.72707 476
8902.74121 12376.75195 155.10594 488
9235.13086 12850.29297 414.16882 440
9033.73047 12398.19043 -97.04877 475
8991.42090 12342.27734 152.48410 487
9119.68066 12363.84570 -98.73714 475
9078.08789 12306.50879 152.62224 487
9211.42383 12328.85840 -97.98978 475
9169.35254 12269.69824 151.70380 487
9303.55371 12291.38770 -98.79961 474
9260.36914 12235.96289 155.18687 486
9393.90039 12256.15332 -99.73881 474
9348.46484 12199.99316 152.32277 486
9483.02734 12218.77051 -100.60651 473
9441.09863 12164.33398 152.65036 488
9574.24707 12181.13184 -97.17899 473
9530.45703 12126.17578 152.06142 487
9664.23730 12145.26172 -99.73277 473
9621.75195 12089.82520 151.25616 487
9754.94043 12106.95117 -98.13196 472
9713.33496 12053.70508 152.39572 486
9847.62109 12069.58398 -101.84933 472
9807.84375 12020.11230 152.18451 486
9939.77148 12031.14844 -99.58176 479
9902.11328 11981.20020 155.15475 486
10033.65039 11992.93555 -99.43177 479
9991.29883 11943.06445 155.00691 485
10126.41211 11958.10156 -101.09143 478
10085.33203 11906.35352 153.85289 485
10223.41699 11920.80957 -100.77396 478
10181.57910 11870.39453 155.31401 484
10313.67383 11884.24121 -104.06216 477
10275.56055 11835.95605 155.40582 484
10410.58301 11843.75488 -103.70869 477
10367.02734 11798.76172 155.14194 483
10505.88965 11809.12988 -105.10034 476
10463.92383 11758.96777 154.39302 483
10598.57910 11769.44238 -102.78722 476
10558.79590 11722.61621 151.82956 482
10697.32227 11729.69336 -104.74950 475
10655.15918 11684.02344 153.27551 482
10791.10254 11694.50293 -107.17811 475
10748.96777 11648.20508 152.67253 481
10891.19238 11651.85156 -106.25399 474
10847.53125 11607.80859 153.98766 480
10988.50195 11616.29688 -105.06982 474
10944.24512 11572.13672 152.81612 480
11084.48438 11573.84082 -106.78413 473
11041.85547 11530.20996 152.24443 479
11181.01855 11538.60742 -107.55248 473
11140.58301 11492.54395 152.55621 479
11281.59570 11496.58887 -110.05536 472
11236.76367 11455.17773 152.46007 478
11379.82031 11456.88574 -110.54113 471
11336.05762 11416.44238 151.22057 478
11478.35352 11417.59180 -110.23961 471
11439.32031 11375.39941 154.80826 477
11579.13281 11379.54492 -111.24321 470
11536.03418 11336.59863 152.06155 476
11682.10449 11337.18066 -113.43867 470
11640.45801 11296.37207 151.94221 476
11784.98633 11301.96289 -113.61281 445
11739.66602 11257.55273 152.88339 471
11901.70605 11275.63672 -115.41487 444
11847.22363 11221.93262 154.55202 470
12017.17578 11245.82617 -113.46951 443
11951.51758 11187.02246 151.86864 470
12132.81934 11215.28906 -117.89853 444
12062.54395 11151.27051 151.07881 469
12249.58203 11187.88965 -118.48720 443
12167.28125 11114.05273 152.49043 468
12366.96191 11159.88770 -115.74072 442
12286.49023 11083.14453 154.86453 448
12487.12988 11126.66895 -119.81716 442
12407.27734 11057.36035 152.03362 446
12618.02637 11103.31836 -119.01411 395
12533.74316 11034.89453 154.11739 445
12767.56055 11099.94629 -119.96410 394
12661.27930 11008.85449 151.28940 444
12919.55371 11093.32910 -124.24986 393
12792.21094 10983.83301 151.87616 443
13078.42285 11096.46777 -126.45985 371
12920.96777 10960.70801 150.84291 442
13250.19434 11106.08008 -130.46191 343
13053.52246 10935.63477 151.06442 435
13462.18359 11139.63965 -131.27885 342
13185.45605 10912.29297 151.90024 436
13364.30957 10920.31445 152.08899 373
13551.90723 10940.02930 153.61360 371
13742.28320 10957.05469 153.07956 374
14017.54199 11038.82520 152.14246 309
19976.89844 14604.29199 6342.40283 1000
13922.67578 5457.14697 3870.80981 1000
3297.96753 766.83252 -81.34961 405
3301.09058 746.62994 -80.60339 443
4502.02148 -590.65253 -83.84779 420
4534.28125 -622.25403 -160.26186 316
4486.15332 -615.71802 -83.30971 454
4505.62646 -645.64557 -158.16588 413
4472.04688 -640.58911 -83.26116 398
4479.99951 -669.78729 -157.30536 477
4463.46191 -667.38416 -83.51087 389
4465.10205 -694.69531 -156.68619 477
4457.69971 -693.74768 -82.46635 302
4451.17969 -720.19757 -155.09602 490
4440.91748 -745.45020 -154.93839 490
4431.56787 -771.66980 -155.17094 488
4423.75781 -797.37305 -154.74490 489
4415.54932 -823.58508 -153.97981 489
4493.68652 -838.13098 -86.37150 499
4407.63623 -849.35669 -154.42538 488
4457.87891 -859.53864 -84.50211 499
4399.65430 -876.11145 -153.87886 339
4455.14404 -887.44525 -84.84934 499
4391.18994 -901.49628 -154.19833 340
4384.20020 -927.89026 -153.89331 340
4376.77637 -953.90887 -153.82152 341
4450.07617 -969.30933 -85.27433 498
4374.54980 -980.62054 -154.48416 339
4440.69434 -995.09888 -85.04681 498
4502.91650 -1009.94958 -14.54056 397
53152.29297 -12158.62695 11907.92285 1000
4372.13770 -1007.59418 -153.88889 339
47843.48438 -11550.74707 -8790.82324 1000
4369.65234 -1034.32886 -155.23579 339
4366.97607 -1062.25537 -154.78647 339
4535.51807 -1103.83081 -90.63703 497
47804.72266 -12163.68945 -7156.12891 1000
4364.50391 -1089.46753 -155.21758 339
4395.10840 -1097.31812 -84.84004 497
4361.50146 -1116.86328 -155.91052 339
36194.46094 -9446.35156 7566.99756 1000
4358.81396 -1144.34839 -156.30646 339
4356.83496 -1171.54871 -155.71486 339
4354.31787 -1198.87109 -156.49249 339
4352.53320 -1226.82275 -156.47156 338
4349.86084 -1254.58069 -157.88641 338
4347.06055 -1281.20276 -157.29028 338
4346.18994 -1310.05994 -157.64867 460
4343.57764 -1338.01453 -159.23755 460
4339.95068 -1365.25989 -158.80196 460
6271.34229 -3842.90820 -1690.03503 1000
3305.43115 -2053.64844 -117.52653 412
3289.88623 -2071.37158 -117.36227 480
3299.61499 -2077.88501 -55.50444 367
20479.82617 -21067.00586 -3240.45776 1000
4169.08936 -5139.18408 -82.16631 425
4116.98096 -5138.88623 -80.64244 426
4066.20264 -5137.64990 -80.41566 427
4014.60352 -5136.67578 -78.65642 428
3982.22705 -5159.71924 -79.06053 439
17482.51172 -23053.64844 4415.85400 1000
3975.07642 -5215.51709 -81.19583 405
3006.02075 -3967.25903 -109.80976 466
4159.38574 -5535.37012 -92.29108 401
3972.55811 -5417.18408 -85.67000 377
40158.69141 -56640.15234 -5557.31738 1000
4002.43188 -5531.30322 -90.53348 433
2454.98853 -6015.61279 -81.35813 361
24433.56641 -62832.48047 -4304.16016 1000
2401.54419 -5989.91699 -79.33887 413
2352.69604 -5970.95215 -77.49991 445
2305.62939 -5955.30566 -76.46473 446
2259.30933 -5943.35693 -76.09869 452
2212.65527 -5930.33887 -75.04749 457
2169.34863 -5924.64893 -74.61012 468
2127.08569 -5920.13965 -74.80827 471
2140.54126 -5957.92627 28.17270 483
2085.14990 -5912.64014 -73.47031 476
2099.87939 -5956.71875 27.25561 483
2043.22729 -5910.64795 -72.52587 481
2057.00977 -5948.43311 27.32451 479
2060.53516 -5960.40918 130.92426 477
2003.01501 -5906.66113 -73.51723 496
2015.97375 -5949.05078 27.81077 484
1962.72864 -5907.69629 -72.86731 485
1976.23352 -5951.62354 28.87967 485
2055.87183 -6201.62744 236.60512 417
1921.47754 -5902.94727 -72.71369 485
1935.40295 -5951.75000 27.77374 485
1942.02197 -5971.20898 130.73755 416
1881.82471 -5900.55322 -71.09298 484
1896.58191 -5950.44141 27.80160 486
1902.10083 -5967.75684 130.23566 417
1841.52966 -5899.60498 -70.48227 484
1856.18701 -5948.11963 29.42118 486
1861.54993 -5965.84717 130.56148 417
1801.72290 -5898.56250 -70.19350 485
1851.01978 -6068.75684 27.43059 328
1839.44238 -6027.86084 130.33807 487
1762.16296 -5897.37354 -69.62600 485
1847.28662 -6194.99023 25.71576 326
1723.35425 -5896.68164 -69.46018 486
1683.85339 -5894.68115 -70.48711 486
889.91455 -3291.60889 -35.61411 269
893.16278 -3304.41797 19.86449 257
1604.53174 -6198.12451 25.77926 462
844.78558 -3190.06787 -29.38548 299
874.32086 -3314.16772 19.36914 496
333.92053 -1055.77710 114.41430 297
333.47034 -1053.91199 132.21892 371
333.26141 -1053.31274 149.97992 371
333.31808 -1053.01868 167.89062 433
333.28110 -1052.58105 185.54723 432
333.22028 -1052.52673 203.42290 476
326.27002 -1050.74023 -9.75526 432
326.20163 -1050.67688 8.18694 475
326.21347 -1050.69421 26.05054 476
326.26306 -1050.88989 43.86242 476
326.07138 -1050.88086 61.60262 498
326.15454 -1051.01294 79.36008 498
326.26248 -1051.30981 96.96597 498
326.14880 -1051.65454 114.54649 495
326.50421 -1052.19678 132.29083 495
326.54868 -1052.54138 149.87556 494
326.40894 -1053.03674 167.85852 467
326.64081 -1053.83508 185.60580 467
326.74161 -1054.38062 203.22629 466
319.69806 -1051.53467 -9.50270 466
319.85712 -1052.09790 8.10706 466
319.84015 -1052.73035 26.08083 466
320.11884 -1053.73328 43.67365 418
320.18143 -1054.83887 61.41592 418
320.75262 -1056.15466 79.03265 352
835.20593 -3331.29614 19.33754 495
1432.55518 -5974.17383 30.31711 498
769.31281 -3128.36157 -26.38895 386
842.64075 -3463.01343 15.03896 444
1401.08459 -6001.45410 28.76283 319
755.96643 -3158.72559 -26.96855 369
760.19800 -3180.44019 24.63904 258
742.68719 -3191.25562 -28.71811 368
743.23218 -3194.53638 24.19800 349
728.04413 -3223.80151 -30.63364 367
727.28937 -3218.64185 23.32957 388
714.69672 -3259.17310 -32.12751 345
712.74207 -3246.70776 22.68285 387
702.63574 -3302.25537 -34.32190 337
697.97864 -3279.65942 21.48029 378
691.18640 -3353.46753 -36.19015 321
684.85016 -3320.36035 21.00806 354
685.45996 -3444.02197 -40.82526 282
672.58575 -3369.27661 18.90183 338
685.00800 -3571.75757 -46.84022 287
667.97437 -3467.74072 15.80263 285
671.51166 -3626.28711 10.96909 283
-4940.87549 -48873.59766 -11356.19629 1000
-206.97849 -1532.11230 182.69756 323
-206.56302 -1530.45886 208.14137 393
-215.31189 -1525.07874 4.01504 499
-215.32834 -1525.25903 29.46689 499
-215.20683 -1525.24414 55.01876 499
-215.19696 -1525.48901 80.75870 488
-215.29556 -1525.45740 106.27032 488
-215.53714 -1525.63794 131.59650 488
-215.51622 -1525.85364 156.78944 453
-215.67305 -1526.39355 182.52829 453
-215.65462 -1527.11194 208.05885 453
-738.44470 -2002.92151 24.78960 475
-738.16925 -2002.25891 59.83245 497
-737.76392 -2001.90808 95.38344 495
-737.88715 -2001.43677 130.85265 469
-738.22284 -2002.17468 166.23714 469
-738.30145 -2002.99268 202.09641 356
-39668.49219 -45695.80078 -3871.58813 1000
-29846.06055 -8154.34570 4729.59424 1000
-256.37790 -75.04161 35.22449 321
-254.29263 -72.40379 35.94763 321
-252.27678 -69.74791 36.55062 322
-272.47745 -73.75418 37.57067 318
-252.19658 -67.48111 36.73946 352
-270.23340 -70.98155 38.30301 319
-253.99081 -65.64594 36.23885 351
-268.54410 -68.37452 38.79984 345
-290.05054 -72.43016 40.13015 318
-255.92931 -63.72507 35.83961 351
-270.32159 -66.34740 38.43064 345
-288.07214 -69.68004 40.73281 318
-257.75381 -61.84551 35.47966 351
-272.20047 -64.42157 38.04076 347
-288.27151 -67.21561 40.76828 341
-259.62277 -60.00005 35.01931 350
-274.21710 -62.41231 37.66312 347
-290.17798 -65.15007 40.34818 341
-279.02377 -60.93244 36.50269 323
-295.24619 -63.50225 39.24789 313
84.90148 -0.32597 128.38770 314
84.96780 -0.24746 128.38695 314
85.03293 -0.17078 128.38588 314
85.09998 -0.09225 128.38705 314
85.16805 -0.01614 128.38736 314
85.23579 0.06210 128.38678 314
85.30418 0.13879 128.38710 314
85.37267 0.21522 128.38745 314
85.44128 0.29285 128.38553 314
