# .PCD v.7 - Point Cloud Data file format
VERSION .7
FIELDS x y z rgb
SIZE 4 4 4 4
TYPE F F F U
COUNT 1 1 1 1
WIDTH 769
HEIGHT 1
VIEWPOINT 4658.697266 -4106.250488 134.115173 0.022146 -0.138563 -0.000685 0.990106
POINTS 769
DATA ascii
-286.77426 60.41650 36.01383 318
-266.72647 59.46140 34.75970 326
-280.89417 61.78239 37.46938 324
-296.94333 64.43567 40.10868 314
-262.66150 61.02182 35.76035 351
-277.00800 63.40803 38.24368 347
-292.94241 66.15023 41.01148 342
-260.76642 62.90578 36.13149 351
-274.92322 65.42767 38.66674 348
-290.90201 68.28043 41.33764 341
-258.83789 64.73629 36.55186 352
-273.11746 67.38097 39.11214 346
-292.44687 70.96822 40.79305 319
-256.88815 66.62976 36.95171 352
-272.99396 69.70815 39.00084 322
-255.14256 68.54110 37.32241 325
-274.79694 72.38168 38.34834 319
-256.91193 71.08821 36.67820 322
-258.85184 73.65428 35.98020 322
-260.78500 76.32715 35.37130 321
-5168.09473 1586.23096 571.16345 1000
-7879.83447 2893.17944 -162.34245 1000
-26366.57617 16463.93750 3665.05640 1000
-32993.31641 31776.95312 3080.41309 1000
-330.08664 691.65100 -3.07399 1000
-16832.64062 35639.69922 -5746.52783 1000
-652.03467 1973.75439 27.04884 469
-652.62097 1974.89099 61.32525 472
-654.69788 1980.39929 96.17232 421
-639.86365 1977.90527 26.62042 467
-639.89014 1977.81274 61.74898 470
-641.78711 1982.36841 95.75610 492
-643.23523 1986.97375 130.44704 423
-634.04614 1999.01575 26.24678 262
-164.18637 1458.46716 34.16189 370
-153.96779 1453.03455 34.55441 476
-154.65076 1457.60815 58.58342 476
-155.80894 1464.14160 82.63754 392
-145.16147 1455.00647 34.52583 493
-145.86411 1458.56653 58.53919 493
-146.69664 1463.51953 82.68765 471
-147.11446 1466.14307 107.04382 469
-137.05800 1463.40015 34.15205 351
-918.18152 49718.01953 10866.24609 1000
5607.08008 65517.30859 10984.28613 1000
1496.38916 15407.99023 129.44650 465
1485.25952 15302.67676 380.19006 470
1584.87207 15364.99316 129.36809 466
1575.74353 15260.79492 380.94272 471
1577.03345 15271.93652 631.35675 464
1678.40442 15325.90918 130.32292 453
1667.51257 15223.58691 379.59436 475
1662.65393 15210.37793 630.26300 456
1767.86951 15285.58203 130.29996 454
1754.60400 15184.01074 382.30573 475
1858.64001 15249.01270 132.39931 473
1846.54297 15149.62305 379.60040 475
1948.17957 15209.90039 131.68738 473
1934.48706 15113.00000 379.10709 476
2038.05579 15173.26367 131.88634 473
2027.87183 15075.17090 379.53503 476
2129.49536 15139.71582 129.51407 475
2116.42310 15038.52539 378.62650 477
2219.88940 15102.40430 130.85458 475
2203.40161 15002.76367 378.23892 477
2307.75610 15066.48730 131.42561 476
2293.82642 14968.55859 377.58044 477
2298.07202 14991.47461 627.10547 350
2394.43164 15030.95801 131.31909 476
2383.52100 14930.14062 380.40903 478
2384.87085 14954.15137 624.63208 350
2484.60840 14993.98730 130.95712 476
2469.48511 14894.59766 380.06976 478
2473.21289 14915.95605 626.63873 429
2574.78760 14955.67285 129.80182 477
2559.69434 14860.64062 379.60825 478
2562.13037 14879.22656 624.39880 429
2662.37012 14919.72559 130.89565 477
2647.22021 14826.21094 375.57837 479
2646.19873 14839.76953 623.17358 429
2750.08130 14884.32227 131.31090 477
2730.67285 14786.56836 376.65475 479
2736.87354 14805.43750 624.57556 430
2838.36646 14846.59473 132.30907 478
2819.63232 14750.97461 375.84839 479
2823.37646 14769.35547 623.77698 418
2923.71069 14811.99414 130.91780 478
2906.07422 14718.97168 378.16956 479
2911.40234 14732.21680 623.33490 402
3011.20483 14775.93652 129.59061 478
2994.23779 14683.49121 377.74579 480
2998.43164 14699.80566 622.12775 402
3098.19360 14741.20996 132.19765 479
3078.56763 14648.89551 376.26956 480
3085.73853 14665.51562 621.35077 427
302.59692 945.43323 4.01847 368
303.83176 951.50928 19.51803 295
3187.20825 14706.06055 131.34462 479
3167.71729 14613.30566 378.00980 480
3170.17285 14631.55957 621.72247 427
307.04602 937.95312 4.94901 474
307.53802 940.20477 20.65176 430
308.04810 942.40002 36.28080 431
308.62677 945.64050 52.09807 368
3271.21997 14668.47461 131.07945 479
3253.58716 14578.04688 377.19122 481
3256.80322 14597.16016 622.05267 427
312.45459 934.11432 5.41501 497
312.69379 935.62433 21.14194 497
313.12994 937.41254 36.81846 474
313.49759 939.09253 52.35627 474
313.81058 940.61768 68.22881 475
314.18552 942.76709 83.75797 431
3359.01489 14636.54297 130.96179 479
3337.36963 14540.45508 376.78098 489
3342.28540 14563.74805 620.20599 427
318.11813 932.66406 5.27683 495
318.30133 933.98389 21.19298 495
318.61819 935.44141 36.77916 495
318.93069 936.72913 52.40901 495
319.17291 938.15381 68.29851 495
319.60031 939.78009 83.94892 496
320.30972 943.18164 99.51299 446
3444.80029 14600.24805 132.25749 480
3423.19702 14507.73242 374.26108 489
3428.95801 14531.78418 620.25122 427
324.20502 932.60455 5.27170 469
324.39981 934.48407 20.90882 469
324.96576 936.11847 36.53643 469
325.30002 937.71753 52.33307 469
325.71362 939.70203 67.97546 424
326.53107 942.57068 83.63081 358
3529.87744 14565.76855 131.33530 480
3510.64795 14473.31641 375.59207 489
3515.62695 14498.07910 620.34924 428
330.83786 935.45331 4.66886 421
331.35068 937.78021 20.23648 421
332.30051 941.39154 36.00055 357
3617.38696 14530.22461 131.09972 480
3596.50684 14439.75293 376.17856 489
3705.11768 14496.04688 130.97150 480
3680.54712 14405.22168 373.68015 490
3787.63208 14458.11621 131.07149 480
3768.02808 14369.02930 374.98239 490
3874.47266 14424.45605 132.43655 481
3853.47925 14337.64844 373.25439 490
3958.55640 14388.46680 132.47069 481
3937.93286 14300.50684 375.27014 490
4044.65527 14352.67480 132.29469 481
4023.40601 14268.66406 371.96225 490
4129.11865 14321.10742 132.82870 481
4105.68164 14235.47559 372.75925 490
4214.73975 14284.79199 132.80598 481
4191.75830 14199.98828 373.39145 491
4300.91113 14251.26562 132.59700 481
4275.34717 14166.00098 375.24008 491
4386.93945 14215.45703 130.17296 482
4358.30371 14130.37305 373.61221 491
4469.39014 14182.75781 133.05510 482
4444.61523 14098.35742 371.31244 491
4554.68555 14147.52832 133.88004 482
4529.88721 14063.37207 375.01294 491
4637.84180 14114.11719 130.36975 482
4612.50000 14031.66309 371.04550 491
4832.29443 14714.17188 636.10583 492
4834.15576 14716.18457 893.02783 413
4723.89941 14077.14941 129.73776 482
4696.23242 13997.22949 373.11755 491
4916.85254 14663.71973 636.92822 492
4916.75537 14666.74219 890.15295 413
4809.38379 14044.08008 130.77815 482
4780.27148 13960.79102 373.60263 491
4999.68555 14613.21387 637.74591 493
4998.07227 14617.12402 890.01971 413
4890.73389 14007.54102 131.77699 482
4863.55029 13927.94434 374.49008 492
5079.98828 14562.10742 637.03125 493
5083.73633 14565.97070 885.85510 414
4977.88818 13975.85840 129.89337 482
4947.05908 13896.94141 373.68231 492
5162.31934 14511.41309 634.08093 494
5165.70850 14516.25586 887.51440 414
5059.17285 13938.13379 133.69655 482
5034.33154 13860.92090 370.81705 495
5244.73389 14462.42480 634.10541 494
5249.12305 14465.27637 887.74500 414
5145.65918 13906.67090 132.13148 482
5115.14648 13828.89746 374.41479 495
5327.40723 14411.29004 635.45416 494
5329.22070 14416.58984 886.58020 414
5229.08252 13872.51660 131.23051 483
5201.76074 13793.33984 372.35773 495
5408.54395 14361.79883 634.74921 494
5409.68799 14367.32910 885.80988 414
5313.77246 13836.58594 131.78960 483
5282.26318 13760.85938 372.72714 495
5492.97803 14308.91113 633.59033 495
5492.00439 14317.34766 883.87183 415
5395.34473 13804.24316 131.79665 483
5368.06592 13726.20703 373.36890 495
5575.36963 14263.26953 632.55084 499
1508.62634 3935.53760 207.23997 418
5481.05811 13769.98730 130.09787 483
5450.20801 13691.81934 373.82846 495
5660.50342 14227.84668 630.97064 499
5665.05957 14236.96582 881.39636 418
5565.30127 13732.26660 131.90883 483
5536.04590 13659.33691 370.59457 495
5747.81299 14193.67578 633.90790 499
5752.87109 14201.19141 880.79749 418
5649.39258 13698.89453 130.27460 483
5617.90186 13625.40332 374.06317 495
5833.25537 14157.37207 632.33801 499
5836.74854 14167.99023 884.51105 418
5734.73682 13666.76660 132.43132 483
5704.77148 13594.16113 370.91388 495
5921.70361 14121.46875 631.82190 499
5925.22559 14132.10449 883.30334 418
5818.21777 13632.69141 132.20610 483
5787.42188 13560.40723 372.35455 495
6007.54443 14084.20898 631.72736 499
6012.73096 14100.60352 884.35529 418
5901.09082 13595.05664 133.55525 483
5870.99170 13526.54004 370.30310 495
6093.64111 14048.88770 633.37671 499
6101.14600 14065.43750 883.19055 418
5983.73633 13560.99023 130.18335 483
5953.99854 13490.03613 373.10687 495
6182.82031 14014.87598 631.69287 499
6186.17627 14033.55371 881.95367 418
6067.20166 13528.55664 131.27913 483
6036.48096 13459.74023 374.36301 495
6257.41162 13950.42871 631.23560 355
6277.14307 13996.40234 881.15900 418
6151.59814 13493.64062 131.32469 483
6123.27002 13424.74512 373.00912 495
6325.22510 13878.54297 630.06586 394
6365.30859 13962.30566 881.70703 418
6238.57422 13458.16895 129.58618 482
6205.66650 13390.93262 374.11270 495
6412.01172 13838.91797 627.31573 394
6452.67236 13927.75293 882.68518 418
6322.72656 13425.78809 132.72530 482
6291.88037 13358.00098 374.24542 495
6496.53809 13800.56445 630.04108 390
6537.40234 13894.65918 885.25122 417
6546.49365 13910.36816 1135.61182 499
6624.62061 14079.89941 1405.81860 380
6405.52295 13392.65625 131.50514 482
6374.13574 13322.18555 370.73364 495
6581.44238 13765.19434 628.38983 390
6626.44092 13863.08594 885.99854 417
6692.17529 13998.26270 1146.67151 477
6696.51221 14009.11621 1399.04065 480
6487.96240 13357.86426 131.47606 482
6457.03711 13289.43945 372.36783 495
6667.16260 13725.85156 630.57983 391
6716.71777 13827.07324 883.99811 417
6800.08398 14009.48730 1147.60999 426
6808.61816 14026.54199 1408.64526 355
6574.27051 13320.33008 131.95932 482
6543.90332 13254.68555 371.77301 494
6788.66748 13765.23340 633.10016 499
6789.80078 13767.55859 881.40723 466
6791.43799 13770.28613 1135.32678 466
24230.33789 49695.39062 12063.63477 1000
6657.95850 13287.73828 131.29094 482
6626.67871 13221.97559 374.35461 494
6848.34668 13676.68457 629.16638 467
6853.36523 13678.71484 880.64288 467
6853.82568 13683.19043 1131.06421 466
6740.48779 13251.66406 130.91295 482
6710.62354 13186.72363 372.57516 494
6909.65234 13587.56836 630.43164 467
6911.42041 13588.59570 876.54565 467
6911.23340 13594.49316 1128.92200 467
6825.83398 13220.25781 132.05194 482
6795.65723 13153.55176 371.01920 494
6971.48779 13501.67871 628.75647 468
6972.76270 13504.21973 873.77673 468
6970.60352 13503.92871 1122.95703 468
6911.00391 13184.47461 130.91559 482
6878.46582 13122.25391 373.29434 494
7038.32764 13429.23145 626.35419 498
7036.79688 13430.78125 875.34814 498
7039.05713 13431.32715 1120.43835 498
7164.39795 13670.58105 1390.82971 452
7410.18262 14150.13672 1963.82166 377
7403.53418 14140.52637 2225.58228 377
7408.72363 14141.82324 2491.97900 493
7408.79199 14144.89258 2759.58618 492
6995.19141 13149.03516 132.99153 482
6965.38965 13086.07617 373.99796 494
7125.39893 13395.54395 628.35419 498
7122.83594 13393.39746 872.10474 498
7124.24023 13395.05078 1124.29053 498
7254.20557 13636.56738 1395.62231 452
7079.03369 13115.62988 133.34058 481
7049.13086 13052.45801 373.57797 494
7212.34473 13358.32910 627.40576 498
7197.29541 13329.93750 873.54095 498
7212.13965 13357.05566 1123.10010 498
7340.80469 13601.38965 1394.95239 452
7381.21143 13678.16602 1655.73584 484
7304.74463 13537.94434 1897.11975 351
7304.38428 13531.09570 2151.17773 476
7164.53174 13081.21289 133.19678 481
7131.55469 13021.34180 371.73990 494
7299.43750 13321.77051 628.78705 498
7282.92334 13296.47070 871.60681 498
7295.37842 13323.05957 1124.39575 498
7427.75537 13567.95801 1397.11206 452
7471.89453 13643.40234 1657.23364 484
7251.18555 13044.92578 132.84624 481
7219.94336 12984.30762 371.57925 493
7384.84131 13286.28613 625.81506 498
7367.14404 13260.08691 873.08722 498
7383.21875 13287.40234 1123.70447 497
7517.81982 13534.43457 1395.03259 470
7558.18604 13608.79785 1659.67395 484
7337.49561 13010.61719 131.30182 481
7302.56494 12949.76758 372.60117 493
7471.07959 13253.90234 626.18927 498
7453.77393 13227.83203 874.39417 497
7469.41846 13253.96582 1125.95996 497
7607.64258 13496.92480 1396.94849 470
7646.70752 13572.29492 1661.99329 484
7420.52490 12976.14746 132.38382 481
7389.75635 12915.54883 374.00061 493
7556.12109 13216.89258 629.43164 497
7540.86768 13188.95117 875.01251 497
7555.38477 13215.85449 1124.69714 497
7695.37305 13461.69922 1396.39294 469
7736.68262 13538.58887 1662.18665 484
7504.88916 12940.62793 130.04811 481
7471.43506 12884.15527 372.59012 493
7642.40430 13181.19434 627.09351 497
7627.44873 13156.10840 876.26135 497
7642.45654 13179.61523 1127.35547 497
7782.59814 13421.88965 1398.26025 469
7591.10547 12905.06934 129.11496 480
7557.61865 12847.99023 373.67346 495
7732.61084 13145.22461 630.35083 497
7715.14404 13121.15820 876.43494 497
7728.97559 13143.70117 1125.75537 497
7869.25342 13385.99707 1400.53259 469
7675.69482 12868.74023 147.25284 480
7642.29395 12808.49512 389.31000 495
7813.99219 13106.75293 643.34467 497
7800.63135 13078.40527 893.23053 497
7749.20264 12999.20117 1136.74658 384
7954.75586 13347.54199 1415.82935 470
7759.61768 12832.40723 147.51230 480
7727.33398 12774.32129 390.96924 495
7902.07227 13071.45703 647.71448 497
7899.22705 13069.52637 897.43250 497
7757.93164 12829.54102 1125.88110 385
8046.05664 13310.05078 1421.08923 469
7845.79395 12798.50000 147.48143 480
7812.21191 12741.24902 389.20215 494
7990.61182 13033.02832 647.72559 496
7989.14258 13033.60352 897.78357 496
7812.58057 12745.01465 1125.77417 496
8135.50146 13275.81738 1422.08826 469
7931.46729 12762.82422 149.24527 480
7899.64502 12706.52637 393.42365 494
8078.91309 12999.51465 648.59515 496
7965.30273 12814.55371 885.91821 491
7897.65576 12708.58105 1126.85730 496
8224.98535 13240.30078 1420.09851 469
8020.46240 12726.51465 147.53261 479
7983.81641 12672.49512 393.25861 494
8162.86377 12960.46973 646.65900 496
8085.12354 12833.59180 889.90564 355
7985.52588 12674.97070 1127.08057 496
8312.41211 13205.07715 1425.37720 465
8106.93945 12691.86914 147.43675 479
8070.39941 12639.77246 391.60690 494
8254.49121 12927.24707 647.84552 496
8250.97266 12926.46191 897.75549 496
8067.47363 12636.75879 1125.81543 495
8402.56152 13168.43750 1427.31299 465
8193.79102 12654.08691 147.00307 479
8160.91748 12604.86523 392.93698 493
8341.59570 12890.79395 650.76093 495
8338.29297 12890.73047 899.62354 495
8156.39551 12601.71191 1129.10950 495
8494.68457 13132.08008 1427.14648 465
8279.44824 12618.16602 146.28069 479
8246.34570 12568.01367 392.40860 493
8453.08594 12888.11621 649.95502 433
8448.99707 12884.89355 902.80255 433
8471.59668 12920.76758 1156.15771 429
8605.41016 13131.54395 1430.40564 441
8364.04297 12582.81250 148.88048 486
8334.40625 12532.90234 392.58685 493
8564.53223 12883.78516 655.03278 460
8578.07910 12905.63184 906.09979 432
8596.88770 12940.62305 1164.04346 428
8718.40918 13128.81445 1436.22449 434
3133.86621 4555.46191 -1138.13806 1000
8455.24609 12551.29785 148.86130 486
8420.85742 12499.33398 393.08307 492
8671.36426 12881.91504 653.77905 459
8705.16895 12926.43652 911.11517 458
8726.90527 12967.07422 1168.79651 427
8542.78613 12513.02539 147.13678 485
8507.78516 12463.46777 393.81689 492
8785.20996 12873.11328 658.22400 459
8813.75684 12921.31250 914.11719 458
8630.54492 12479.16797 151.04213 485
8595.98730 12430.28027 393.23871 492
8894.76172 12868.41699 659.07867 458
8927.00977 12918.32617 915.96851 457
8717.16504 12444.57910 149.78345 485
8684.19531 12393.53809 395.04150 491
9005.13867 12865.16602 662.09875 457
8808.02051 12408.01172 151.11028 485
8770.54004 12360.02344 397.80930 491
9147.08203 12893.30371 665.41443 440
8894.15137 12371.51465 150.15233 484
8860.02832 12324.15137 395.86929 491
8983.73926 12337.50977 149.06874 484
8947.43457 12290.19043 395.74426 490
9070.75195 12299.36523 148.72697 483
9038.56934 12251.94141 398.69989 490
9161.40918 12264.56445 147.79492 483
9125.75195 12218.54492 397.24127 490
9251.32812 12225.86523 151.49782 483
9215.87012 12184.13574 397.27646 489
9342.78809 12191.15332 150.35378 482
9308.89062 12144.72852 399.46143 489
9432.32227 12157.27637 152.36571 482
9397.21777 12110.00488 398.24738 488
9522.49316 12118.26562 152.04723 482
9488.94434 12073.39062 402.26126 488
9612.55371 12080.90332 151.17368 481
9580.60742 12038.13477 401.87750 488
9707.16211 12046.21289 150.47574 481
9669.62402 12002.58496 401.55066 487
9795.97461 12007.56055 149.73845 480
9760.46094 11964.66699 400.87332 487
9887.40527 11972.33301 153.34213 480
9851.43652 11928.59082 404.17212 486
9979.85156 11935.85742 152.46678 479
9946.47754 11889.41895 401.81638 486
10072.99609 11896.16406 150.68347 479
10040.01855 11855.05762 402.38483 485
10230.14453 11932.80371 -104.36640 468
10166.61914 11858.30176 149.45113 478
10131.26855 11818.89062 403.75842 485
10322.45801 11893.20312 -103.22540 468
10261.85840 11822.56836 150.18906 478
10225.22656 11781.90820 407.86725 484
10419.45410 11855.89355 -105.82454 467
10354.40234 11782.38867 152.60484 478
10315.72949 11741.22949 405.17221 484
10512.53027 11816.27441 -105.18600 467
10448.04883 11747.30371 153.48817 477
10411.69434 11705.19141 405.13458 483
10606.58301 11780.14160 -106.38683 466
10545.55957 11709.72852 151.61792 477
10508.16992 11670.81250 407.14163 369
14521.16895 16175.21582 3738.82202 1000
10703.48926 11741.89941 -108.00230 466
10638.00488 11667.15039 152.23056 476
10608.37891 11636.34473 406.83823 369
10799.47656 11699.12207 -106.89197 465
10732.58594 11631.04199 150.38594 476
10704.93555 11602.30469 409.50256 369
10895.93457 11663.08301 -105.88731 465
10831.37598 11593.98633 153.15564 475
10806.37793 11569.70996 408.50726 368
10992.49316 11624.36621 -107.54212 464
10927.13477 11551.31543 153.41513 474
10904.15918 11533.63574 410.33734 432
11088.38477 11582.39648 -109.03297 464
11021.11914 11514.49512 154.28088 474
11002.35645 11492.38770 412.33945 432
11184.44043 11544.88184 -107.22404 463
11119.64551 11476.82812 152.02318 473
11097.40723 11453.83496 410.87671 432
11282.61816 11504.86621 -110.52587 463
11218.30664 11436.18164 155.47791 473
11195.55469 11412.02832 415.40515 431
11382.03125 11461.89648 -110.58085 462
11314.82520 11397.16406 151.42432 472
11292.17969 11373.25684 416.40347 431
11480.07031 11423.61719 -111.63953 462
11416.68555 11355.87305 154.22726 472
11388.64551 11332.33301 416.07025 430
11581.98535 11383.56055 -111.73824 461
11514.39160 11316.13965 151.54672 471
11490.00684 11289.78516 417.57501 430
11690.18457 11346.00000 -112.30291 445
11614.30371 11277.05566 152.18582 471
11586.51953 11250.68164 415.45056 429
11800.58105 11314.91113 -112.90946 444
11715.60938 11233.89648 152.69904 470
11696.76758 11214.78125 417.53613 397
11910.04004 11286.59668 -114.20462 444
11820.24121 11198.92285 152.33983 445
11803.21191 11184.29395 419.59109 397
12026.68750 11254.99805 -112.40308 445
11935.35156 11168.86914 153.20439 445
11913.81055 11151.09668 419.90198 313
12142.89258 11229.78223 -116.35150 444
12049.36621 11144.40039 155.66113 444
12030.36426 11123.26758 421.36426 313
12262.75195 11201.26270 -116.59087 443
12165.95605 11111.91895 154.67180 443
12151.07715 11099.16211 424.87711 285
12384.92969 11178.14062 -114.90256 397
12285.66699 11084.87109 153.13449 442
12239.09180 11044.72754 424.10480 464
12540.14844 11173.98242 -117.42319 374
12404.86328 11053.79590 156.76996 443
12350.60156 11007.01562 426.55609 464
12700.93652 11182.12793 -119.38100 373
12523.20996 11023.47656 153.40187 442
12716.38379 11196.81641 430.52017 404
12866.32910 11191.25879 -122.42924 372
12648.65527 11000.02441 153.34839 396
12824.27441 11155.34961 432.51947 404
13045.77930 11207.39258 -122.33887 344
12798.95117 10995.65820 155.10760 395
12954.14258 10989.56152 154.78242 394
13767.36035 11690.44629 453.48190 422
13106.07617 10986.92578 157.18146 372
13832.65527 11600.92871 453.41666 422
13278.44043 10994.95312 157.83540 344
13897.07227 11512.92383 452.81369 422
13486.24121 11025.86719 154.23833 343
13969.55469 11425.44531 451.35199 407
14032.46094 11335.24902 450.23303 496
14089.70898 11235.70410 450.90424 383
13858.62695 10915.80859 444.41611 318
43287.14453 21499.30664 -3751.72266 1000
7282.84570 2536.63965 -231.24390 1000
17159.29492 5553.47119 -2503.26318 1000
3211.45288 746.15363 -21.21928 489
3219.03467 748.55121 31.70364 489
3227.62695 729.54602 -21.64439 317
62121.98438 -3311.65332 12563.08398 1000
4429.10010 -607.90277 -6.57426 417
4409.67090 -632.11993 -5.80896 451
4431.59863 -661.91150 -79.26540 436
4394.87305 -655.96973 -6.35607 446
4401.58350 -684.68903 -78.24708 478
4383.40186 -681.30109 -6.03167 384
4387.45557 -709.78748 -77.19888 478
4375.79834 -707.58972 -5.56503 381
4371.49609 -733.26324 -76.49825 479
4369.72168 -733.63629 -5.65428 405
4361.74072 -758.47516 -76.29724 491
4351.56787 -784.52319 -76.83231 489
4342.75488 -809.38611 -76.01295 491
4334.56689 -835.57043 -76.20097 491
4325.32568 -860.45184 -76.42216 491
4375.72412 -870.52002 -6.86005 499
34867.09766 -7291.62500 -5102.81055 1000
4314.63867 -885.06927 -75.98477 345
4372.02979 -896.62500 -6.98293 499
4305.94141 -910.43689 -76.04003 345
4297.89111 -935.99158 -74.84618 345
4290.06592 -960.81885 -75.83569 346
4410.31885 -988.58008 -9.15159 359
4285.39502 -987.04462 -75.27636 345
4362.33350 -1004.88092 -7.41382 498
4281.86377 -1012.99225 -76.08701 345
4354.07666 -1031.35864 -7.36368 498
4278.90967 -1039.38806 -76.27602 345
4275.46533 -1065.94543 -75.88685 345
4272.10400 -1092.15979 -76.24400 344
4359.90967 -1115.42175 -7.86264 396
4268.14404 -1118.72229 -76.11662 344
4307.44873 -1129.98730 -6.44551 497
4265.94531 -1145.67041 -76.00839 344
4261.94043 -1172.55835 -77.22903 344
4259.67480 -1198.84314 -76.62399 344
4255.55811 -1226.56750 -77.67947 344
4253.00000 -1252.98828 -77.97900 344
4250.09668 -1279.60986 -77.62396 344
4246.80518 -1307.55835 -77.56390 344
4242.93408 -1334.40222 -77.83971 344
4240.39404 -1361.58069 -79.29483 343
4237.33789 -1388.22998 -78.58389 343
4234.17090 -1415.26306 -79.58333 343
4232.54785 -1443.73450 -79.16702 325
3209.47900 -2074.86572 -50.49501 464
3198.38501 -2094.50439 -49.98639 436
6630.84570 -5759.38965 -150.31657 1000
39845.33203 -35881.80469 -6012.21387 1000
27207.29492 -26675.29688 -2977.02759 1000
3984.89233 -4908.23828 -71.36477 407
3964.05005 -4941.58154 -71.88577 340
3943.87646 -4979.65869 -73.39606 438
3923.70752 -5016.99561 -74.12111 437
3903.02539 -5055.18164 -73.67133 433
3886.50903 -5098.53760 -75.33183 419
3871.42822 -5143.10449 -75.44007 414
3860.72266 -5194.40234 -77.32389 388
3856.99536 -5257.36768 -78.07809 377
8132.07373 -14147.16211 -3093.63892 1000
16978.58789 -34516.53125 7146.34961 1000
2491.85059 -5076.62549 -48.42394 495
24169.43164 -59999.12500 8667.05664 1000
2340.72754 -6046.39941 28.38110 311
2301.74146 -6057.23779 29.37422 498
2261.70435 -6064.02148 -77.19408 363
2266.86597 -6074.77832 29.33135 314
2210.75562 -6039.15527 -74.95934 397
2162.32275 -6017.98730 -73.44358 405
2112.13306 -5991.71289 -73.19597 463
2059.81445 -5955.39014 -71.81747 299
2069.55054 -5985.14746 30.88570 453
2064.60498 -5968.73535 134.64125 413
2014.79846 -5943.82910 -69.81006 367
2023.67969 -5970.54932 31.53854 454
2021.73560 -5966.41699 134.09773 413
4129.76074 -12465.15820 3418.48706 1000
1972.50830 -5936.56006 -70.08050 371
1982.58069 -5969.70166 31.69596 485
1981.71777 -5963.61572 133.87289 414
11299.74902 -35229.94922 3170.84351 1000
1930.52100 -5930.67090 -70.29926 375
1940.82727 -5961.37793 31.45774 485
1939.71387 -5961.65527 133.77629 414
5190.03711 -16711.82422 -3939.20361 1000
1890.04175 -5928.54248 -68.35270 379
1899.87122 -5961.07227 32.70204 486
1899.79980 -5959.03857 134.29654 414
1850.33276 -5927.29736 -67.95608 380
1860.36047 -5963.59619 31.79677 330
1858.98438 -5958.01904 133.42763 455
12680.87305 -42255.64844 5943.79785 1000
1811.44958 -5926.30859 -68.52908 380
1820.96985 -5962.84766 31.36559 487
1819.47009 -5956.46240 133.22400 456
1771.60742 -5925.01367 -68.99545 380
1780.95374 -5960.74805 31.61901 487
1781.16260 -5962.07471 132.82199 487
1731.96521 -5924.44727 -67.95145 380
1740.91333 -5960.23291 31.61918 488
1742.57581 -5961.00049 133.73541 488
1691.80530 -5923.75244 -67.98710 381
1730.04370 -6063.20508 30.95609 324
1731.25891 -6069.04492 133.59155 323
1730.50525 -6067.95215 237.17009 462
1653.80786 -5923.15771 -66.74616 381
1726.04053 -6195.79541 29.09964 323
1713.76892 -6152.76367 133.09421 311
1614.05652 -5922.41113 -66.61256 381
1658.01672 -6095.90234 237.08266 439
1575.62012 -5921.47412 -66.14025 309
1536.67908 -5921.33594 -66.19503 309
1498.43347 -5922.09912 -66.35134 315
1460.13367 -5923.36133 -67.03040 315
1422.10461 -5923.40723 -66.11673 315
1429.29797 -5956.63965 32.68802 491
1385.28528 -5923.15234 -65.29987 341
773.74500 -3240.33643 24.52418 314
798.94409 -3359.54639 76.64023 395
753.39667 -3241.31299 -30.04508 291
741.14380 -3183.42798 26.00223 333
776.10736 -3353.76733 76.38198 474
719.29144 -3175.54541 -26.30640 296
711.89911 -3139.31714 28.22382 329
754.93103 -3354.30835 76.21481 474
698.94397 -3176.15186 -26.60242 296
686.60132 -3112.47656 29.15643 378
733.84064 -3354.32080 77.06837 474
678.85974 -3176.53125 -26.23634 296
671.15576 -3131.52808 28.36228 397
712.46454 -3355.07422 76.58359 474
659.73340 -3177.53076 -26.46367 296
655.29529 -3154.97705 27.14966 401
691.06830 -3354.70801 76.49780 474
644.00372 -3203.91211 -26.88155 362
640.03687 -3180.88550 26.94950 390
670.73236 -3355.56689 76.85233 475
629.33264 -3238.07251 -29.21256 352
624.72021 -3209.61182 26.00416 391
649.64105 -3356.02222 76.56969 475
615.43933 -3277.31470 -30.82650 340
609.03510 -3239.18750 25.15278 386
628.34100 -3356.43726 76.91062 475
601.90045 -3323.27197 -33.37342 332
594.17242 -3273.52686 24.13620 370
607.60614 -3356.62183 76.73220 475
247.13226 -1055.28418 220.36459 316
240.28456 -1051.89050 -7.38873 386
240.45457 -1051.51038 10.34418 387
240.35709 -1051.19531 28.04110 444
240.20773 -1051.09375 45.46542 445
240.10902 -1050.92920 62.88910 445
240.12152 -1050.72620 80.35904 484
239.90976 -1050.92639 97.93635 484
240.13449 -1050.81799 115.19982 484
240.09419 -1050.90393 132.75125 484
239.98283 -1050.96204 150.11707 484
239.99904 -1050.88794 167.37433 499
239.98616 -1051.00488 184.99860 499
239.92183 -1051.20288 202.23352 499
239.84206 -1051.41870 219.89334 498
233.82631 -1050.35547 -7.19234 488
233.68021 -1050.74500 10.63039 489
233.82954 -1051.02466 28.14859 489
233.61476 -1051.25134 45.47814 456
233.82668 -1051.80664 62.89654 457
233.91258 -1052.05823 80.50763 457
233.93878 -1052.59839 97.95264 457
233.76237 -1053.24280 115.15797 403
234.02509 -1053.83923 132.53381 403
233.99699 -1054.64954 150.13188 403
234.18309 -1055.38220 167.54494 335
234.10381 -1056.79712 185.12323 334
560.90704 -3479.93433 17.11636 279
561.75964 -3646.39233 11.34435 261
2420.45312 -20737.80273 -897.11346 1000
-311.88971 -1520.14478 2.38848 483
-311.98822 -1520.28174 28.57501 483
-311.96121 -1520.36963 54.36747 483
-311.71222 -1520.18420 79.81554 483
-311.83505 -1519.90271 105.76833 484
-311.81824 -1519.95496 131.51059 484
-311.87210 -1520.10767 157.21240 484
-311.74908 -1519.92896 182.91525 483
-311.80734 -1519.98987 208.51450 483
-826.55847 -2003.91895 202.72911 377
-837.51373 -1996.45618 22.61130 493
-837.59320 -1996.84375 58.48993 464
-838.04333 -1997.57251 94.62766 414
-838.40381 -1998.70178 130.78188 348
-42567.77734 -47834.94922 81.85281 1000
-10212.41992 -11132.10840 1865.22510 1000
-24988.50195 -23965.15820 8793.64453 1000
-256.13000 -74.98797 35.22647 321
-254.11514 -72.35020 35.95479 321
-252.07812 -69.64204 36.53659 322
-272.27289 -73.72377 37.64954 318
-252.09915 -67.51000 36.63814 352
-270.02084 -70.92761 38.30132 319
-253.95801 -65.64972 36.29574 351
-268.38440 -68.33833 38.75932 345
-289.77020 -72.35606 40.12662 318
-255.76968 -63.69529 35.83987 351
-270.18710 -66.37780 38.38565 345
-287.91116 -69.56207 40.73089 318
-257.66016 -61.84863 35.46592 351
-272.13312 -64.41501 37.97771 347
-288.10800 -67.21407 40.68436 341
-259.50626 -59.96729 34.96300 350
-274.15903 -62.38826 37.57085 347
-290.01236 -65.10546 40.34966 341
-264.70761 -58.58806 33.67218 320
-278.90979 -60.82684 36.50976 323
-295.21481 -63.56059 39.15768 313
-289.24527 -60.13199 33.87180 263
84.91342 -0.38590 128.38638 314
84.97990 -0.30977 128.38586 314
85.04734 -0.23301 128.38715 314
85.11570 -0.15688 128.38744 314
85.18226 -0.08106 128.38550 314
85.25095 -0.00520 128.38606 314
85.32060 0.07151 128.38661 314
85.38833 0.14749 128.38673 314
85.45809 0.22301 128.38765 314
85.53008 0.29840 128.38739 314
