# .PCD v.7 - Point Cloud Data file format
VERSION .7
FIELDS x y z rgb
SIZE 4 4 4 4
TYPE F F F U
COUNT 1 1 1 1
WIDTH 715
HEIGHT 1
VIEWPOINT 4686.625000 -4107.679199 132.483322 0.022884 -0.135995 -0.000820 0.990445
POINTS 715
DATA ascii
-287.38916 60.42371 35.86314 264
-266.96689 59.38542 34.64496 326
-281.19125 61.69155 37.40117 324
-297.32272 64.38940 40.02802 314
-262.78494 60.95822 35.67945 351
-277.18521 63.37415 38.25621 347
-293.08505 66.13439 41.00917 341
-260.88541 62.85749 36.16436 351
-275.13852 65.36901 38.72951 347
-291.13055 68.21607 41.35734 341
-258.91971 64.69236 36.51401 351
-273.29865 67.32812 39.03009 346
-292.58209 70.86757 40.82710 319
-256.94293 66.55517 36.91207 352
-273.04092 69.55607 39.00454 322
-255.19963 68.39608 37.31731 350
-274.82266 72.23575 38.35625 319
-256.88461 70.96216 36.71945 322
-282.60522 76.16025 36.32282 260
-258.78589 73.64220 36.07393 321
-260.76810 76.26854 35.36166 321
-25658.24609 21059.63281 -1534.99951 1000
-23314.53516 39420.70312 10800.90625 1000
-680.67944 1974.97485 27.05624 467
-681.98737 1976.82520 61.38752 425
-667.66498 1976.41040 26.73032 496
-667.67169 1977.54883 61.80759 496
-669.36139 1981.43262 96.40752 496
-671.32123 1985.76929 130.89581 419
-659.60284 1992.20923 26.29628 354
-659.62714 1992.68201 61.30861 289
-182.08688 1454.08948 34.51841 474
-182.94801 1459.14929 58.43588 429
-184.38466 1465.90527 82.48499 367
-172.82910 1453.91650 34.38377 494
-173.52847 1457.84363 58.56215 494
-174.18533 1461.20959 82.82301 498
-174.79823 1464.93555 106.95636 496
-164.37811 1459.61548 34.30575 420
-165.49290 1464.16699 58.20286 420
-166.63751 1469.86096 82.37344 276
977.04047 18594.03906 3519.73242 1000
1495.23621 15413.91992 133.90721 465
1483.49707 15309.31055 384.81912 470
1587.14941 15371.16309 133.85182 456
1575.44995 15265.65820 385.03134 471
1573.29797 15257.29199 634.47888 464
1678.72021 15335.73242 134.57591 453
1664.96533 15226.99414 384.93451 474
1665.40027 15208.27637 635.21454 456
1766.91260 15295.34668 133.37689 453
1755.58264 15191.12207 384.32904 475
1858.22595 15260.18164 132.23390 454
1845.03809 15152.42480 383.99200 475
1949.14624 15221.57422 133.92287 454
1937.35278 15115.89648 382.48358 476
2041.53491 15184.34277 133.17200 455
2027.23633 15080.63965 379.84833 476
2254.12061 16883.85352 687.97339 462
2127.92700 15147.28613 134.03745 455
2117.64136 15045.07715 381.57654 476
2355.99219 16854.94336 691.96783 304
2218.99438 15109.54785 130.82669 455
2206.30176 15010.62988 379.98169 477
2309.98975 15074.28223 130.91386 456
2295.37427 14974.59473 378.70044 477
2397.46729 15033.46191 131.73676 456
2379.80884 14934.98047 381.06418 477
2485.51538 14999.43652 133.52834 475
2469.02832 14901.82324 380.91077 478
2574.04590 14964.19824 132.16978 475
2556.90991 14866.69043 381.32980 478
2661.50342 14929.10547 134.82098 475
2645.35669 14829.75195 379.86823 478
2750.93359 14892.60547 132.45947 476
2731.32080 14794.85254 380.34344 479
7508.11865 40207.60938 -10105.28320 1000
277.59579 942.44330 5.24559 425
278.36966 946.33551 20.73692 362
2838.06079 14856.63867 134.20584 476
2820.27490 14759.00977 376.28522 479
282.55045 936.52838 5.90403 471
282.84958 937.98602 21.63114 471
283.20966 940.14136 37.13314 426
283.65558 942.53479 52.74945 427
284.33334 946.89520 68.11558 354
2927.48706 14821.35059 132.39935 476
2909.24878 14724.51855 378.01212 479
287.88574 933.27277 6.23595 496
288.11374 934.58081 21.91588 496
288.28085 935.77209 37.38695 496
288.53754 937.22766 53.05902 471
288.75186 938.52979 68.61544 472
289.11960 940.30316 84.41689 472
289.52155 942.51837 99.85678 426
3014.37598 14782.51855 134.45882 477
2995.78955 14688.88965 377.81326 480
293.51154 931.85693 6.13569 496
293.88516 933.19946 21.86428 496
293.93295 934.28540 37.61993 496
294.32532 935.62390 53.19370 496
294.41843 936.76740 68.70401 499
294.65326 937.96863 84.36227 497
294.98849 939.20996 99.96297 497
3100.76343 14749.55273 133.44510 477
3081.69531 14653.49219 378.72559 480
299.54559 932.35724 5.99994 472
300.03003 933.94470 21.69996 472
300.22568 935.13287 37.41359 472
300.54663 936.64972 52.87915 427
301.03540 938.75690 68.49445 415
301.45279 941.26282 84.13514 364
3186.85571 14714.14355 133.79015 477
3167.19873 14618.13184 375.04886 480
306.24127 935.55280 5.31570 426
306.83194 937.64020 21.04934 363
307.50946 941.03125 36.55066 363
3272.71899 14675.62695 134.88142 477
3254.08496 14580.58691 377.88812 480
3360.58203 14640.41406 131.91502 478
3338.63501 14548.76660 378.48129 481
3445.77075 14604.99707 130.92720 478
3424.22070 14512.96191 377.15753 481
3532.49902 14570.07812 133.33038 478
3512.75879 14479.62207 377.20340 481
3619.71436 14535.06543 134.10861 478
3596.30957 14442.26758 374.56204 481
3032.47021 11789.91992 -2077.89380 1000
3705.99243 14500.10254 132.88237 479
3682.96680 14408.81836 374.41122 481
3790.95288 14466.05078 131.50624 479
3766.73657 14375.59082 376.55923 482
3877.35620 14431.08984 132.20860 479
3852.56079 14337.63281 375.21140 482
3962.78687 14398.15723 134.41002 479
3938.41162 14302.97363 374.64685 482
4045.99438 14360.84766 134.18535 479
4019.99023 14271.34863 374.94855 482
4132.55029 14325.43262 134.58884 479
4107.78955 14237.00977 374.76437 490
4219.47217 14290.90918 131.58089 480
4191.82764 14201.99609 373.58276 490
4301.21631 14257.78320 131.70000 480
4276.77588 14169.70996 372.47205 491
4386.76855 14225.15234 133.37221 480
4361.92285 14132.35156 372.10748 491
4470.16748 14187.85645 132.38766 481
4443.92480 14101.00879 373.13602 491
4554.91602 14154.05762 131.80077 482
4527.48682 14067.69824 373.35483 491
4639.65430 14118.52734 132.08121 482
4614.96045 14033.12598 373.20233 491
4830.04688 14705.01660 638.70282 492
4827.16260 14703.02148 891.04498 492
4726.16309 14087.28418 131.57462 482
4697.10791 13998.05566 374.26495 491
4912.02393 14653.00781 637.39813 492
4913.91943 14654.39551 889.93317 492
4811.60693 14051.32520 133.09361 482
4780.08008 13963.65625 375.10782 491
4995.54297 14602.36426 634.94946 493
4996.42920 14600.92383 889.52448 493
4894.38281 14015.54492 131.89909 482
4865.38525 13931.88477 371.84286 491
5077.26465 14549.81543 636.60583 493
5075.61621 14550.12793 888.19958 493
4977.18701 13982.15039 131.17946 482
4947.66357 13895.82910 373.37878 491
5159.91797 14499.73633 636.94537 493
5159.46631 14499.60059 888.09320 493
5064.75098 13948.48828 130.75847 482
5034.38867 13861.53125 374.39648 491
5243.65918 14451.20996 634.73444 494
5242.95508 14448.21191 887.26508 494
5145.90527 13912.98828 130.37067 482
5118.38135 13829.27539 372.55231 492
5325.28955 14400.58398 633.44739 494
5322.01514 14398.69824 884.08533 494
5230.62695 13879.62012 131.32919 482
5200.95898 13797.09863 372.67776 492
5403.30469 14348.15918 632.22955 494
5404.21436 14346.94043 882.99365 494
5316.79980 13846.07715 132.27681 482
5282.60156 13760.76758 374.48532 492
5485.26855 14299.54297 632.00323 495
5488.03662 14299.04297 882.34039 495
5398.83789 13812.50488 131.16525 482
5367.24609 13728.55664 372.11560 492
5376.65771 13746.44141 614.65363 430
5568.37500 14252.65430 881.56238 499
21974.37891 57052.27344 9199.03906 1000
5483.21191 13775.99316 133.16763 482
5452.55029 13695.23535 373.82300 492
5460.86572 13715.56348 613.74359 430
5654.77686 14215.64355 879.99506 499
14877.99902 37842.42188 6160.03662 1000
5567.98779 13742.71484 134.13971 482
5537.61133 13663.13965 374.52527 492
5544.35010 13679.07910 613.30688 430
5743.45264 14179.40625 880.97498 499
5650.19727 13707.59082 131.42226 482
5617.96289 13627.53906 371.96658 492
5627.75830 13645.17676 614.47644 430
5828.58789 14147.68164 882.94519 499
5737.38721 13673.04590 131.73489 482
5701.47656 13595.54590 374.37872 492
5708.10693 13609.26270 613.32343 430
5917.14746 14111.31543 880.89764 499
5820.64307 13639.38867 132.14569 482
5786.39014 13561.93652 374.24374 492
5795.49854 13575.45117 615.21600 430
6000.74219 14073.21387 881.13153 499
5904.10840 13606.06934 131.43929 482
5870.71826 13528.00000 372.37155 492
5878.05078 13540.57715 612.66040 430
6087.52588 14036.24219 883.03967 499
5987.20752 13570.04297 132.84087 482
5956.10205 13494.08887 373.59857 492
5961.42773 13507.32324 612.13934 430
6174.22021 14002.59277 882.97345 499
6071.36426 13536.66992 131.40666 482
6038.35352 13460.43359 373.16644 492
6044.38135 13474.30469 612.87866 431
6261.27002 13964.62988 882.31128 499
6156.50928 13500.21191 130.35320 482
6120.37256 13425.00586 374.63107 492
6125.94238 13438.88770 616.14807 431
6309.91797 13847.72168 879.12726 362
6240.34326 13467.98047 131.75903 482
6204.57080 13393.17871 371.29712 491
6213.15088 13405.30957 614.21973 438
6395.72803 13812.89551 876.48480 362
6453.63916 13933.29980 1135.52527 499
6326.60205 13434.92969 130.52582 482
6291.61279 13357.25684 374.28522 491
6295.05957 13373.55273 612.89868 438
6482.83398 13778.84180 877.06549 362
6540.06689 13897.15918 1136.33838 499
6614.93408 14057.29688 1402.63452 479
6410.84326 13397.62305 130.44215 482
6374.85107 13322.92773 371.85004 491
6381.82324 13340.74023 612.72479 438
6569.09424 13741.19824 879.93079 362
6626.16260 13860.27832 1137.25867 499
6682.64844 13985.94043 1400.68323 480
6491.57959 13364.45312 133.55577 482
6458.47412 13288.31055 373.12903 491
6465.89062 13306.15234 614.51288 387
6659.06299 13708.47266 876.92761 329
6713.48242 13823.78027 1134.09937 499
6807.71875 14025.19238 1407.52466 355
6578.44189 13328.41309 132.46019 482
6542.46387 13256.21582 371.28653 491
6551.68604 13275.16504 613.60468 387
6782.52539 13751.39746 881.37061 499
6784.31934 13754.22461 1133.84277 465
6664.16211 13295.78809 129.66814 482
6625.72363 13223.49609 374.72589 491
6635.59082 13245.41211 614.89844 387
6845.12988 13664.82617 881.48663 466
6842.81689 13663.42188 1130.23291 466
6890.65674 13761.61621 1390.98206 370
6745.54248 13260.30469 131.49590 482
6709.43457 13189.76758 371.74075 491
6720.66895 13211.73926 613.25208 387
6905.22998 13574.34668 879.30579 467
6901.33350 13574.57324 1128.69092 467
6947.82373 13666.62793 1383.62708 371
6832.27490 13225.68555 131.98207 482
6795.06104 13154.58398 373.38495 491
6923.04248 13412.40039 623.67151 499
6962.50977 13484.56934 875.40759 468
6963.71094 13485.35156 1122.65503 468
7008.08545 13575.76465 1381.96790 371
6917.92236 13193.28516 131.23209 481
6880.76758 13120.59277 373.04968 491
7009.28711 13374.68652 622.57294 499
7031.12598 13415.78613 873.15729 498
7030.77930 13415.73535 1123.07129 498
7070.14355 13488.07812 1377.49817 390
6998.70557 13156.52051 130.22868 481
6964.19580 13087.54980 372.34940 490
7097.09424 13339.07324 626.43457 498
7117.03760 13381.56348 873.89813 498
7119.19775 13379.52441 1120.60156 498
7153.50928 13454.30176 1375.80750 390
7276.59766 13685.01562 1652.74915 485
7494.80371 14104.00684 1963.12146 290
7086.50488 13121.84277 132.24777 481
7047.11230 13050.65332 371.68600 490
7180.46240 13305.30078 622.76721 498
7190.28125 13318.50391 871.39325 498
7186.99316 13315.61328 1121.33875 498
7245.48438 13421.91211 1379.05444 390
7367.97119 13651.75488 1653.54309 485
7168.65771 13087.05762 130.93471 481
7130.66211 13017.35938 375.48059 490
7268.56104 13269.04102 626.38037 498
7273.93262 13285.12500 874.92743 498
7274.60303 13280.44629 1122.09924 498
7329.09863 13386.22168 1376.92981 390
7456.25488 13614.56934 1656.16724 484
7253.86621 13056.10059 132.95259 481
7218.67383 12983.57910 374.08527 490
7351.73291 13232.29785 624.25879 498
7363.26465 13247.65430 871.31671 498
7361.99414 13244.75586 1119.13733 498
7420.96924 13355.10645 1378.88818 390
7519.76758 13537.60059 1653.18433 454
7339.22559 13021.69336 129.97447 481
7303.41309 12950.57617 375.66876 490
7440.87012 13199.70703 624.75970 498
7449.50342 13211.24707 875.90942 498
7447.40820 13212.14746 1120.50562 497
7507.66357 13320.05469 1380.06091 390
7630.32275 13542.87012 1658.06836 484
7426.53711 12986.30957 129.70511 481
7386.16699 12914.18359 375.66055 490
3916.30420 6947.74219 261.17371 498
7536.05518 13178.20605 875.59711 497
7533.50439 13175.13086 1123.68823 497
7595.45264 13287.98145 1380.58447 390
7720.26855 13506.23926 1656.25769 484
7510.34570 12949.19531 131.14909 480
7473.44482 12880.47461 373.93768 493
7612.36377 13128.20605 626.38818 497
7620.09473 13140.32227 875.33044 497
7618.20654 13140.76562 1125.17419 497
7686.34619 13250.08789 1381.97827 389
7811.01367 13472.87988 1660.03674 484
7595.33447 12915.75879 132.16269 480
7559.06787 12847.55762 374.99664 492
7696.90381 13092.16895 627.44885 497
7706.60010 13107.18945 876.67926 497
7708.34766 13106.42871 1124.95581 497
7774.70752 13218.93652 1383.56519 389
7679.01807 12875.25977 143.25188 480
7638.72949 12808.28418 386.91437 492
7780.57617 13049.29199 639.20288 497
7792.17529 13067.79297 891.19666 497
7788.13379 13063.69434 1137.16687 497
7858.67041 13180.11230 1399.72400 389
7767.16699 12840.51074 145.24098 480
7725.91016 12776.26562 387.28079 492
7867.12207 13015.13477 640.38934 497
7894.58643 13057.20703 892.52295 497
7889.45361 13055.75000 1142.49927 496
7946.77393 13145.91406 1398.59204 389
7853.76367 12806.61719 142.74292 480
7813.26416 12739.53418 387.30658 492
7956.15039 12979.26270 640.31476 497
7980.66113 13021.49902 892.75946 496
7980.70410 13020.68066 1143.03406 496
8034.44189 13113.83398 1401.89050 389
7939.36182 12770.71289 143.62247 479
7897.02344 12706.28711 387.97217 492
8042.98633 12944.41797 640.73413 496
7999.46582 12871.54688 884.59442 424
7972.89697 12830.78711 1133.06787 387
8125.52832 13081.15332 1404.54639 389
8023.71777 12735.92969 143.03569 479
7982.38330 12672.91016 390.52194 491
8127.43164 12906.61523 640.64807 496
8154.60303 12948.05371 893.15924 496
8151.84961 12949.01758 1144.92395 496
8216.37207 13044.06641 1404.86682 388
8111.76318 12700.65918 144.95619 479
8071.74170 12636.14648 389.12817 491
8218.39551 12871.08301 642.39728 496
8242.83594 12913.29395 894.70081 496
8242.18750 12908.50684 1144.59534 495
8304.19531 13010.71289 1407.30017 380
8198.86328 12664.77441 143.31207 479
8158.34766 12601.16211 391.13123 491
8305.52051 12834.73828 644.64490 496
8331.36816 12875.14746 894.79675 495
8331.09473 12872.45410 1144.51208 495
8400.29297 12987.60254 1409.43420 345
8286.19727 12630.55664 144.72466 478
8241.23633 12566.75195 389.85941 490
8393.71973 12798.15039 645.23218 495
8439.95117 12874.39648 900.53320 433
8439.00391 12872.15137 1148.69702 433
8541.82031 13026.28027 1417.55701 345
8372.21094 12595.06348 144.07684 478
8331.31055 12531.41504 389.97540 490
8478.61621 12759.10840 643.41339 495
8568.27246 12894.09375 905.04321 432
8566.39258 12894.26660 1154.44043 432
8684.41895 13077.26953 1426.75281 434
8458.61816 12558.53125 146.59795 478
8418.92676 12495.21094 390.01785 490
8568.18066 12723.64258 644.73175 495
8685.58398 12900.73242 909.16400 459
8694.25391 12916.86816 1160.98865 431
8547.30762 12524.92578 145.64143 477
8505.79492 12463.74414 390.37839 490
8675.64648 12714.49219 647.67322 400
8797.32422 12896.26074 909.60126 458
8825.57715 12938.40430 1169.21704 430
8632.97852 12488.29785 144.37563 477
8591.24707 12425.96582 392.67520 489
8877.65820 12842.85938 654.64899 458
8908.89355 12888.75684 913.93329 457
8722.52734 12452.63477 147.32939 477
8680.86035 12392.88867 390.14053 489
8986.13574 12834.22168 655.69495 457
8812.17480 12415.20312 145.61665 477
8767.79004 12355.57520 393.10617 489
9098.80762 12827.98730 661.37262 457
8897.20996 12377.60547 144.69556 476
8857.28906 12320.51562 391.11673 488
9193.90039 12800.52344 661.63715 440
8986.95801 12341.10547 145.72417 476
8945.92871 12284.37500 395.72778 488
9076.20801 12308.08105 147.59538 476
9034.26465 12248.41211 394.80759 487
9165.73242 12269.14844 145.25101 475
9123.06055 12213.69531 395.67166 487
9253.65332 12235.61523 146.87979 475
9213.77539 12178.37695 395.73764 487
9346.54883 12199.26172 145.14116 475
9301.56934 12140.11230 395.51392 489
9433.29199 12162.21094 145.47862 474
9392.96680 12104.08691 397.30209 488
9525.37207 12122.56836 146.63254 474
9480.39648 12069.99219 397.57526 488
9616.21875 12085.18750 148.21988 473
9571.50879 12032.34180 396.18381 487
9708.90332 12050.39453 146.18915 473
9662.22949 11996.59863 399.72543 487
9800.61621 12013.54590 146.86230 473
9754.80469 11959.20410 400.14590 487
9890.54102 11976.16699 148.15135 472
9849.37207 11923.81152 398.99310 486
9982.76367 11935.72070 146.15077 479
9941.38965 11884.43359 398.82205 486
10075.26855 11901.77539 145.24997 479
10032.67480 11847.24707 399.08905 485
10167.86523 11860.69922 147.65433 478
10126.40820 11810.35449 398.70834 485
20240.50391 23429.19922 -1354.93164 1000
10262.07129 11826.65039 148.38358 478
10217.27832 11775.44824 400.44000 484
10357.75879 11786.08887 149.42258 477
10312.49121 11735.67090 400.30267 484
10448.95898 11750.20508 145.86282 477
10406.48438 11699.10938 401.32855 483
10545.62793 11711.77637 146.69511 476
10502.03027 11663.00098 403.32272 483
10641.30566 11671.47461 149.34186 476
10593.87891 11623.19922 405.50876 482
10736.78320 11635.05469 145.88699 475
10692.57422 11585.11230 405.48819 482
10833.51074 11596.25488 146.38716 475
10785.47656 11546.16699 403.71530 481
10928.28320 11555.79492 148.46872 474
10882.29590 11507.29590 407.56052 481
11024.65234 11516.97949 150.45110 474
10978.35059 11468.68164 405.05777 480
11123.82324 11476.77246 146.96402 473
11075.61426 11431.13379 409.84839 479
11219.16992 11437.67773 148.14699 473
11175.86621 11392.31348 409.94458 479
11317.83105 11398.07520 150.21860 472
11269.72656 11352.18164 408.95569 478
11418.24414 11358.81641 150.54344 472
11370.20898 11311.79395 412.17798 478
11516.00684 11319.15625 150.26784 471
11470.12109 11275.48438 408.85522 477
42643.24219 41633.49219 -14711.75488 1000
11617.45605 11278.61914 148.83936 470
11569.66797 11231.35352 410.95682 476
11720.36035 11243.43164 148.01274 446
11667.56055 11193.82812 410.28970 476
11834.28223 11212.00195 149.79984 445
11770.55762 11156.87891 413.90210 471
11949.57520 11184.41016 150.11702 446
11880.32129 11117.59375 414.64685 470
12061.72168 11157.43066 149.29845 445
11983.01758 11082.06738 414.82022 470
12178.56738 11128.33691 148.41660 444
12092.10938 11048.01074 416.87299 450
12295.35352 11097.89453 151.72910 443
12211.58789 11017.64062 418.47516 449
12413.97656 11067.65723 150.62634 443
12325.87012 10988.24707 420.92889 448
12540.16602 11041.48242 150.56734 396
12446.34082 10959.58301 419.46732 446
12689.85547 11039.17676 151.86061 395
12573.89746 10935.46387 420.39835 445
12842.38574 11031.85059 150.39738 395
12700.24805 10910.26660 425.31012 444
13003.49023 11036.16602 148.15393 372
12832.00293 10887.07031 425.26724 443
13177.07227 11046.83203 150.17311 344
12962.10059 10863.12598 423.95087 442
13385.78516 11079.89746 152.48320 343
13101.10352 10847.81250 425.59628 385
13258.13965 10841.90332 432.01462 384
13444.13867 10858.91797 431.14185 378
13641.08398 10876.25098 434.38745 376
13844.30469 10903.68945 438.79364 343
1450.80066 827.29755 237.78682 1000
59789.71484 26583.92383 -8396.03711 1000
3182.51636 739.39258 -20.95129 489
3189.75537 741.85706 31.37255 497
3195.43530 722.54492 -20.73307 388
55710.30859 12958.67285 8664.74219 1000
21717.18945 174.07014 3722.57593 1000
4387.42969 -628.76801 -6.95977 415
4366.09033 -652.36658 -6.03933 466
4347.24561 -675.73639 -5.66401 466
4333.57080 -699.87720 -5.13238 484
4320.16260 -724.70551 -5.39752 483
4310.38379 -749.30701 -4.43350 491
4300.32178 -775.06982 -4.33225 491
4291.23633 -799.24939 -5.12763 491
4284.97998 -824.89435 -5.07591 461
4278.18750 -850.70270 -4.23491 461
4271.52832 -875.68170 -4.86598 460
4266.49902 -901.60748 -5.24728 461
4261.63672 -927.53058 -4.28086 461
4257.76660 -953.03583 -4.38513 460
4253.16504 -978.92639 -4.90633 460
4250.42822 -1005.33044 -4.43225 459
4386.73145 -1039.02820 63.29293 397
4370.42236 -1034.64648 135.30092 494
4247.05420 -1032.10645 -5.03931 381
49110.52344 -12176.63184 -659.72150 1000
4367.11914 -1062.31287 135.04584 402
4244.11768 -1058.05591 -5.15756 381
4407.47510 -1100.35571 208.20200 497
4240.68311 -1084.03394 -5.54901 381
4237.53027 -1110.28052 -5.44279 381
4233.74414 -1137.65649 -5.86442 381
4231.12549 -1163.31189 -5.82507 381
4227.53516 -1190.59778 -5.49253 380
4428.78125 -1247.99402 61.54026 321
4401.83887 -1240.76099 134.97243 288
4223.70703 -1216.50183 -6.29629 380
4310.15283 -1241.83167 134.84087 489
4221.29004 -1242.90076 -6.03256 380
4217.97266 -1269.69128 -6.58320 380
4214.39014 -1296.88708 -6.06217 380
4210.95557 -1323.55676 -7.30790 380
4207.23828 -1350.40442 -6.86973 380
4203.56641 -1376.64734 -7.54565 379
4200.50293 -1404.22620 -7.70754 379
4196.48633 -1430.58240 -7.72961 379
4200.47168 -1460.27783 -8.01577 359
3175.62402 -2079.87964 -48.88284 465
3185.83447 -2086.30762 11.27502 358
3167.61938 -2102.38037 -49.76699 375
17260.18359 -18406.92578 2200.00586 1000
3975.95825 -4959.32373 -73.62170 293
3933.97217 -4967.95361 -72.56337 442
3913.96680 -5006.40186 -73.17490 433
3895.03564 -5043.50049 -73.59518 433
3875.82056 -5083.78662 -75.52346 417
3859.94873 -5127.57715 -76.01158 410
3845.78320 -5174.02783 -77.47860 408
3837.48340 -5230.10742 -78.32851 379
3835.54102 -5294.08447 -80.02669 376
2877.53223 -3992.46167 -27.11819 422
3828.87451 -5426.29443 -83.44696 394
3824.53198 -5492.03564 -84.80399 393
3822.43555 -5561.72363 -87.02247 386
3821.99805 -5634.09082 -88.61968 387
2455.15771 -5079.08057 -49.19061 471
2461.22852 -5091.67334 43.55464 329
16351.18848 -39066.03906 -8271.27832 1000
2290.51733 -6028.79199 28.84038 394
2246.51050 -6018.82080 29.22042 374
2203.05420 -6012.64111 30.73843 335
2167.36206 -6031.21729 30.08160 262
2176.13843 -6178.88184 27.60471 499
2030.19080 -5986.75732 31.46606 453
2026.14111 -5976.85693 134.11667 484
12709.91992 -39610.93359 -3953.85620 1000
1985.86572 -5973.66016 30.91500 485
1986.17505 -5976.05176 133.26634 484
1944.55066 -5972.90771 31.77048 485
1945.41541 -5973.85986 133.84077 485
1902.30640 -5963.83154 31.36184 486
1902.41394 -5966.82520 134.18263 485
1861.97986 -5963.71533 32.28089 486
1862.32800 -5965.18457 134.23499 473
1823.27979 -5967.11963 31.20759 487
1824.21960 -5970.17480 134.23041 486
1783.54236 -5965.99512 32.15260 487
1783.67896 -5968.04541 134.01556 487
1743.67297 -5964.38428 32.83376 487
1743.17285 -5966.07080 133.03416 487
1704.17346 -5962.69482 32.98284 488
1703.25195 -5964.26855 133.40192 488
1707.23804 -5980.03662 235.84894 471
1691.87622 -6069.03418 30.48662 323
1693.85779 -6072.90283 133.87560 323
1692.63416 -6068.49316 236.49403 477
1688.28003 -6203.47607 29.20962 322
1689.29285 -6208.64355 133.28185 322
1620.90491 -6102.15283 236.17424 488
1455.83777 -6066.04688 30.61980 491
1447.15918 -6210.74121 28.71749 463
1354.21204 -5961.07520 33.13657 296
762.53217 -3286.73853 23.19618 287
780.27393 -3370.57886 76.18433 384
727.58252 -3213.70874 26.06874 323
755.42371 -3352.35620 76.69823 474
708.66089 -3223.36450 -28.25453 300
696.72162 -3160.14038 27.81988 324
733.94427 -3352.89185 76.52476 474
683.57703 -3200.33008 -27.44758 296
669.35638 -3120.19116 28.87164 343
712.72156 -3353.40234 77.35030 474
664.04889 -3199.96411 -26.79232 296
647.47510 -3111.94287 29.11651 398
691.81262 -3353.28833 77.31598 474
643.33887 -3200.01440 -26.48116 296
632.47235 -3135.87622 28.52917 398
670.03485 -3353.70288 76.77058 474
623.45581 -3199.70923 -26.95911 296
617.12830 -3161.14722 27.40394 388
648.89789 -3354.59180 76.85799 475
607.24207 -3222.55176 -27.51663 360
601.74738 -3189.56543 26.79539 385
627.87170 -3354.52173 76.78229 475
592.75623 -3259.62573 -29.06615 337
585.82910 -3219.03955 25.99658 390
607.64276 -3355.00781 77.06418 475
578.89514 -3304.97803 -31.41961 331
570.77960 -3250.44385 25.30912 381
586.36102 -3355.42334 77.03266 476
555.65155 -3288.10938 23.49045 357
565.00464 -3356.25342 77.30464 476
541.90442 -3334.07129 22.59309 351
546.42853 -3371.27661 76.66386 446
528.60767 -3397.11841 20.31400 310
535.00647 -3441.71484 76.21896 280
214.66937 -1054.38501 45.61322 322
214.64008 -1053.23706 63.12577 322
214.47014 -1052.58167 80.54714 393
214.45010 -1052.36353 97.88986 393
214.38087 -1051.72021 115.39966 393
214.32063 -1051.54224 132.81024 449
214.30304 -1051.33203 150.12483 449
214.15691 -1051.29614 167.44148 449
214.07600 -1051.19055 184.73969 449
214.19879 -1050.96448 202.14200 485
214.05432 -1051.06409 219.39030 485
207.87177 -1049.66919 -6.45677 498
207.74953 -1049.84277 10.91791 498
207.71956 -1050.12402 28.32819 498
207.70964 -1050.06543 45.76333 499
207.75150 -1050.18445 63.26567 499
207.67642 -1050.48096 80.66415 488
207.67978 -1050.58569 98.02785 488
207.74890 -1050.94055 115.37527 488
207.67450 -1050.95361 132.64069 488
207.94073 -1051.17139 149.93025 488
207.88226 -1051.48169 167.25790 453
207.82523 -1051.78845 184.70161 453
207.75960 -1052.14673 202.01724 453
208.02460 -1052.55200 219.55856 452
201.90729 -1054.36633 -7.13839 328
202.02042 -1055.59143 10.30763 328
-914.62903 -5431.05420 -967.69318 1000
-341.15607 -1518.81409 2.35555 481
-341.08148 -1518.72656 28.28702 481
-340.98932 -1518.45520 54.40664 482
-341.17896 -1518.70715 80.38474 482
-341.15863 -1518.52991 105.95304 482
-341.20999 -1518.11047 131.96507 482
-340.95645 -1517.95447 157.53218 482
-341.10080 -1517.94446 183.44226 482
-340.97684 -1518.00793 209.25899 499
-10529.09863 -31681.93164 -1521.41528 1000
-866.41577 -1995.49365 22.68838 492
-866.49109 -1995.96667 59.21225 463
-867.00842 -1996.34229 95.00930 463
-866.88721 -1996.35706 131.21941 412
-867.75732 -1997.65710 167.53325 345
-6428.59619 -13419.14844 -2841.38501 1000
-13863.45215 -16238.50488 1526.38110 1000
-5200.18018 -4995.56201 -467.48373 1000
-256.57910 -74.97767 35.27292 321
-254.50288 -72.33884 35.99433 321
-252.47044 -69.66920 36.58049 322
-272.72171 -73.74181 37.61382 318
-252.50548 -67.46536 36.69503 352
-270.45258 -70.97891 38.29051 319
-254.27724 -65.65778 36.33879 351
-268.84134 -68.31031 38.79535 345
-290.27725 -72.35741 40.14547 318
-256.15353 -63.79413 35.91835 351
-270.51578 -66.41764 38.47849 345
-288.32275 -69.57795 40.76311 318
-258.08163 -61.87632 35.42720 351
-272.51843 -64.43282 38.03362 347
-288.58844 -67.17504 40.70564 341
-259.89337 -59.99881 35.00345 350
-274.53503 -62.39518 37.66644 347
-290.45068 -65.17646 40.43531 341
-265.17941 -58.60700 33.68550 320
-279.37064 -60.90115 36.45144 323
-295.70996 -63.53279 39.23056 313
-43291.92578 -5173.77246 10316.44922 1000
-195.41599 -11.07461 53.31011 324
-195.45357 -9.27579 53.27071 324
-195.44685 -7.50300 53.25175 324
-195.39938 -5.67390 53.29439 324
-195.35707 -3.90550 53.25422 324
84.89738 0.23812 128.38770 314
84.96265 0.31561 128.38655 314
