# .PCD v.7 - Point Cloud Data file format
VERSION .7
FIELDS x y z rgb
SIZE 4 4 4 4
TYPE F F F U
COUNT 1 1 1 1
WIDTH 904
HEIGHT 1
VIEWPOINT 4848.275391 -4114.671875 131.025558 0.023476 -0.147057 0.002723 0.988846
POINTS 904
DATA ascii
84.96988 0.46880 128.38666 314
84.93687 0.54548 128.38585 314
-196.85304 5.13889 53.34628 324
-196.85411 7.01881 53.35107 324
-196.81029 8.76760 53.35747 324
-196.82788 10.61512 53.36641 324
-196.76958 12.38850 53.31297 324
-27274.59180 14555.37988 7396.32275 1000
-54266.49609 35201.18750 10891.66895 1000
-16260.44727 14396.82617 -563.21741 1000
-27810.17188 33023.39453 8761.05566 1000
-27201.58789 55623.45703 7283.67871 1000
-819.91559 1981.67627 61.24290 492
-824.19403 1990.35229 97.07981 487
-808.89349 1989.31775 61.55188 438
-810.21039 1991.85803 97.11017 446
-333.21069 1453.77588 32.96776 459
-334.51962 1458.30859 57.81676 407
-323.43762 1454.73743 33.20396 499
-324.56320 1457.42712 57.77198 499
-325.21310 1460.22632 82.80429 495
-325.97229 1463.44006 107.40965 455
-315.67001 1461.06250 33.11678 442
-316.49255 1463.72766 57.95775 442
-317.55295 1467.02368 82.53937 385
-2499.04883 45106.07812 3839.44238 1000
129.12271 945.79004 7.64336 329
134.67070 938.95746 8.52101 453
134.82872 941.49231 23.69090 452
135.02109 946.41321 38.90318 379
140.27934 936.18433 8.78950 488
140.32196 938.06805 24.21461 488
140.47366 940.24927 39.47691 465
140.67337 943.82056 54.60072 435
140.79175 945.46362 70.02014 398
145.85670 935.70728 8.90373 499
146.07898 937.18817 24.26209 499
145.99644 939.09552 39.50027 499
146.28818 940.19989 54.97266 499
146.16481 941.58734 70.23795 499
146.64630 946.51758 85.68044 416
151.84587 937.37042 8.43941 450
151.89076 938.94684 24.04428 450
151.92879 940.40686 39.26315 483
152.14134 941.81140 54.80375 452
152.19839 943.09320 70.23322 450
157.84784 942.96777 7.65977 394
158.09978 945.90094 23.12899 325
1379.30164 15371.89746 132.01010 465
1373.17078 15270.24121 382.71487 481
1472.97961 15324.45215 131.87756 469
1463.69714 15230.76855 384.41199 484
1562.33752 15288.00293 130.38330 473
1551.46912 15190.75586 381.31799 485
1652.71973 15246.57812 130.36934 474
1642.91968 15155.96973 381.04605 486
1745.64648 15210.23926 131.41733 474
1732.12317 15117.18750 379.07452 486
1833.32935 15174.09473 132.07977 475
1823.01648 15083.46094 379.57089 486
1922.95410 15135.08105 130.26694 475
1911.75134 15044.51172 380.37515 487
2014.66797 15096.84375 133.07704 475
2002.77319 15009.91895 378.30814 487
2102.09033 15061.93164 133.75626 476
2091.44849 14972.72559 380.24448 488
2193.09033 15023.07031 132.88034 476
2177.87061 14938.83789 378.26324 488
2279.41992 14987.85938 133.74042 476
2267.97339 14902.83984 380.00653 488
2369.97070 14948.41113 133.89236 477
2353.62866 14867.40723 376.97443 489
2457.04541 14915.38477 132.96417 477
2443.28223 14829.96680 377.62915 489
2544.83740 14876.85645 130.60953 477
2530.09106 14796.39941 378.79565 489
2632.85571 14838.55371 129.89267 478
2616.63135 14757.73438 378.67764 490
2719.70801 14802.68359 131.32428 478
2704.93945 14723.12012 377.47183 490
2806.21680 14765.45117 132.96506 478
2792.45044 14685.97070 374.85669 490
2893.34302 14729.26074 133.12689 479
2879.24854 14652.62695 374.02158 491
2978.56689 14696.76270 130.65703 479
2964.84033 14616.32812 375.17780 491
3066.90503 14660.95703 130.17531 479
3052.79321 14581.13574 373.83200 491
3154.05566 14622.81250 133.50543 480
3136.26172 14547.04688 377.01132 491
3238.81763 14588.37402 132.84561 480
3223.41357 14513.40527 374.64038 492
3326.38525 14552.44824 133.50449 480
3309.24512 14478.65723 374.98975 492
3412.02637 14515.92773 133.55115 480
3392.60718 14441.25488 372.89023 492
3497.02466 14481.05176 129.82762 481
3476.66699 14409.42578 371.96051 493
3579.58057 14442.38867 130.32219 481
3565.25293 14373.84668 372.54807 493
3665.48535 14407.04980 133.39290 481
3648.96729 14338.20605 374.22913 493
3749.16528 14372.95312 132.18512 481
3733.36157 14302.54590 374.17410 493
3837.39917 14337.41406 133.33122 481
3817.97681 14269.67285 371.78708 494
3918.96582 14304.26465 133.58633 482
3902.28491 14234.83008 373.66919 494
4004.01050 14267.97656 130.90999 482
3987.20068 14201.70605 373.41946 494
4090.45239 14233.98633 133.22942 482
4072.34644 14168.24609 372.12402 494
4199.55664 14292.32129 -110.20626 460
4172.53174 14197.50098 132.81175 482
4156.51465 14132.43848 370.31393 494
4285.90479 14257.38867 -109.43745 460
4256.87598 14160.98633 132.25871 482
4240.27051 14099.60840 372.31351 494
4367.67236 14222.22168 -110.80017 461
4343.32568 14128.59375 133.54802 482
4321.94580 14062.54004 373.54846 495
4451.82861 14183.93848 -110.74747 461
4425.53174 14093.68262 132.27942 483
4406.65918 14028.35547 370.13907 495
4536.23584 14148.18359 -111.37680 461
4509.54492 14058.22168 133.72672 483
4491.05371 13997.89160 372.00903 495
4714.54932 14712.70703 636.17120 491
4619.78516 14112.83203 -110.94269 461
4592.56152 14021.23828 133.60287 483
4573.05371 13962.52734 371.28745 495
4798.69238 14660.05859 637.16986 492
4706.46436 14077.51758 -109.58797 461
4677.10107 13987.85059 132.11932 483
4658.72705 13927.67871 373.02298 495
4881.40869 14607.89160 634.10822 492
4787.88525 14041.29004 -112.24512 480
4760.34131 13953.71875 131.52164 483
4742.86475 13894.99414 373.32864 498
4962.25000 14555.56348 635.70520 492
4874.60938 14003.04004 -111.42379 480
4845.05273 13916.60156 130.79526 483
4824.43457 13859.77148 372.82037 498
5046.47363 14505.80176 634.19806 493
4957.68652 13969.38379 -108.43790 480
4925.41211 13882.25293 131.05623 483
4908.57373 13824.91309 372.95486 498
5125.35693 14454.69238 630.76239 493
5041.81201 13934.95996 -110.15890 480
5011.50879 13846.36816 131.10007 483
4990.63525 13793.19531 370.73187 498
5206.22656 14405.09375 631.21136 493
5125.37988 13898.67969 -108.71712 481
5094.63379 13815.00488 133.31757 483
5072.21289 13757.50977 369.25977 498
5290.98633 14353.44238 632.28156 494
5208.23633 13862.56836 -111.41298 481
5176.25293 13779.47070 131.86511 484
5156.25293 13724.13867 369.18515 498
5371.67285 14300.19043 632.29047 494
5290.51709 13828.75879 -110.17057 481
5261.99268 13745.55078 131.61877 484
5240.42285 13691.78906 369.36737 498
5451.99414 14252.30176 629.43896 499
5375.55371 13796.11719 -111.42380 481
5344.50586 13709.76367 131.21841 484
5323.51465 13656.74414 373.12836 499
5537.87305 14215.59473 629.92297 499
10558.66406 26824.52734 -7081.54883 1000
5461.30518 13760.23047 -109.64986 481
5425.60840 13673.90820 131.00403 484
5407.67090 13624.94336 371.62509 499
5623.21875 14182.93066 630.03986 499
5544.84912 13722.67090 -109.04201 481
5509.79834 13641.49121 130.55200 484
5492.28564 13592.23145 369.00189 499
5712.31250 14145.57715 630.08618 499
5627.22217 13690.88965 -108.30139 481
5592.06299 13604.47852 130.66599 484
5573.61035 13559.19629 369.56326 499
5797.43945 14110.27734 630.83124 499
5712.22559 13655.01953 -109.23981 481
5676.94092 13569.17676 132.54878 484
5655.53809 13522.46387 370.48398 499
5881.86621 14075.28320 631.58081 499
5794.83301 13617.95215 -110.43556 481
5759.15918 13535.70703 133.32947 492
5737.85303 13490.85938 369.58267 499
5969.15527 14036.70801 631.55731 499
5876.87207 13583.40234 -111.40668 481
5840.62354 13503.08887 132.06958 492
5824.69141 13455.79492 370.63589 464
6053.47021 14001.93652 628.97589 499
5960.71924 13550.32324 -109.56411 481
5927.36230 13467.49609 131.08162 492
5908.59912 13425.42773 369.24661 464
6140.26904 13964.69727 630.17969 499
6044.66406 13515.35254 -108.03303 481
6008.37842 13431.38086 133.42960 491
5992.65918 13393.14844 370.54419 464
6187.87109 13841.58887 627.42871 418
6126.87256 13480.35840 -111.83015 481
6092.64941 13397.50391 133.17767 491
6074.51416 13360.56445 372.91498 424
6274.54785 13802.83887 625.00201 405
6331.38965 13934.76367 880.80682 499
6212.55176 13443.41016 -109.12057 481
6173.92920 13365.63574 131.22229 491
6158.40283 13330.63672 373.05081 424
6359.12988 13765.24023 625.90472 405
6420.79932 13898.46973 881.27032 499
6519.84961 14116.87402 1148.60706 299
6297.89600 13410.35645 -109.09688 481
6260.32520 13328.96387 130.22581 491
6242.67871 13297.15820 370.87436 424
6443.59375 13729.09766 627.73700 405
6504.14307 13861.78613 883.87927 499
6567.95361 13999.47559 1144.86096 479
6380.14307 13373.73340 -109.03323 481
6344.01709 13296.13672 132.48657 491
6326.07275 13264.95703 373.25320 424
6529.08154 13689.85645 629.06256 405
6592.21826 13825.36426 884.11194 499
6657.77930 13963.20312 1143.93323 479
6465.43457 13340.13477 -109.69254 480
6427.32715 13260.02637 131.86954 491
6413.24268 13234.07129 373.48407 301
6659.21436 13750.50684 630.35864 499
6671.28955 13769.99023 883.72699 464
6673.08105 13779.63379 1132.83777 369
6548.72314 13304.25586 -111.25790 480
6511.44238 13226.42871 132.08788 491
6500.93799 13210.21484 371.30786 301
6728.92285 13675.00000 630.98773 465
6729.52930 13680.36426 878.44647 465
6732.90723 13688.67188 1128.39380 370
6630.37646 13269.49902 -109.47797 480
6591.26367 13192.90527 131.65120 491
6591.86328 13188.39258 373.37036 301
6787.41504 13587.62305 628.94580 466
6788.88086 13594.03320 874.55548 466
6794.64307 13598.14355 1125.68665 465
6716.42725 13235.18457 -110.13179 480
6677.12061 13160.16406 132.87010 491
6680.57715 13165.37891 372.59192 295
6848.26367 13498.46191 627.89221 467
6851.38721 13503.02051 873.31580 466
6852.33594 13510.04395 1123.04773 466
6800.94531 13201.12598 -108.56377 480
6759.00000 13124.50977 131.08766 491
6884.36914 13369.64844 375.88126 499
6907.39795 13413.46094 625.46185 499
6908.24951 13416.58496 869.82513 498
6912.94482 13422.52344 1118.29175 467
7282.48242 14145.86328 1434.37878 323
6884.96094 13165.94824 -112.50967 480
6843.98486 13090.62207 130.61533 491
6971.89502 13335.33496 375.67065 499
6994.92920 13379.61816 622.70837 498
6996.75684 13380.18457 871.57941 498
6996.03564 13384.55664 1118.28247 498
7148.96777 13677.52832 1392.33875 479
7094.17041 13575.23340 2396.14355 297
6967.65430 13127.79395 -109.45222 480
6930.72949 13056.98145 133.50883 491
7053.90283 13299.75684 378.57297 498
7063.30273 13317.18457 625.33282 498
7066.82617 13316.62207 871.59424 498
7083.88232 13346.16016 1120.67700 390
7173.77490 13522.18945 1385.21265 495
7183.54004 13543.88379 1637.12537 309
7050.85791 13096.42188 -111.77709 480
7011.74072 13022.55176 132.14778 490
7140.45703 13264.82715 378.78333 498
7150.40674 13282.65723 623.19769 498
7151.35693 13280.29004 871.75262 498
7167.78076 13318.19727 1119.27844 390
7324.78662 13605.14746 1395.97729 479
7135.21680 13059.37695 -108.88403 480
7095.09912 12986.88379 132.77821 490
7225.46680 13228.90430 377.41040 498
7236.27295 13245.86426 624.03052 498
7236.41699 13248.45020 873.36011 498
7256.80273 13283.12500 1121.56799 390
7380.59033 13516.25977 1390.53760 469
7222.63770 13022.46777 -109.82033 479
7182.76416 12952.74414 133.91618 490
7312.37354 13192.58008 376.29007 498
7324.05713 13210.35742 626.09143 498
7323.85596 13210.35156 871.54248 498
7346.19873 13251.00781 1121.97278 390
7477.83936 13497.03809 1394.90503 469
7305.98975 12989.32617 -109.20295 479
7266.52246 12918.29785 130.72284 490
7396.37256 13156.84766 378.20752 498
7407.70557 13174.87988 625.92987 498
7407.94092 13176.74316 871.70349 497
7433.91553 13217.66895 1124.17004 390
7585.69580 13497.90430 1400.31812 469
7391.67334 12953.26953 -111.34463 479
7351.83301 12883.84668 132.88548 490
7482.72803 13119.68555 376.99948 498
7494.21631 13138.73242 624.36304 498
7494.58691 13139.12598 873.51642 497
7520.48145 13186.89062 1125.03455 390
7674.99609 13463.40527 1400.31213 469
27039.60547 47813.22266 12929.45605 1000
7476.13135 12919.03906 -112.78738 479
7435.72607 12849.52441 130.59296 490
7567.59619 13084.88867 377.49500 498
7578.02539 13101.85547 627.98700 497
7580.70703 13104.64258 872.49530 497
7609.08398 13155.49512 1126.21790 390
7767.39844 13427.47559 1400.98645 469
7557.64990 12881.97754 -113.09561 479
7520.11084 12812.11328 130.57773 489
7656.11377 13049.36719 377.59769 497
7667.93701 13067.58789 627.05652 497
7667.94141 13069.75781 872.90747 497
7698.86328 13122.47852 1124.74744 389
7853.98389 13392.26074 1400.85144 469
7636.05762 12849.23926 -120.16040 479
7593.74414 12778.73047 125.34425 489
7733.11963 13012.27148 369.26312 497
7757.73340 13058.99512 621.62030 497
7759.42139 13057.65723 867.26093 497
7778.35596 13089.32422 1120.39697 389
7935.58691 13357.50879 1393.26208 469
7720.93066 12811.67969 -118.34520 478
7679.83594 12744.46387 126.49936 489
7815.84229 12977.49414 372.79382 497
7844.15332 13018.97949 619.04749 497
7844.63867 13024.65820 870.20135 497
7867.60498 13056.55176 1118.96997 381
8026.61328 13319.26074 1397.07898 468
7803.31836 12777.77246 -121.94726 478
7762.52490 12710.58301 124.03802 489
7904.23047 12941.94434 370.72333 497
7854.80029 12859.10449 617.04138 321
7884.85742 12904.95508 863.77673 277
7953.91992 13022.08398 1121.13184 381
8112.59619 13285.97363 1397.85681 468
7892.06396 12742.56250 -119.67169 478
7847.94678 12676.16797 124.85770 488
7989.13037 12904.40723 372.91431 497
7938.87598 12814.97559 617.54559 461
7903.26562 12758.03223 857.77576 445
8044.32422 12990.71484 1123.75659 380
8206.16895 13248.98145 1397.18909 468
7977.06396 12707.49414 -121.71664 478
7936.36719 12639.12500 124.30339 488
8077.84326 12869.12012 370.65805 496
8104.69336 12911.56250 619.90509 496
8107.74365 12912.29297 869.60242 496
8131.87305 12954.47559 1123.31592 380
8060.73682 12669.15039 -122.03533 478
8021.53711 12602.96094 125.51768 488
8166.05127 12829.91602 372.64444 496
8191.25879 12874.67480 621.81409 496
8195.33594 12876.93066 869.51184 496
8223.99316 12921.32715 1123.87048 380
8147.99658 12634.72461 -122.19040 477
8107.45947 12571.20410 122.59724 488
8253.82812 12795.43848 370.60046 496
8289.88184 12856.50098 624.84271 435
8290.09668 12854.38281 871.13397 435
8334.99219 12919.44531 1129.20911 346
8235.15039 12598.30762 -123.81455 477
8194.43652 12533.25879 122.78936 487
8207.42090 12553.93359 370.03622 428
8415.17480 12875.95703 624.88214 434
8413.41602 12874.76465 875.28204 434
8472.83887 12963.36133 1136.86279 346
8321.03711 12563.53418 -122.19926 477
8280.21289 12499.39746 121.96672 487
8290.99707 12516.52148 366.93762 428
8530.35156 12881.22754 626.54773 460
8542.01270 12896.06055 882.08380 433
8614.09180 13006.98535 1142.87549 345
8409.92383 12526.07812 -120.99114 478
8367.35059 12463.23047 124.90307 487
8378.21582 12480.47168 369.42886 428
8640.87695 12876.52051 631.48816 459
8670.59570 12914.61230 884.84100 432
8496.13184 12489.97070 -124.03205 478
8454.68555 12429.00098 122.90234 487
8463.42871 12443.06445 370.30341 428
8752.80957 12870.64551 633.26471 459
8785.23340 12919.66211 887.74237 458
8580.59668 12452.41797 -122.35265 477
8539.60156 12389.97656 124.13817 486
8554.72949 12410.25293 367.25586 433
8862.60645 12864.50391 633.70685 458
8669.03223 12416.48828 -123.47646 477
8625.99512 12356.94238 123.28227 486
8642.43652 12376.28711 368.91769 433
8758.48926 12382.11816 -124.16101 477
8716.84082 12320.20020 122.76807 486
8730.56250 12341.75293 368.86453 383
8844.08984 12343.50781 -123.66612 477
8803.80273 12282.38867 121.94555 485
9124.98047 12734.69824 380.08377 391
8933.29980 12306.68164 -124.28564 476
8891.34668 12249.88672 121.10680 485
9022.97754 12269.99512 -124.30648 476
8980.27051 12213.08496 121.57098 488
9110.65234 12233.74902 -127.27816 476
9069.61328 12176.46289 123.16114 487
9199.71484 12197.96387 -126.44077 475
9157.37793 12138.99805 120.91821 487
9289.82910 12158.83398 -125.54298 475
9247.15332 12103.78809 123.48024 487
9378.60938 12123.79004 -126.88708 474
9335.47852 12065.57031 124.17313 486
9466.65723 12087.57129 -129.96155 474
9424.57129 12031.13477 121.09065 486
9557.59668 12047.86621 -128.14507 474
9512.77344 11991.52148 121.55172 485
9650.75293 12012.10938 -128.22095 473
9604.41895 11955.55566 120.80894 485
9741.52246 11975.04004 -128.21617 473
9694.65723 11919.78027 123.35912 485
9829.35840 11937.77832 -132.39716 473
9787.57520 11881.51953 120.12919 484
9922.45410 11898.67188 -131.50064 472
9879.62695 11845.16992 121.37061 486
10015.56348 11859.53906 -133.86662 472
9968.38281 11806.21875 120.08483 486
10104.92676 11820.66699 -130.40881 471
10060.94336 11771.89551 120.14407 485
10196.87305 11784.96582 -134.21741 471
10154.90625 11733.44238 121.04759 485
10292.35742 11742.86133 -133.49591 478
10250.08301 11695.10449 122.75565 484
10385.15430 11706.01758 -133.86868 477
10343.22852 11657.77344 122.78783 484
10476.78906 11669.94434 -134.48906 477
10436.99609 11618.59766 120.02561 483
10575.30957 11631.08594 -133.93045 476
10529.21094 11582.58691 121.65041 483
10667.12207 11590.16797 -137.10612 476
10626.41406 11541.32129 121.45926 482
10764.48730 11551.14941 -138.05734 475
10721.30664 11504.63379 119.51346 481
10859.75586 11513.11230 -137.09172 475
10815.12695 11468.22168 121.71275 481
10954.53027 11474.44238 -137.47917 474
10911.63379 11426.18262 120.59693 480
11053.28027 11432.49219 -139.54332 474
11009.09766 11386.85742 117.97618 480
11149.88770 11391.94531 -141.05585 473
11106.35449 11350.85645 121.37132 479
11245.97363 11355.96094 -141.61491 473
11202.22949 11310.56055 119.15792 479
11342.51367 11316.25195 -141.67950 472
11301.78516 11269.55859 120.94348 478
11441.36230 11272.80762 -144.26884 471
11397.19141 11228.94727 118.40770 478
11540.80469 11232.37695 -142.80273 471
11498.87402 11191.34180 119.52721 477
11650.14355 11200.68750 -145.50064 447
11599.62695 11151.46387 118.99943 476
11765.62402 11173.42285 -145.59181 446
11699.43945 11111.77832 119.14343 472
11876.02441 11145.84375 -147.85526 446
11805.09668 11076.81348 117.11368 471
12045.31055 11158.42188 -162.52722 445
11913.40918 11037.56934 118.18423 470
12108.76074 11086.15723 -149.02754 445
12026.04199 11008.00781 119.18681 451
12225.41895 11055.16797 -151.95595 444
12141.51953 10980.03809 119.54994 450
12342.37891 11026.72656 -152.13098 443
12256.32129 10948.82227 117.08742 449
12477.36621 11011.23340 -152.52664 397
12378.23633 10923.72656 117.37485 447
12628.80371 11007.45801 -156.76421 396
12503.56543 10898.53223 120.67142 446
12779.04980 11002.06250 -155.20157 374
12633.56055 10872.20508 119.77632 445
12943.67773 11009.20117 -157.68082 373
12761.33203 10850.83398 119.18020 444
13127.13574 11024.51074 -161.56836 345
12887.89258 10824.96289 117.08482 443
13328.23340 11059.85840 -163.09793 344
13037.00781 10814.99805 119.34109 386
13199.64648 10817.58984 115.88007 380
13386.72949 10834.30762 115.78004 379
13580.25879 10852.71777 116.55897 377
13810.13867 10900.79980 117.61863 293
3035.05127 745.87189 -69.85754 334
3029.99683 725.40662 -68.85284 483
3039.45435 727.91321 -19.95477 435
52682.38672 -207.20715 9658.34180 1000
4230.15869 -630.73322 -76.42328 424
4212.47266 -653.48541 -75.70069 462
4194.55029 -676.54523 -75.03571 471
4180.18994 -700.35413 -74.49530 485
4167.86621 -723.67664 -73.58012 485
4157.91260 -747.40967 -73.44968 464
4149.73828 -771.72504 -73.87547 465
4141.18848 -796.55688 -73.42995 464
4134.07520 -820.61145 -73.09998 465
4126.69238 -844.32562 -73.59722 465
4122.03125 -869.98865 -73.65615 391
4116.19092 -894.03271 -73.54026 391
4112.08594 -919.93439 -72.62203 390
4108.25342 -944.43103 -73.38353 390
4104.88672 -970.15417 -73.00695 390
4101.40771 -995.16565 -72.89246 389
4097.78516 -1019.81683 -73.23949 389
4221.26611 -1051.47656 -9.77649 498
4202.90430 -1046.56201 59.66599 495
4093.70557 -1045.08936 -73.88614 443
4206.48389 -1074.70459 59.94965 402
4090.56250 -1070.64185 -73.76729 389
4085.95581 -1095.42065 -74.43977 389
4081.97217 -1121.49292 -74.00644 389
4078.94824 -1146.45593 -74.30909 389
4074.37622 -1171.65442 -74.42109 389
4070.11865 -1197.55505 -74.37112 389
4261.98193 -1254.80078 -13.43927 496
4244.53711 -1249.80688 58.91028 289
4066.30762 -1222.57275 -74.09690 388
4144.47607 -1247.06665 59.69149 489
4062.92603 -1248.08679 -74.97507 388
4058.76367 -1273.52637 -75.13391 388
4054.45679 -1299.17200 -75.20229 388
4050.28662 -1324.63538 -75.60693 388
4046.51880 -1351.12427 -75.80175 388
4042.20215 -1376.83948 -75.70950 388
4038.33740 -1402.46619 -75.52897 387
4213.03906 -1464.05859 -13.19335 413
4034.14307 -1427.49951 -76.61423 387
4030.57935 -1453.90613 -76.54465 387
4042.09961 -1485.68262 -76.95235 277
31287.83984 -15377.06055 8827.29785 1000
3005.32690 -2095.08105 -45.14267 497
3012.81763 -2100.42017 13.24077 413
5586.49609 -4894.81055 491.88110 1000
3779.02075 -4942.78760 -69.65398 459
3754.90771 -4975.74805 -71.31361 461
3734.74658 -5010.37891 -70.97141 460
3713.30029 -5047.17090 -70.97785 460
3694.13550 -5083.91797 -72.22373 454
3674.80566 -5122.15283 -73.06284 455
3659.63159 -5168.12793 -74.27831 442
3647.87109 -5220.60352 -74.42279 360
3646.15894 -5287.80957 -76.06566 369
3644.55298 -5356.64502 -78.60605 380
2709.11792 -3996.70630 -23.90102 366
3642.96094 -5499.10645 -81.67475 382
3641.40894 -5571.45410 -83.70306 383
3640.66553 -5647.14355 -85.53278 383
2142.17334 -6037.33838 21.45795 292
2091.79053 -6011.81543 20.97500 427
2046.68237 -5999.56104 21.48346 405
2002.94287 -5989.17773 22.59931 415
1960.76147 -5981.14404 23.09980 395
1918.30261 -5973.10889 22.50261 353
1876.54810 -5968.72461 23.19088 354
1839.17444 -5975.83740 24.10448 264
1838.59473 -5972.38770 126.03928 486
1797.08496 -5971.13135 25.01894 487
1798.01599 -5971.33252 126.04326 487
1758.35571 -5969.88037 24.69545 487
1756.83765 -5967.22705 125.35622 491
1718.09900 -5967.52148 24.51742 488
1715.80603 -5961.51953 125.20747 488
1678.75012 -5965.46094 24.79268 488
1676.24451 -5960.14941 125.88189 488
1636.24817 -5955.26221 25.99410 259
1639.17334 -5963.65332 125.25124 489
1593.84619 -5941.99805 26.58983 305
1599.79199 -5961.50244 126.63736 489
1554.56824 -5938.05176 26.42317 359
1560.19727 -5961.13330 125.92876 490
1514.54138 -5935.23096 26.55298 360
1526.11499 -5981.92773 125.50356 331
1546.91064 -6064.46533 228.84215 488
1475.02783 -5931.52441 26.14134 352
1521.21472 -6123.10938 126.94845 317
1511.44861 -6081.14453 229.02687 316
1436.23608 -5927.27979 26.19333 352
1463.12256 -6040.62402 227.72412 469
1460.10242 -6206.10742 22.34281 491
1419.61060 -6204.51318 21.71257 491
1282.36951 -5915.65723 28.31907 393
1243.44043 -5912.25000 28.97316 393
1206.32788 -5909.03076 28.02757 436
1169.05713 -5915.28223 28.57819 412
1145.63843 -5995.57715 28.19983 463
1105.01599 -5980.62061 27.59675 496
1069.98669 -5995.46826 28.13253 352
1061.72583 -5946.33740 127.29072 491
614.97931 -3335.73950 18.54865 266
579.20593 -3236.12134 22.65680 308
595.54950 -3345.01416 74.05831 400
550.77234 -3177.22559 24.55824 333
575.04865 -3345.10010 74.34160 476
524.68494 -3129.91919 26.34163 352
553.67328 -3344.99805 74.29199 476
500.32504 -3093.84448 27.97810 360
533.44995 -3344.99146 74.80349 475
480.47278 -3094.38940 27.30357 406
512.62775 -3345.65942 74.31576 476
464.75259 -3122.11914 27.23370 273
491.38199 -3345.61646 74.37495 476
449.19867 -3154.50317 25.91296 364
471.30624 -3345.52734 74.59529 476
433.63974 -3188.52930 24.80994 356
449.79861 -3345.30518 74.63398 477
417.07190 -3224.49023 24.18466 355
429.66888 -3345.44409 74.99786 477
401.17889 -3264.47803 22.06577 333
409.03006 -3346.09033 75.15302 477
385.36667 -3317.37549 21.16731 314
389.26892 -3356.03369 75.01245 427
371.25217 -3396.02344 17.91903 276
372.65549 -3402.81348 74.33852 305
375.37830 -3722.55151 68.70757 262
56.87329 -1051.34180 114.38799 284
56.89449 -1049.77441 131.48785 359
56.96782 -1048.51245 148.82080 423
57.22655 -1047.81885 165.75227 423
57.13095 -1046.83130 182.92476 470
57.28011 -1046.35901 200.18974 470
57.37592 -1045.60107 217.39917 470
57.36287 -1045.27417 234.58444 495
50.44143 -1049.12366 10.84275 469
50.57065 -1048.50818 28.12201 469
50.51196 -1048.00903 45.69456 495
50.57881 -1047.51428 62.87917 495
50.69914 -1047.12622 80.11007 495
50.75308 -1046.88501 97.30393 496
50.60393 -1046.54785 114.33740 497
50.65188 -1046.32385 131.47353 497
50.75098 -1046.09973 148.73929 497
50.86321 -1046.24561 165.96835 473
50.91212 -1046.17468 182.92601 473
50.78268 -1046.34485 200.36305 473
50.81039 -1046.53162 217.53813 427
50.81966 -1046.66345 234.79916 427
44.09730 -1048.91040 10.74424 471
43.98426 -1048.97766 28.17212 427
44.15359 -1049.16577 45.28256 427
44.22833 -1049.64563 62.76765 427
44.05688 -1050.27380 79.89185 364
44.10682 -1052.45715 96.94665 290
-496.27530 -1517.57214 25.23165 471
-496.06613 -1517.02942 52.09586 471
-496.08044 -1516.13086 78.60268 496
-495.75748 -1515.73352 105.46628 496
-495.42807 -1515.02014 131.88354 496
-494.99893 -1514.25269 158.44977 496
-494.55212 -1513.52649 185.22322 496
-494.19370 -1513.01587 211.85031 496
-494.32233 -1512.52295 238.45346 496
-1025.80322 -1991.93005 57.13130 499
-1024.78943 -1990.86743 94.59293 499
-1024.61829 -1990.50305 132.27568 488
-1024.28491 -1990.13220 169.91998 454
-1024.38989 -1990.41821 206.95192 399
-1024.96313 -1990.97009 244.37485 330
-14852.96387 -15585.83496 4434.32520 1000
-3556.52515 -2794.52539 -168.39941 1000
90.11824 -2.98933 128.01331 373
90.11828 -2.98967 128.25868 374
89.64478 -3.10812 128.38565 306
88.52398 -3.39163 128.38574 302
90.22125 -2.88851 128.03172 374
90.21901 -2.88658 128.27365 375
89.67999 -3.02122 128.38583 306
88.55865 -3.29655 128.38573 302
90.32246 -2.78514 128.04845 376
90.32122 -2.78638 128.29288 376
89.71539 -2.93136 128.38739 306
88.59137 -3.19971 128.38792 302
90.42117 -2.68546 128.06677 377
90.42102 -2.68561 128.30901 378
89.74919 -2.84233 128.38783 306
88.62605 -3.10571 128.38554 302
90.52025 -2.58860 128.08549 378
90.51993 -2.58862 128.32417 379
89.78528 -2.75345 128.38530 306
88.66136 -3.00829 128.38605 302
90.61711 -2.48966 128.10033 380
90.61788 -2.49066 128.33926 380
89.82301 -2.66528 128.38713 306
88.69589 -2.91523 128.38809 302
87.38631 -3.20137 128.38823 298
90.71468 -2.39458 128.11658 381
90.71392 -2.39412 128.35378 381
89.85919 -2.57760 128.38794 306
88.73311 -2.81744 128.38731 302
87.42101 -3.09935 128.38512 298
90.80893 -2.29915 128.13220 382
90.80847 -2.29789 128.36859 383
89.89682 -2.48851 128.38618 306
88.76875 -2.72120 128.38576 302
87.45569 -2.99586 128.38770 298
90.90280 -2.20342 128.14838 383
90.90456 -2.20392 128.38223 384
89.93565 -2.39903 128.38673 306
88.80721 -2.62550 128.38744 302
87.49171 -2.89020 128.38728 298
90.99729 -2.11069 128.16249 384
90.95465 -2.11994 128.38692 310
89.97433 -2.31096 128.38687 306
88.84394 -2.53011 128.38753 302
87.52964 -2.78601 128.38809 298
91.08855 -2.01951 128.17670 386
90.99496 -2.03578 128.38670 310
90.01166 -2.22270 128.38550 306
88.88333 -2.43405 128.38635 302
87.56593 -2.68174 128.38777 298
91.18144 -1.92739 128.19107 387
91.03424 -1.95321 128.38771 310
90.05300 -2.13197 128.38652 306
88.92214 -2.33783 128.38626 302
87.60577 -2.57970 128.38724 298
91.27235 -1.83706 128.20480 388
91.07721 -1.86940 128.38725 310
90.09382 -2.04431 128.38626 306
88.96033 -2.24328 128.38583 302
87.64365 -2.47464 128.38551 298
91.35342 -1.74894 128.21545 469
91.11668 -1.78657 128.38651 310
90.13279 -1.95531 128.38622 306
88.99980 -2.14491 128.38771 302
87.68227 -2.36832 128.38533 298
91.37334 -1.67012 128.20923 470
91.15852 -1.70522 128.38603 310
90.17540 -1.86500 128.38759 306
87.98244 -2.22458 128.15376 350
87.72433 -2.26412 128.38811 298
86.16659 -2.51932 128.38747 294
91.39548 -1.59290 128.20418 470
91.20306 -1.62270 128.38530 310
90.21645 -1.77711 128.38658 306
87.75479 -2.16351 128.09587 349
87.75639 -2.16222 128.38657 349
86.20741 -2.40676 128.38820 294
91.41497 -1.51253 128.19937 471
91.24576 -1.54008 128.38722 310
90.25983 -1.68728 128.38779 306
87.52068 -2.09809 128.03468 347
87.52282 -2.09835 128.32823 348
86.24931 -2.29041 128.38655 294
91.43558 -1.43403 128.19330 471
91.28856 -1.45670 128.38634 310
90.30394 -1.59749 128.38573 306
87.27882 -2.03354 127.97565 346
87.27838 -2.03536 128.27414 346
86.28733 -2.17753 128.38789 294
91.45776 -1.35465 128.18704 472
91.33295 -1.37424 128.38681 310
90.34668 -1.50787 128.38737 306
87.10720 -1.95740 127.92750 444
87.10813 -1.95448 128.23099 445
86.33119 -2.06179 128.38799 294
91.47773 -1.27628 128.17937 473
91.37687 -1.29116 128.38605 310
90.39175 -1.42109 128.38687 306
87.01595 -1.86650 127.89715 443
87.01608 -1.86659 128.20224 444
86.37451 -1.94761 128.38844 294
91.50002 -1.19741 128.17358 473
91.42326 -1.20593 128.38638 310
90.43443 -1.33125 128.38615 306
86.92125 -1.77286 127.87051 442
86.92117 -1.77264 128.17383 443
86.41531 -1.83508 128.38849 294
-10.66547 -1.27215 -2.87689 474
91.46889 -1.12311 128.38715 310
90.48095 -1.24166 128.38602 306
86.82935 -1.67584 127.83787 442
86.82961 -1.67666 128.14674 442
86.46056 -1.71985 128.38510 294
91.54375 -1.03709 128.16162 474
91.51473 -1.04021 128.38737 310
90.52638 -1.15203 128.38644 306
86.73353 -1.58386 127.81069 441
86.73331 -1.58131 128.11938 441
86.50473 -1.60591 128.38831 294
91.56319 -0.95765 128.15327 475
91.56173 -0.95929 128.38538 310
90.57391 -1.06381 128.38562 306
86.67692 -1.48149 127.78794 302
86.63535 -1.48357 128.09218 440
86.55058 -1.49487 128.38815 294
91.58533 -0.87679 128.14818 475
91.58514 -0.87772 128.38080 476
90.61931 -0.97389 128.38725 306
86.72189 -1.36668 127.78740 302
86.53491 -1.38658 128.06422 439
86.53473 -1.38481 128.37729 440
91.60673 -0.79637 128.14113 476
91.60640 -0.79670 128.37477 477
90.66768 -0.88498 128.38548 306
86.76817 -1.25382 127.78708 302
86.43438 -1.28720 128.03299 438
86.43610 -1.28462 128.34784 439
91.62894 -0.71745 128.13400 476
91.62920 -0.71650 128.36899 477
90.71646 -0.79675 128.38605 306
86.81366 -1.14167 127.78797 302
86.33435 -1.18359 128.00536 437
86.33503 -1.18375 128.32234 438
91.65065 -0.63576 128.12598 477
91.65182 -0.63595 128.36063 478
90.76472 -0.70879 128.38789 306
86.86157 -1.03013 127.78646 302
86.28412 -1.07473 127.98218 491
86.28419 -1.07505 128.30156 491
91.67267 -0.55350 128.11786 477
91.67254 -0.55412 128.35390 478
90.81380 -0.61938 128.38599 306
86.90775 -0.91729 127.78577 302
86.25276 -0.96595 127.96657 490
86.25546 -0.96695 128.29019 491
91.69554 -0.47226 128.11053 478
91.69450 -0.47255 128.34662 479
90.86240 -0.53051 128.38609 306
86.95702 -0.80451 127.78756 302
86.22292 -0.85504 127.95266 490
86.22328 -0.85507 128.27319 491
91.71745 -0.38971 128.10362 478
91.71532 -0.38934 128.33952 479
90.91358 -0.44290 128.38554 306
87.00569 -0.69064 127.78857 302
86.19566 -0.74028 127.93761 490
86.19564 -0.74346 128.26076 491
85.01943 -0.81674 128.38544 290
91.73927 -0.30811 128.09750 479
91.73808 -0.30963 128.33249 480
90.96311 -0.35203 128.38773 306
87.05740 -0.57798 127.78819 302
86.16460 -0.62649 127.92059 490
86.16449 -0.62932 128.24559 490
85.07217 -0.69253 128.38493 290
91.75955 -0.22679 128.08849 479
91.76005 -0.22496 128.32491 480
91.01662 -0.26397 128.38541 306
87.10855 -0.46502 127.78690 302
86.13226 -0.51267 127.90652 489
86.13242 -0.51460 128.23082 490
85.12287 -0.56707 128.38480 290
91.78219 -0.14373 128.07988 480
91.78332 -0.14421 128.31941 481
91.06677 -0.17605 128.38528 306
87.15958 -0.35320 127.78620 302
86.10412 -0.39866 127.88877 489
86.10390 -0.39929 128.21423 490
85.17818 -0.43955 128.38527 290
91.80568 -0.06018 128.07208 480
91.80399 -0.05928 128.31201 481
91.12074 -0.08800 128.38628 306
87.21272 -0.23897 127.78736 302
86.07300 -0.28377 127.86951 489
86.07067 -0.28442 128.20050 489
85.23201 -0.31782 128.38603 290
91.81467 0.02246 128.06262 485
91.81577 0.02197 128.30057 486
91.17149 0.00185 128.38684 306
87.26488 -0.12797 127.78712 302
86.04156 -0.16811 127.85604 488
86.04245 -0.16594 128.18312 489
85.28648 -0.19023 128.38699 290
91.79388 0.10575 128.04254 484
91.79248 0.10471 128.28204 485
91.22678 0.09047 128.38564 306
87.31663 -0.01498 127.78635 302
86.00990 -0.05010 127.83940 488
86.00750 -0.04800 128.17043 489
85.33961 -0.06842 128.38731 290
91.77091 0.18779 128.02228 484
91.76968 0.18982 128.26245 485
91.28056 0.17768 128.38725 306
87.37240 0.09740 127.78606 302
86.01524 0.06969 127.82980 485
86.01350 0.07177 128.15866 486
85.39547 0.05810 128.38499 290
91.74854 0.27233 128.00000 484
91.74760 0.27189 128.24393 485
91.33489 0.26728 128.38675 306
87.42712 0.21028 127.78606 302
86.04823 0.19021 127.82152 485
86.04574 0.19151 128.15308 486
85.45290 0.18380 128.38715 290
91.72405 0.35908 127.97917 483
91.72569 0.35852 128.22424 484
91.38872 0.35633 128.38528 306
87.48324 0.32397 127.78918 302
86.07852 0.31122 127.81773 486
86.08083 0.31054 128.14944 487
85.50898 0.30504 128.38580 290
91.70093 0.44395 127.95938 483
91.70144 0.44337 128.20280 484
91.44513 0.44295 128.38751 306
87.53835 0.43564 127.78676 302
86.11319 0.43211 127.81544 486
86.11183 0.43326 128.14691 487
85.57037 0.42866 128.38635 290
