# .PCD v.7 - Point Cloud Data file format
VERSION .7
FIELDS x y z rgb
SIZE 4 4 4 4
TYPE F F F U
COUNT 1 1 1 1
WIDTH 931
HEIGHT 1
VIEWPOINT 5270.166992 -4120.606934 139.293396 -0.006179 -0.143131 0.005971 0.989667
POINTS 931
DATA ascii
-197.53217 1.36842 53.41308 324
-197.47621 3.19118 53.39579 324
-197.47546 4.98269 53.40894 324
-197.54376 6.77994 53.38611 324
-197.48755 8.59852 53.40637 324
-197.43083 10.39002 53.40220 324
-197.44066 12.21153 53.41039 324
-269.37796 58.10409 33.10149 319
-283.57812 60.39442 36.01835 317
-263.25836 59.38568 34.70370 325
-277.80396 61.80293 37.42029 323
-293.94055 64.38241 40.17114 314
-260.06537 61.11509 35.44983 350
-274.67389 63.63638 38.04207 346
-290.90198 66.35323 40.76760 341
-258.10806 63.04212 35.88999 350
-272.66290 65.57932 38.53315 347
-289.10651 68.53357 41.06482 319
-256.21811 64.92122 36.28522 351
-270.81003 67.57626 38.89357 345
-291.02036 71.24905 40.54295 318
-254.27272 66.88139 36.71899 351
-271.15646 70.01509 38.68641 321
-253.04048 68.85544 36.93843 325
-273.27420 72.79326 38.07230 318
-255.02992 71.42475 36.27216 322
-256.99573 74.13583 35.64365 321
-320.02579 68.37087 -87.44211 321
-39721.92578 20159.52734 4548.67773 1000
-15910.82422 11040.64062 2698.87207 1000
-1355.74609 1916.33423 14.57742 429
-1340.17505 1920.23352 14.82384 495
-1343.86426 1924.34497 53.80941 494
-1346.38489 1929.14001 93.34489 494
-1334.80481 1937.47241 13.97794 357
-823.22742 1417.92993 21.62443 485
-825.59216 1421.64355 49.17068 453
-829.03040 1426.82458 76.56760 316
-814.04248 1423.02478 21.53539 489
-815.94739 1425.89648 49.12150 454
-817.66742 1428.45227 77.10378 488
-811.55280 1438.55383 21.17651 332
-345.85132 934.98370 -3.79415 348
-336.10989 928.92883 -2.30872 415
-337.78522 932.44922 14.14260 414
-340.22775 937.41687 30.47547 348
-329.07001 928.26819 -2.01166 493
-330.25198 930.75262 14.73068 465
-331.47266 933.36304 31.28762 465
-332.63675 936.31238 47.83820 464
-334.28870 940.19672 64.46023 408
-322.95685 929.86554 -1.71270 498
-323.93356 931.93768 14.91777 498
-324.72217 934.14240 31.39543 493
-325.74689 936.60034 48.07022 493
-326.87747 938.93414 64.80617 497
-327.99164 941.23663 81.71716 494
-317.68350 933.35071 -2.00879 478
-318.40564 935.30493 14.70818 478
-319.50192 937.43579 31.43340 478
-320.38260 939.81659 47.94093 478
-321.45358 941.70233 64.86394 483
-322.43445 944.23462 81.42451 481
-313.29300 938.86792 -2.37531 435
-314.21588 941.41138 14.22343 435
-315.39627 943.89111 31.09857 435
-317.02811 947.29999 47.53456 375
-311.19824 949.65186 -3.69219 302
-131.34946 3465.08252 473.81366 1000
50.73685 15371.19727 131.83235 463
142.06998 15429.12402 -122.43845 462
144.62132 15329.16016 129.06616 467
238.27504 15389.41602 -122.78767 463
236.82338 15290.38574 129.12511 468
239.33788 15320.45215 381.74530 450
331.65152 15355.41895 -120.48515 471
329.87460 15260.23047 131.11110 472
330.08066 15249.94922 378.55075 451
426.75092 15321.44727 -120.87237 471
423.63156 15225.88965 132.49734 473
517.66144 15288.93848 -121.48701 472
517.14612 15191.42578 131.24310 473
610.66882 15257.19238 -119.62000 472
607.39380 15158.65039 131.60060 474
702.17877 15224.55371 -119.52706 473
702.48468 15129.74219 130.13623 474
795.54340 15192.17188 -117.12901 473
793.61060 15096.94238 128.71152 475
887.57733 15156.92871 -116.57201 474
885.20959 15065.63477 131.60484 475
956.51447 16449.85156 1481.15198 1000
978.30951 15123.85254 -117.13980 474
974.25159 15033.46289 131.17293 475
1069.99182 15093.90332 -116.86844 474
1063.79431 15001.62109 132.09392 476
1161.46289 15062.76562 -115.90746 475
1155.99219 14970.17773 132.02634 476
1250.17395 15027.92090 -115.10248 475
1246.57288 14936.24414 129.94031 477
1344.07654 14999.79297 -113.90676 476
1336.20337 14905.34180 131.85614 477
1431.23584 14968.04004 -113.68253 476
1423.53357 14875.22559 131.36400 477
1521.02686 14934.93164 -112.70778 476
1514.37256 14844.31152 129.85799 478
1611.54211 14902.75879 -115.89036 477
1602.17505 14810.75488 132.29672 486
1702.08789 14872.58203 -114.22659 477
1690.22205 14782.95215 129.24873 486
1790.77966 14842.32715 -112.29245 477
1779.99426 14750.81543 132.82718 486
1878.56848 14809.58789 -112.89392 478
1865.52820 14721.93457 129.99672 487
1965.53674 14776.19238 -114.37292 478
1956.62073 14688.44238 130.51830 487
2055.40308 14745.41211 -112.54530 478
2043.59143 14660.09668 129.18243 487
2141.18555 14714.23438 -113.78939 478
2131.43530 14631.28711 132.33156 488
2230.55054 14684.95801 -112.58389 479
2219.29614 14598.78711 132.27269 488
2317.53760 14655.03516 -111.66273 479
2305.78955 14568.86523 129.41495 488
2405.54346 14624.35645 -109.48353 479
2392.86865 14541.41406 129.59715 488
2491.87866 14590.75781 -109.86835 480
2479.09302 14509.30078 131.81116 489
2579.65942 14561.70215 -110.46562 480
2563.41455 14479.16406 130.28625 489
2663.52832 14532.41992 -110.66043 480
2650.36499 14449.99414 129.59444 489
2750.55981 14502.93555 -111.67243 480
2737.66016 14419.01953 132.15204 489
2838.79688 14469.56934 -112.03831 480
2824.44702 14388.91797 131.90878 490
2924.67065 14441.30176 -109.13869 481
2908.35962 14360.17285 129.26749 490
3011.66333 14410.71582 -111.45944 481
2993.50073 14329.69238 130.53354 493
3095.14697 14379.04688 -108.64877 481
3082.38330 14301.58887 131.87788 493
3180.74976 14350.89062 -110.68227 481
3166.29956 14270.99121 132.11621 494
3266.71606 14317.53223 -107.00727 481
3249.55469 14241.44043 129.70764 494
3351.88989 14290.94629 -108.09525 482
3335.16406 14212.97559 132.81491 494
3501.29834 14925.32129 379.31158 490
3504.53076 14946.27344 634.89001 410
3439.26758 14259.63379 -107.40283 482
3421.93701 14184.93555 131.33215 494
3584.64502 14879.14355 381.81067 490
3588.93726 14902.41504 632.35919 411
3524.19165 14230.95215 -106.63996 482
3508.25903 14153.03418 132.52559 494
3670.57935 14834.15918 382.44708 491
3676.82251 14853.27539 630.91064 411
3607.98486 14198.84375 -107.30539 482
3590.01270 14127.46680 131.16072 494
3754.58813 14787.73145 382.22983 491
3759.97803 14807.05762 630.60095 411
3694.64771 14168.11035 -110.23056 482
3674.05151 14094.90723 131.61183 494
3840.13062 14741.54883 379.38586 491
3845.14648 14763.56348 630.13037 411
3781.25635 14139.28027 -106.59559 482
3761.24365 14065.45605 130.17001 495
3925.90430 14693.73535 379.92911 492
3927.91406 14714.30566 627.51172 412
3864.41821 14109.07812 -109.67856 482
3846.73096 14038.88965 130.37680 495
4007.26416 14647.38477 380.49466 492
4013.19702 14667.69238 629.49384 412
3947.59375 14081.59375 -109.76220 483
3929.97534 14008.28418 131.14185 495
4090.81787 14599.58594 379.66635 492
4099.19336 14621.53711 625.28351 412
4033.81519 14050.80273 -105.90593 483
4012.46802 13979.99121 130.30922 495
4177.29492 14555.78418 379.91205 493
4181.62793 14577.07910 626.73145 412
4117.65771 14019.74023 -109.32104 483
4098.05469 13950.10547 132.28583 495
4259.33447 14511.16504 377.45410 499
4267.78223 14536.19141 624.02905 417
4204.86768 13989.81836 -109.20718 483
4183.26611 13921.94629 129.19431 495
4346.06445 14482.97461 378.93460 499
4353.25098 14505.06348 627.21143 417
4286.76660 13960.20703 -107.17422 483
4266.62598 13894.37695 130.83733 495
4435.12939 14450.03223 377.92447 499
4444.18848 14473.10840 624.47717 417
4371.00537 13932.29883 -105.78905 483
4350.82275 13865.73535 129.83026 495
4524.35010 14419.42969 377.18106 499
4531.79639 14442.80078 627.17133 417
4458.19873 13901.87012 -107.87172 483
4437.54150 13836.00098 130.01700 495
4609.72900 14386.12500 375.95331 499
4617.89307 14413.29492 627.53143 417
4539.66064 13872.33398 -107.24043 483
4520.30420 13804.73340 132.70288 495
4695.70361 14358.91016 379.92038 499
4706.70557 14383.79492 627.19922 417
4627.23486 13840.33301 -107.16859 483
4604.63330 13775.37012 129.45135 495
4784.00439 14324.39160 376.07458 499
4793.10107 14356.89453 625.11505 417
4710.16553 13810.77441 -106.96895 483
4690.48633 13746.57812 131.73686 495
4870.90918 14294.85645 375.89526 499
4879.69873 14325.39648 626.09003 417
4796.04541 13784.88184 -108.19956 483
4772.76807 13718.93555 132.03326 495
4950.37061 14232.09277 375.50653 351
4967.80371 14293.94727 625.82904 417
4878.10742 13753.41992 -106.36256 483
4854.99805 13688.58887 130.81032 495
5016.45703 14150.51465 374.74167 395
5055.99023 14264.23242 624.72919 417
4961.70459 13723.06250 -105.87838 483
4939.50781 13660.07031 132.30630 495
5102.09717 14118.33984 377.59323 395
5143.58643 14234.32324 626.90009 417
5047.44092 13694.05273 -107.10619 483
5025.50830 13631.42969 130.69316 495
5188.23779 14087.64355 375.92514 395
5231.76514 14205.61035 623.90387 417
5306.53027 14403.51562 882.50800 434
5309.21875 14412.81543 1136.41113 377
5131.87744 13663.91699 -105.99405 483
5109.78076 13601.53809 130.09753 495
5276.44482 14056.03516 376.38773 391
5320.95410 14176.53711 625.89709 417
5371.62793 14312.12988 880.06427 479
5381.69580 14342.51367 1132.59192 476
5217.40234 13632.80078 -106.27882 483
5191.79248 13575.18359 129.96202 495
5361.39307 14024.45410 377.52924 391
5407.42773 14145.77148 625.56696 417
5473.53369 14316.77734 882.71179 432
5474.21191 14314.36230 1133.83167 363
5301.67188 13603.66504 -107.71466 483
5278.82910 13544.89355 133.09673 495
5481.81396 14079.57422 378.81815 499
5492.60400 14097.87891 626.92999 461
5492.06836 14106.20312 874.12958 461
5387.09473 13577.47559 -108.06001 483
5361.01123 13517.57422 130.65941 495
5554.86816 14006.26758 378.27902 462
5556.77246 14011.81055 624.90051 462
5558.36377 14018.08984 868.86859 462
5471.53320 13544.94531 -106.32761 483
5446.57812 13486.61133 130.22499 495
5616.79248 13918.12207 377.62769 463
5621.29590 13926.82129 619.96906 463
5623.15527 13933.29102 868.68842 462
5554.37207 13514.74902 -106.75046 483
5532.40527 13455.79199 131.60208 495
5682.58154 13835.87598 373.68179 464
5684.22852 13840.70703 619.15643 463
5686.86230 13846.05957 866.89697 463
5637.78271 13486.70020 -108.16151 483
5614.85498 13430.18066 131.21297 495
5750.19775 13757.75684 373.86246 499
5751.30127 13762.00391 616.64612 499
5755.66895 13765.30469 864.83124 499
5857.20312 14016.60156 1124.26172 452
5725.00488 13457.92871 -108.82047 483
5698.94922 13399.50586 131.47174 495
5836.65576 13726.94922 376.58926 499
5837.79248 13729.84863 619.18182 499
5839.44531 13732.47168 863.09247 499
5945.09912 13986.63867 1125.86377 452
5807.83008 13427.95410 -106.40401 483
5785.81152 13369.22754 129.59184 495
5923.64258 13694.29980 375.69443 499
5910.77148 13670.02246 617.74860 499
5926.71094 13702.01074 864.28192 498
6035.82861 13955.70410 1126.48120 452
6007.55762 13891.10742 1370.72021 493
6010.57715 13902.48535 1620.85730 334
6019.45117 13919.83984 1872.90540 303
5894.77148 13395.40918 -108.29536 482
5868.60352 13341.15430 133.25761 495
6007.95361 13666.13574 374.38739 499
5998.25635 13639.23535 619.42993 499
6011.74561 13670.85156 863.08887 498
6122.44141 13926.44824 1128.44409 452
6162.32715 14012.62793 1382.62415 485
5977.80225 13367.06934 -106.18810 482
5954.52686 13311.81152 131.72404 494
6096.53271 13635.43457 373.84985 499
6083.78857 13611.63379 619.26385 498
6098.09131 13640.75781 865.39172 498
6209.81299 13896.07422 1125.22876 452
6250.46777 13981.45996 1383.94360 484
6062.45068 13339.98145 -106.20697 482
6038.77295 13281.39160 131.29663 494
6182.46045 13601.53320 376.59875 499
6171.77832 13580.02246 618.29395 498
6186.61279 13613.36816 863.18567 498
6298.39307 13865.79199 1127.02026 452
6337.52490 13950.92969 1387.24170 484
6146.34570 13307.18848 -107.31062 482
6122.67627 13253.36328 130.93503 494
6268.02979 13573.16406 376.96613 498
6259.37158 13547.83984 619.45013 498
6271.28125 13581.81836 866.43677 498
6390.44971 13833.55957 1128.74500 470
6428.45215 13922.25488 1386.05579 484
6233.99854 13278.21191 -107.36713 482
6209.87305 13225.26367 131.73802 496
6356.29395 13541.20312 375.44467 498
6343.91260 13516.37793 617.83380 498
6359.03711 13548.21777 865.78662 498
6478.28906 13804.90918 1127.00830 470
6320.01367 13246.30371 -109.46415 482
6292.61914 13194.70508 132.11176 496
6442.76416 13512.25879 377.67236 498
6429.81934 13486.69238 617.99030 498
6446.19873 13520.28809 865.56116 498
6566.54932 13770.84277 1127.33838 469
6402.37305 13217.83398 -107.31625 482
6380.41406 13166.68848 133.07426 496
6526.50830 13479.47559 374.48624 498
6519.79541 13454.96680 618.44684 498
6534.34961 13486.34375 864.82172 498
6654.51514 13738.86133 1130.65552 469
6491.07275 13190.12793 -109.78156 482
6466.06494 13138.27637 130.93343 496
6616.14990 13447.14062 376.43387 498
6619.00537 13452.97559 619.74365 498
6554.45166 13320.53320 859.41998 267
6744.35400 13710.91211 1131.91870 470
6576.62305 13158.83691 -106.39639 481
6550.96045 13106.97754 132.28540 496
6703.36084 13418.43457 375.80200 498
6704.51367 13419.93359 619.89154 497
6629.20020 13265.98828 859.72351 267
6830.48730 13681.38281 1131.32324 470
6658.75488 13126.81348 -107.21221 481
6635.95752 13080.15625 130.62816 496
6790.93457 13386.77148 377.46338 497
6731.40918 13274.40234 618.53284 311
6701.17676 13214.19336 856.02173 267
6919.80762 13649.34961 1130.93030 466
6747.66992 13099.36621 -107.68077 481
6721.49316 13051.13379 132.30022 495
6877.46582 13357.13477 378.59467 497
6801.05176 13200.91406 617.01917 361
6777.43799 13160.44531 856.86053 267
7012.10107 13620.26562 1133.96265 466
6832.28760 13066.96289 -109.97674 481
6808.22168 13018.09570 133.76074 495
6964.22900 13325.63086 378.32349 497
6967.23828 13330.28711 621.04407 497
6850.68066 13103.72852 856.40552 267
7098.37988 13585.87305 1134.44226 466
6917.43262 13038.39355 -107.19601 481
6893.83008 12990.65527 130.51804 495
7052.45703 13292.48828 379.31958 497
7055.64209 13296.80664 623.79681 497
6924.24268 13048.44727 854.22424 267
7191.44629 13557.06934 1133.30237 465
7007.10645 13006.51367 -108.85222 488
6980.33838 12959.13672 131.44362 495
7143.64941 13268.09766 376.75391 439
7144.32129 13271.61523 625.28870 439
7074.90723 13140.73438 861.69244 317
7288.49316 13539.37402 1136.73633 445
7092.57422 12977.16113 -110.28674 488
7066.22754 12931.71777 132.45860 494
7257.91357 13285.71973 378.37198 464
7263.62646 13297.59863 627.29517 438
7285.72314 13334.07617 875.03540 434
7398.04443 13543.94922 1140.34045 437
7179.92480 12949.20020 -109.37866 488
7151.65283 12901.07520 132.90083 494
7362.93848 13284.21973 381.27921 464
7383.57080 13322.53125 631.36493 437
7406.93652 13364.88184 879.35931 433
7266.33594 12916.47168 -109.99451 487
7240.03467 12870.93945 131.91019 494
7467.20898 13284.62402 380.57071 463
7498.68115 13338.13379 630.43164 462
7527.51611 13391.78809 883.55249 432
7351.73389 12888.51562 -108.66297 487
7326.18652 12840.55078 131.95525 494
7576.65674 13282.84082 382.28781 462
7607.02881 13336.42383 634.42145 461
7439.95410 12856.52734 -108.83042 487
7412.99219 12813.37695 130.22673 493
7681.60107 13282.50391 384.26401 461
7715.09082 13336.94043 634.89728 460
7529.83057 12827.47559 -109.25554 487
7503.13281 12781.13184 132.72795 493
7791.85840 13282.74414 384.16391 461
7577.33496 12816.11914 -118.21542 486
7552.87207 12768.74316 122.63861 493
7882.37549 13330.61816 376.96405 441
7665.84668 12783.85645 -121.12166 486
7641.65039 12739.32910 122.33044 492
7756.44482 12754.87891 -118.97406 486
7726.09570 12708.79297 121.56237 492
7844.93213 12722.46387 -121.85707 485
7818.42773 12678.76465 122.07401 492
7931.18066 12693.44434 -119.21919 485
7903.41406 12648.43555 122.85172 491
8022.12305 12660.98730 -122.32655 485
7995.24170 12619.95898 121.85815 491
8109.19580 12633.03027 -120.35866 484
8082.37939 12588.63184 122.00979 491
8198.39844 12602.99023 -121.37939 484
8172.04199 12556.96777 122.94867 490
8290.03027 12568.85840 -121.67564 484
8261.47852 12528.35938 124.75255 490
8378.61523 12539.26074 -123.57309 483
8351.28320 12499.80664 121.68021 490
8469.39648 12508.99219 -122.22129 483
8442.47168 12469.45215 122.97124 489
8612.81641 12552.78125 -375.77060 472
8561.45117 12479.08789 -124.62153 483
8533.84375 12438.47070 124.53133 489
8701.66602 12517.07617 -376.69379 472
8651.83008 12445.80176 -124.89646 482
8625.42285 12405.63672 123.20922 488
8795.74707 12485.68359 -375.45288 471
8746.13672 12416.72559 -123.29514 482
8713.93066 12376.52148 123.23092 488
8888.33301 12454.50977 -376.96707 471
8834.52637 12383.04785 -125.47511 481
8806.87793 12343.95703 124.24017 488
8979.20020 12423.05176 -375.86301 471
8928.33008 12350.66113 -127.00229 481
8899.38477 12312.91992 125.04690 487
9071.43652 12390.08398 -376.37021 470
9018.72949 12321.00098 -125.83492 480
8991.35547 12281.57910 124.70094 487
9166.25586 12357.92090 -381.49637 470
9112.35254 12287.58887 -126.39633 480
9084.08301 12248.74121 121.79722 486
9257.14453 12329.29492 -380.39539 469
9208.30859 12256.08887 -125.41894 480
9175.56641 12217.34082 122.79665 486
9352.85547 12295.72559 -383.37857 469
9301.57715 12226.31641 -127.31603 479
9271.65430 12187.43848 122.55183 485
9444.49707 12264.88184 -383.04514 468
9392.61035 12195.28809 -126.15984 479
9365.28223 12155.56641 121.33042 485
9541.35449 12229.92090 -381.80344 468
9488.98340 12163.17969 -129.02187 478
9458.19727 12124.46484 121.45695 484
9637.53906 12195.89453 -384.88065 468
9580.63184 12127.19824 -131.48761 478
9553.17676 12089.72168 123.09947 484
9729.77051 12166.39355 -387.78690 467
9679.43359 12096.53223 -130.17407 477
9646.91309 12059.68945 123.53822 483
9826.12891 12130.04297 -385.07333 467
9775.40039 12062.71289 -132.02937 477
9745.34766 12024.85254 124.29778 483
9925.36426 12097.86328 -386.46613 466
9868.88770 12028.72461 -132.21260 476
9839.14648 11992.39453 121.95443 482
10018.51562 12065.24902 -389.22751 466
9963.36816 11996.89258 -132.35188 476
9933.79590 11962.98926 122.41524 482
10117.25781 12032.35156 -389.54294 465
10062.32715 11965.65527 -134.59326 475
10032.55762 11929.97949 121.56821 368
10217.51758 11997.30859 -390.13809 465
10160.59375 11933.62598 -132.65222 475
10129.86523 11900.36035 121.32996 368
10312.99902 11965.51660 -390.88364 464
10257.20996 11898.16797 -135.95871 474
10230.70215 11866.75586 120.28069 367
10410.32129 11928.53613 -394.56235 449
10354.08301 11865.40430 -134.66000 474
10331.15918 11838.53125 122.63814 367
10520.91797 11904.86426 -395.61908 448
10452.70801 11829.68945 -134.74669 473
10435.82812 11805.90137 122.29578 367
10629.26953 11884.00000 -399.19733 447
10554.55078 11797.32227 -134.32416 472
10535.94727 11777.51367 122.72696 366
10739.83301 11859.13770 -399.93933 447
10664.52441 11773.70605 -136.36310 449
10638.25781 11747.92480 122.94022 366
10853.68262 11837.62598 -403.60974 448
10778.32812 11754.72559 -139.43150 448
10741.04688 11712.82715 123.15409 366
10968.13379 11817.13184 -405.74850 447
10887.56055 11732.51465 -136.92792 447
10845.20605 11683.23340 122.73155 430
11082.18164 11793.86816 -408.14545 446
11003.48047 11710.67383 -139.35498 446
10941.84277 11648.02246 121.89583 429
11210.42969 11787.90332 -409.58160 401
11117.90430 11690.20410 -141.57886 447
11051.74023 11616.80859 121.43753 396
11359.04688 11798.57812 -410.71643 378
11231.27148 11667.68848 -141.79070 446
11170.31055 11603.93555 122.81084 443
11515.62012 11816.16309 -415.00443 377
11348.57031 11641.10938 -142.06332 445
11291.22070 11585.09863 124.06962 442
11672.57812 11830.15527 -419.45782 376
11480.24707 11638.48340 -144.98956 400
11414.22852 11568.34766 124.27925 441
11856.44922 11871.26953 -425.11707 283
11627.38574 11639.76758 -145.78995 399
11539.20215 11552.25098 119.91029 441
11769.68652 11644.43652 -148.36292 398
11664.26660 11537.42090 120.15170 442
11927.07715 11653.06641 -149.36725 376
11793.19531 11522.44043 122.64471 442
12095.21289 11673.56543 -151.91809 348
11920.13672 11502.90234 122.78832 441
12291.29199 11721.40625 -154.10762 347
12068.19238 11506.44922 120.52919 377
12236.62109 11527.61523 122.11774 376
12413.30859 11552.21973 119.50986 375
9420.58301 8430.19629 -2378.40283 1000
2569.29712 899.10339 -42.11684 327
30354.79102 10955.96875 -1467.43372 1000
2564.36670 880.37402 -41.22087 487
2570.45410 882.55414 1.64499 455
3866.59839 -430.16943 -55.60537 440
3851.00952 -427.96860 7.03626 448
3846.77222 -450.55316 -55.48723 308
3812.86035 -469.50839 -53.56129 308
3795.93823 -491.49200 -52.59080 427
3782.16431 -512.12433 -52.04451 427
3770.20166 -533.21204 -51.43597 434
3762.66089 -556.07831 -51.43539 493
3754.39331 -577.67560 -51.14955 494
3747.32568 -599.53668 -50.68848 494
3741.03882 -621.76465 -51.10293 496
3735.37305 -643.89215 -51.20025 497
3894.26099 -671.26257 4.33690 274
3729.98462 -665.12476 -51.07101 497
3806.17847 -679.36438 7.77609 498
3724.69849 -687.66785 -50.29171 497
3804.06934 -703.22125 7.42724 498
3720.08228 -709.99396 -50.42164 497
3716.86133 -732.29694 -50.75440 496
3714.04272 -754.71356 -50.88150 496
3711.00977 -777.20599 -50.65189 496
3839.03125 -805.68243 5.71942 270
3708.81470 -800.56586 -51.25795 494
3792.84937 -819.33228 6.92958 497
3853.97144 -833.07739 68.33767 403
3706.97021 -823.87842 -50.75376 494
3705.55225 -846.50891 -51.17864 494
3830.68774 -875.41528 131.12071 341
3703.71680 -869.28668 -51.42941 494
3700.93188 -892.36066 -51.81061 494
3845.09961 -927.83356 4.34672 496
3699.97998 -915.79437 -51.72157 494
3751.34521 -928.03778 7.32851 496
3697.44995 -938.29218 -51.96105 494
3695.76562 -961.71021 -51.97333 493
3693.80811 -984.59796 -52.51859 493
3692.04639 -1008.60583 -52.76122 493
3690.57275 -1031.85400 -53.24073 493
3818.60376 -1219.02295 3.02135 492
3781.41187 -1232.09143 4.18542 420
41248.87109 -24176.13086 -3788.90283 1000
2710.19531 -1929.94678 -27.90248 476
2715.84570 -1933.88892 24.76990 430
2701.50732 -1947.53564 -28.26957 418
13627.83203 -10775.04102 -2435.64038 1000
3632.15625 -4744.92188 34.57967 382
3610.71924 -4775.67090 35.02537 452
3589.04150 -4809.13623 35.56149 460
3569.35962 -4844.36279 34.38275 468
3550.35815 -4881.71973 33.99544 465
3536.34058 -4923.79395 33.21814 450
3521.76611 -4969.34033 33.39174 438
3512.44434 -5020.95752 33.31831 415
3512.43457 -5087.49609 32.54777 385
3513.58008 -5155.96729 31.04568 384
3513.97729 -5228.33301 29.83621 383
3512.39893 -5294.60596 28.25880 381
3514.73608 -5371.27148 28.66375 351
2518.14575 -3856.86792 -17.31259 303
2487.01831 -3859.74316 -16.16403 464
566.02509 -1011.91699 114.57991 1000
2166.05835 -4953.17383 47.46121 460
2008.95764 -5966.99805 33.01731 370
1950.88721 -5913.60205 34.28374 280
1902.59351 -5884.46045 34.77932 347
1858.33789 -5866.13477 35.45042 354
1815.79749 -5854.67041 36.33279 411
1828.89233 -5900.40820 237.37070 261
1773.40710 -5846.04785 36.54893 418
1784.50525 -5886.58887 135.50288 465
1775.95166 -5854.65723 235.10416 472
1733.79895 -5841.17041 37.09290 459
1742.74133 -5874.98779 136.92247 466
1741.49402 -5869.50391 235.73509 423
1693.90295 -5837.61230 37.01300 464
1703.28064 -5874.10449 136.55119 491
1702.30017 -5868.37354 235.00165 423
1654.09045 -5835.62158 37.73830 464
1665.95081 -5874.66797 136.50931 492
1663.51392 -5867.54102 236.07851 423
1616.66357 -5834.69043 37.89387 467
1625.12939 -5869.93555 135.79298 492
1625.41589 -5866.05127 234.62433 424
1579.24060 -5835.81152 36.79215 434
1587.96814 -5870.43799 136.88521 492
1586.06555 -5865.05225 235.18773 424
1539.95117 -5837.87402 37.11352 435
1550.86438 -5876.48145 137.05142 493
1547.53345 -5865.60156 234.32274 458
1502.50684 -5838.68457 38.02685 435
1512.06946 -5875.79053 136.21742 493
1509.72168 -5866.77246 234.59651 493
1466.45984 -5840.24121 38.52523 439
1473.57153 -5876.72412 135.97069 494
1473.00708 -5874.67383 234.22829 494
1429.19580 -5843.93799 38.38426 384
1446.50928 -5917.59131 136.33585 302
1448.91992 -5934.61914 235.44792 302
1457.59155 -5970.05273 336.35306 482
1447.70837 -6099.80029 136.25917 301
1452.84644 -6120.45459 238.89128 381
6475.44238 -29568.48828 -2826.63110 1000
1390.13367 -6009.42822 337.10162 484
1210.03320 -5874.25928 136.89102 370
1194.72876 -5995.16699 137.04065 496
1100.75403 -5891.16260 136.00314 496
1071.17639 -5936.54443 136.73270 471
1031.16614 -5923.08252 135.72987 470
995.97095 -5928.43262 135.87993 499
971.58807 -6012.08887 235.30281 281
276.65192 -1697.27234 217.36546 1000
390.16022 -3309.51685 79.88984 318
393.67160 -3342.29858 134.89723 418
365.19592 -3249.79785 81.38199 339
371.51202 -3324.97095 135.02016 419
341.82993 -3207.70996 81.87510 364
350.37503 -3325.59204 134.57169 477
319.50104 -3172.86060 82.02971 360
330.18512 -3327.87964 134.17892 477
297.85800 -3140.28467 83.18716 364
310.04166 -3329.09229 134.34319 477
276.92447 -3112.52563 83.39899 379
289.69705 -3330.88965 134.79892 476
255.96458 -3086.40552 84.19476 374
269.35760 -3332.76660 134.42250 476
237.52116 -3096.67847 83.80747 363
248.63965 -3334.36279 134.26144 476
220.36847 -3129.72290 83.20914 362
228.23448 -3335.63745 134.48447 477
202.61977 -3167.28662 82.98721 345
208.48941 -3337.70361 134.22617 477
183.79610 -3210.97998 81.88451 349
187.91267 -3339.63403 134.59755 476
165.57886 -3261.70166 80.91982 321
166.93748 -3348.85645 134.33008 403
146.83734 -3328.33154 79.93533 288
-304.60861 -1067.95374 58.12571 300
-303.93738 -1065.97363 76.92677 373
-303.52414 -1064.67322 95.53804 434
-303.20914 -1063.79944 114.39281 434
-302.85077 -1062.89771 132.78714 435
-302.57043 -1062.26855 151.55434 478
-302.17206 -1061.51453 170.21127 478
-302.07071 -1061.04175 188.52330 478
-301.90134 -1060.29688 207.24159 498
-301.62469 -1059.78979 225.75467 498
-301.63071 -1059.39575 244.37582 497
-309.79703 -1061.86743 20.91416 496
-309.78528 -1061.23376 39.79076 493
-309.49139 -1061.18616 58.39053 493
-309.31784 -1060.76855 77.21358 493
-309.33145 -1060.54126 95.87773 494
-309.29285 -1060.19971 114.24402 466
-309.13763 -1060.35010 132.96877 466
-309.23108 -1060.02795 151.48442 466
-309.07397 -1060.26929 170.16440 416
-309.20102 -1060.63843 188.70285 416
-309.31653 -1061.05042 207.50378 350
-310.09378 -1062.63159 226.19238 274
-15592.75293 -36944.37500 -8509.32910 1000
-6308.83594 -11395.18652 1427.74158 1000
-820.32184 -1562.78064 43.98358 407
-819.21576 -1561.35217 73.77595 459
-818.40002 -1559.62634 103.47027 459
-817.38782 -1558.57288 133.38853 491
-816.86523 -1557.61462 162.61700 491
-816.81287 -1556.68091 192.37851 499
-816.15240 -1556.33789 221.75453 499
-815.98602 -1555.85193 251.38951 482
-816.00488 -1555.84009 281.25653 398
-830.83240 -1559.02966 44.04160 312
-9818.89551 -16211.16797 4575.09961 1000
-1328.27661 -2064.29028 92.39775 495
-1327.26721 -2063.61035 133.68388 495
-1326.50317 -2062.70776 174.81789 495
-1325.82581 -2061.57300 215.55258 495
-1325.68896 -2060.93164 256.78275 495
-1324.59644 -2059.74292 297.63824 495
-12176.34766 -15631.04785 -2805.42480 1000
-42170.85547 -20769.25586 7130.14062 1000
90.09908 -3.00840 128.26326 369
89.62791 -3.13560 128.38675 310
88.58558 -3.41907 128.38670 306
90.20211 -2.90591 128.28464 371
89.65735 -3.04960 128.38652 310
88.61551 -3.32611 128.38730 306
90.30262 -2.80493 128.30377 372
89.68941 -2.96361 128.38519 310
88.64743 -3.23598 128.38538 306
90.40240 -2.70635 128.32077 373
89.72375 -2.87597 128.38751 310
88.67966 -3.14193 128.38684 306
90.50015 -2.60786 128.33865 374
89.75528 -2.79197 128.38568 310
88.71155 -3.04723 128.38704 306
90.59903 -2.50916 128.35664 376
89.79012 -2.70317 128.38760 310
88.74341 -2.95552 128.38725 306
87.53533 -3.24491 128.38571 302
90.69284 -2.41457 128.37402 377
89.82363 -2.61561 128.38779 310
88.77500 -2.86143 128.38553 306
87.56760 -3.14264 128.38693 302
90.77813 -2.32043 128.38669 314
89.85889 -2.53055 128.38744 310
88.80840 -2.76876 128.38794 306
87.59985 -3.04267 128.38618 302
90.81578 -2.24009 128.38602 314
89.89294 -2.44288 128.38774 310
88.84313 -2.67405 128.38646 306
87.63181 -2.94017 128.38556 302
90.85196 -2.15824 128.38783 314
89.92950 -2.35570 128.38676 310
88.87861 -2.58171 128.38730 306
87.66585 -2.84058 128.38663 302
90.89039 -2.07658 128.38681 314
89.96436 -2.27020 128.38643 310
88.91287 -2.48906 128.38708 306
87.70102 -2.73819 128.38739 302
90.92625 -1.99480 128.38704 314
90.00175 -2.18183 128.38522 310
88.94755 -2.39303 128.38715 306
87.73470 -2.63781 128.38509 302
90.96453 -1.91337 128.38744 314
90.03996 -2.09366 128.38687 310
88.98484 -2.29911 128.38625 306
87.77113 -2.53566 128.38734 302
86.35582 -2.81333 128.38486 298
91.00507 -1.83197 128.38737 314
90.07803 -2.00613 128.38536 310
89.02251 -2.20611 128.38702 306
87.80704 -2.43445 128.38544 302
86.39075 -2.70337 128.38632 298
91.04420 -1.75115 128.38687 314
90.11648 -1.92029 128.38779 310
89.05817 -2.11330 128.38530 306
87.84229 -2.33549 128.38829 302
86.42711 -2.59367 128.38533 298
91.08200 -1.67035 128.38622 314
90.15527 -1.83345 128.38631 310
87.96296 -2.21750 128.11690 352
87.88180 -2.23170 128.38821 302
86.46132 -2.48406 128.38710 298
91.12189 -1.58883 128.38747 314
90.19403 -1.74601 128.38525 310
87.74982 -2.15847 128.05659 351
87.74641 -2.15907 128.34885 351
86.49856 -2.37096 128.38548 298
91.16360 -1.50691 128.38759 314
90.23327 -1.65736 128.38632 310
87.52452 -2.09965 127.99521 350
87.52294 -2.09982 128.29152 350
86.53607 -2.25972 128.38477 298
91.20408 -1.42408 128.38625 314
90.27598 -1.56954 128.38594 310
87.29237 -2.03954 127.93365 348
87.29213 -2.03959 128.23393 349
86.57668 -2.15041 128.38844 298
91.24734 -1.34382 128.38655 314
90.31716 -1.48264 128.38785 310
87.11522 -1.96357 127.88226 445
87.11527 -1.96488 128.18600 446
86.61257 -2.04106 128.38705 298
91.28976 -1.25984 128.38646 314
90.35897 -1.39416 128.38777 310
87.02752 -1.87708 127.85148 445
87.02654 -1.87777 128.15848 445
86.65316 -1.92856 128.38568 298
91.33199 -1.17978 128.38637 314
90.40074 -1.30626 128.38696 310
86.93729 -1.78545 127.82125 444
86.93633 -1.78627 128.12868 444
86.69238 -1.82108 128.38651 298
91.37463 -1.09673 128.38661 314
90.44225 -1.21993 128.38612 310
86.84464 -1.69271 127.79031 443
86.84391 -1.69448 128.10185 443
86.73237 -1.70915 128.38803 298
91.41902 -1.01428 128.38536 314
90.48542 -1.13334 128.38708 310
86.87216 -1.58656 127.78651 306
86.75328 -1.60310 128.07329 442
86.75070 -1.60354 128.38266 443
91.46270 -0.93415 128.38545 314
90.53014 -1.04547 128.38670 310
86.91452 -1.47677 127.78638 306
86.65672 -1.50547 128.04015 442
86.65606 -1.50711 128.35474 442
91.50777 -0.85151 128.38756 314
90.57511 -0.95747 128.38689 310
86.95627 -1.36685 127.78717 306
86.55985 -1.40976 128.01227 441
86.56114 -1.41247 128.32854 441
91.55295 -0.76951 128.38618 314
90.62037 -0.86930 128.38791 310
86.99912 -1.25717 127.78713 306
86.46525 -1.31446 127.98248 440
86.46452 -1.31511 128.29767 440
85.22159 -1.44726 128.38791 294
91.59940 -0.68838 128.38647 314
90.66538 -0.78233 128.38550 310
87.04398 -1.14772 127.78941 306
86.36511 -1.21402 127.94925 439
86.36591 -1.21345 128.26927 439
85.26424 -1.32714 128.38736 294
91.64615 -0.60611 128.38708 314
90.71107 -0.69406 128.38742 310
87.08647 -1.03669 127.78851 306
86.29440 -1.11090 127.92509 490
86.29520 -1.11150 128.24683 491
85.30968 -1.20452 128.38689 294
91.68032 -0.52473 128.38428 476
90.75899 -0.60609 128.38728 310
87.13135 -0.92745 127.78702 306
86.26363 -1.00143 127.91070 490
86.26395 -1.00146 128.23006 491
85.35477 -1.08161 128.38498 294
91.70084 -0.44451 128.37520 477
90.80462 -0.51821 128.38741 310
87.17710 -0.81666 127.78757 306
86.23357 -0.89387 127.89381 490
86.23388 -0.89601 128.21825 491
85.39993 -0.96174 128.38712 294
91.72376 -0.36557 128.36865 477
90.85200 -0.42983 128.38737 310
87.22375 -0.70727 127.78683 306
86.20695 -0.78314 127.87824 490
86.20775 -0.78241 128.20142 490
85.44749 -0.84298 128.38719 294
91.74544 -0.28307 128.36142 478
90.90141 -0.34265 128.38533 310
87.27371 -0.59815 127.78719 306
86.17711 -0.67482 127.85841 489
86.17557 -0.67166 128.18486 490
85.49477 -0.72132 128.38777 294
91.76712 -0.20276 128.35349 478
90.95037 -0.25422 128.38577 310
87.32101 -0.48729 127.78569 306
86.14534 -0.56115 127.84290 489
86.14601 -0.56102 128.17285 490
85.54481 -0.59772 128.38535 294
91.78694 -0.12339 128.34636 479
90.99989 -0.16783 128.38609 310
87.36629 -0.37484 127.78730 306
86.11738 -0.44646 127.82439 489
86.11665 -0.44881 128.15504 490
85.59401 -0.47869 128.38692 294
91.81121 -0.04089 128.34033 479
91.04825 -0.07924 128.38585 310
87.41551 -0.26796 127.78709 306
86.08418 -0.33566 127.80814 488
86.08729 -0.33644 128.13759 489
85.64099 -0.35553 128.38676 294
91.81133 0.04058 128.32530 485
91.10068 0.00676 128.38670 310
87.46680 -0.15850 127.78943 306
86.05692 -0.21855 127.79090 488
86.05530 -0.22047 128.12471 489
85.69473 -0.23487 128.38556 294
91.78814 0.12029 128.30637 485
91.14911 0.09418 128.38705 310
87.51677 -0.04857 127.78947 306
86.08398 -0.10425 127.78766 302
86.02380 -0.10611 128.10738 489
85.74521 -0.11742 128.38547 294
91.76765 0.20250 128.28725 485
91.20206 0.18395 128.38582 310
87.56624 0.06507 127.78690 306
86.13807 0.01702 127.78908 302
86.00007 0.01223 128.09290 484
85.79537 0.00620 128.38574 294
91.74605 0.28224 128.26761 484
91.25296 0.27046 128.38704 310
87.61803 0.17233 127.78928 306
86.18719 0.13582 127.78905 302
86.03022 0.13245 128.08890 485
85.85020 0.12474 128.38774 294
91.72342 0.36765 128.24739 484
91.30772 0.35694 128.38669 310
87.67030 0.28193 127.78680 306
86.24114 0.25265 127.78777 302
86.06359 0.24934 128.08551 485
85.90021 0.24777 128.38528 294
91.70014 0.45064 128.22726 484
91.35988 0.44570 128.38602 310
87.72341 0.39299 127.78930 306
86.29347 0.37050 127.78674 302
86.09489 0.37037 128.07867 485
85.95355 0.36543 128.38504 294
91.67885 0.53462 128.20659 483
91.41287 0.53252 128.38528 310
87.78049 0.50298 127.78684 306
86.34736 0.49116 127.78918 302
86.12836 0.48747 128.07326 486
86.00845 0.48620 128.38849 294
91.65481 0.62075 128.18608 483
91.46819 0.61957 128.38727 310
87.83465 0.61348 127.78815 306
86.40252 0.61063 127.78791 302
86.15815 0.60922 128.06990 486
86.06739 0.60823 128.38618 294
