# .PCD v.7 - Point Cloud Data file format
VERSION .7
FIELDS x y z rgb
SIZE 4 4 4 4
TYPE F F F U
COUNT 1 1 1 1
WIDTH 1010
HEIGHT 1
VIEWPOINT 5164.263184 -4123.472656 139.161774 0.006483 -0.145369 0.003758 0.989349
POINTS 1010
DATA ascii
-196.00403 1.61282 53.29720 325
-196.05008 3.38489 53.28260 325
-196.04512 5.20258 53.31817 325
-196.01971 6.99350 53.29124 325
-196.03128 8.77038 53.28358 325
-195.98308 10.59590 53.30400 325
-195.95576 12.36499 53.30714 325
-281.30862 60.24745 35.90701 317
-275.57404 61.71193 37.26445 323
-291.20700 64.26658 40.08854 315
-258.38025 61.15627 35.21186 351
-272.84317 63.57800 37.82385 347
-288.84442 66.31937 40.48446 341
-256.44986 63.06264 35.67517 351
-270.85391 65.57893 38.28521 347
-286.92642 68.38120 40.91290 341
-254.57286 64.91544 36.12152 351
-269.03210 67.55227 38.59248 346
-288.70667 71.17500 40.38278 319
-252.74582 66.74811 36.50663 352
-269.18671 69.87522 38.50137 322
-251.36163 68.68719 36.83076 325
-271.28482 72.65336 37.80771 319
-253.24619 71.32752 36.17049 322
-276.76227 76.02342 36.29466 261
-255.28511 73.94031 35.48928 322
-257.24380 76.65595 34.81680 321
-36063.13672 14063.50391 4517.17578 1000
-38142.49609 15688.84180 4804.24268 1000
-49938.60938 28940.56836 971.90131 1000
-49920.02734 28929.80664 1917.49951 1000
-6724.07031 4057.42993 1967.19946 1000
-1199.68628 1948.32336 53.09297 437
-1185.69482 1954.14783 53.33397 492
-1188.23145 1957.67773 91.53011 494
-694.93823 1442.62769 23.03475 344
-680.30042 1437.36426 23.62599 462
-682.77924 1441.52710 50.13147 461
-671.35938 1441.09644 23.91292 498
-672.56659 1443.56470 50.43014 498
-674.60834 1447.04529 77.35203 495
-676.26190 1450.28564 103.92423 402
-664.99646 1451.01941 23.67263 381
-666.87872 1454.25171 50.29967 380
-15270.16699 38803.30469 -7496.82568 1000
-213.20171 934.91718 2.33991 381
-214.86737 940.50037 17.76993 381
-205.83975 932.41022 2.96678 481
-207.11577 935.57251 18.65599 440
-208.19792 939.39655 34.67239 440
-209.71519 944.32269 50.51899 378
-199.57198 932.21686 3.15843 499
-200.58511 934.85388 19.00837 499
-201.50455 937.66467 34.83297 481
-202.32549 940.58759 50.98338 481
-203.38644 943.72467 66.76580 440
-204.64066 947.82935 82.99876 381
-194.01205 934.11987 3.08586 492
-194.82097 936.45465 18.99416 492
-195.53690 938.57501 34.92160 499
-196.21196 941.08435 50.88581 498
-197.00706 943.86743 67.10787 499
-197.78265 946.07507 83.04440 497
-198.54448 948.70685 99.30637 477
-188.81772 937.70715 2.96231 460
-189.64384 940.10199 18.73590 460
-190.20549 942.27045 34.98524 460
-191.10001 944.88739 50.73012 460
-191.55046 946.92950 67.00089 467
-192.41853 949.54730 82.91087 459
-193.22212 952.06329 99.19691 408
-184.46268 943.93457 2.30785 408
-185.34866 946.87946 18.32518 408
-186.28979 950.09583 34.27254 341
-188.00275 956.15417 49.95411 265
-3188.98633 12021.19141 -2354.63599 1000
-409.08185 23875.31055 -657.30084 1000
522.95862 15322.23535 377.78827 479
619.22943 15372.50391 126.82703 464
613.43158 15285.43652 379.56360 482
709.10614 15330.96582 128.11243 468
707.65131 15247.36523 377.81848 483
804.09625 15294.79590 129.46587 472
798.31378 15210.74902 377.08948 484
895.80731 15258.12305 126.43042 473
892.78870 15176.10059 376.16504 484
985.68347 15221.02832 128.62666 473
981.64490 15142.75391 378.59903 485
1080.95752 15188.02539 127.42670 474
1074.71497 15105.65234 377.03265 485
1170.26270 15153.95508 129.69142 474
1163.37256 15075.39160 374.27859 486
2464.25952 30599.97852 -8098.82031 1000
1262.48230 15117.60254 128.35152 475
1254.66980 15037.92773 374.69217 486
1350.22192 15083.90137 130.64323 475
1347.20984 15006.70703 376.99377 487
1439.92151 15048.89844 127.83005 475
1433.41443 14972.45801 373.67868 487
1531.63440 15016.31250 130.63101 476
1526.03186 14941.40918 375.02228 487
1619.18030 14978.14844 128.95636 476
1614.95471 14906.73242 372.41040 488
1709.23779 14947.56543 130.35071 476
1702.48828 14872.29980 372.06726 489
1798.43506 14913.74316 128.69034 477
1792.75330 14840.18262 374.87241 489
1901.18164 14984.80371 -116.51749 456
1886.92285 14875.63379 128.16631 477
1879.88379 14805.67383 374.34274 490
1989.92419 14950.13379 -115.66509 456
1978.27917 14845.04004 128.36899 478
1969.29724 14775.63184 373.43515 490
2079.09937 14912.73438 -114.54167 456
2063.66431 14811.84375 128.64778 478
2057.55688 14741.71582 373.91287 490
2168.00049 14879.10352 -114.24464 457
2154.23608 14774.71777 130.38235 478
2144.81494 14706.89551 373.43222 491
2254.88867 14842.99707 -115.40858 457
2239.93066 14741.05859 128.39615 479
2230.02100 14677.36426 374.03320 491
2341.18677 14805.46387 -114.23539 457
2326.86621 14709.45410 129.48305 479
2318.44141 14644.23926 373.68579 491
2429.10742 14774.47949 -115.70557 458
2413.80444 14677.10547 129.64789 479
2405.41748 14612.48047 372.65927 494
2519.08643 14738.71973 -116.14059 458
2503.39526 14640.48340 129.06673 479
2492.28320 14579.45312 371.43747 494
2603.10767 14704.74414 -113.82973 458
2590.46313 14607.53027 130.47829 480
2578.52271 14546.47461 373.75168 495
2690.95947 14667.68555 -112.30716 458
2673.23682 14576.23145 129.57547 480
2664.39160 14517.76465 373.25870 495
2778.54419 14634.07129 -112.52529 459
2761.09424 14544.20020 128.95653 480
2749.62329 14484.65137 371.96912 495
2863.82983 14600.76660 -114.05981 478
2847.23486 14511.26172 132.46663 481
2837.61377 14453.23828 369.66858 461
2952.74854 14564.85840 -111.26127 478
2934.06885 14478.36328 128.71002 481
2923.36963 14424.95410 371.48212 422
3039.43359 14532.10352 -113.60126 478
3017.82520 14446.22363 129.23222 481
3010.53027 14393.14258 370.00473 422
3121.98779 14499.73145 -110.51086 478
3104.51514 14412.43848 129.47475 481
3095.41309 14365.44434 370.04221 422
3207.87915 14465.71289 -110.37361 479
3189.92603 14380.21094 130.47389 481
3180.48901 14335.93066 370.40689 422
3297.06641 14434.97461 -109.28144 479
3274.29517 14347.63867 130.51892 482
3267.55713 14306.63965 369.49500 422
3379.28857 14400.66113 -112.59591 479
3359.99658 14313.31543 129.75899 482
3351.59839 14278.47461 371.86078 422
3464.90894 14369.30078 -110.71415 479
3445.52905 14281.69824 129.07269 482
3438.88525 14252.48926 369.01776 301
3549.89868 14335.80469 -110.98669 479
3529.49438 14249.49219 132.94131 482
3526.74487 14235.16406 370.31561 301
3635.19922 14300.87402 -110.81799 480
3614.17627 14216.51172 129.75630 482
3612.94409 14212.22852 371.90927 301
3722.68970 14270.77246 -111.30818 480
3699.57837 14184.60938 129.28696 483
3700.45337 14196.04297 370.24014 295
3804.85400 14235.82812 -108.79322 480
3783.42749 14153.24805 130.07899 483
3948.06055 14776.11719 379.22751 490
3963.43945 14840.21387 633.57538 490
3893.03296 14206.95020 -109.55142 480
3869.21997 14117.99902 132.43018 483
4030.17603 14729.97266 382.77359 491
4049.40063 14791.09473 630.06238 490
3976.15063 14171.98242 -110.11739 480
3952.05591 14086.48633 131.89392 491
4132.30859 14734.27344 380.23297 491
4132.75537 14740.13672 629.35651 491
4059.62329 14141.83203 -109.66098 480
4035.10229 14056.68945 132.01692 491
4214.32227 14687.12598 379.44028 491
4215.15479 14691.05078 629.57605 491
4146.09082 14109.42578 -110.37412 480
4122.17041 14023.42090 131.16814 491
4297.82080 14637.39160 379.81760 492
4300.34668 14645.20605 630.47650 492
4228.15625 14076.53223 -110.16018 481
4205.99316 13992.22852 132.83548 491
4381.02002 14591.09180 382.16672 492
4380.92822 14593.58789 628.97565 492
4311.74219 14044.45605 -107.79444 481
4287.53613 13962.10938 132.62770 491
4463.90820 14542.99219 377.81955 493
4464.23438 14548.41699 630.24225 492
4396.60205 14009.46680 -107.86761 481
4371.45605 13927.07227 132.30701 491
4548.80029 14494.30664 377.51514 493
4546.73193 14501.29785 626.91156 493
4481.78076 13977.33398 -109.99805 481
4456.92725 13897.37109 131.23933 492
4631.15234 14447.27637 377.31653 493
4631.00928 14453.48438 627.80768 493
3030.66406 9160.92188 -1781.96997 1000
4566.57178 13945.00098 -106.48110 481
4540.47412 13864.29102 133.42778 492
4712.69678 14402.90332 377.57950 499
4715.02734 14408.84863 626.47870 499
4650.10352 13912.33008 -109.63950 481
4624.18164 13832.88184 132.09656 492
4799.09521 14371.29297 377.16843 499
4802.82617 14371.73828 628.25562 499
4735.25732 13880.38184 -108.71729 483
4708.41748 13802.08105 131.97160 492
4885.70020 14334.70996 380.44208 499
4889.98633 14342.67383 628.41998 499
4817.63428 13849.66602 -108.49420 483
4789.69629 13770.95117 131.22330 492
4973.43994 14303.66699 378.34793 499
4972.98096 14306.72168 628.73615 499
4902.88525 13814.91504 -107.38236 483
4873.83301 13740.38574 132.78035 492
5061.22070 14268.56055 379.60480 499
5061.57812 14274.30957 628.44586 499
4987.65771 13783.53027 -107.07923 483
4958.45215 13709.93848 130.69780 492
5135.51562 14198.12500 376.70947 476
5146.38721 14242.65039 627.61176 499
2905.68311 7775.75049 -1796.22864 1000
5069.42480 13754.49609 -108.91515 483
5043.03711 13677.77637 133.24934 492
5207.10059 14130.97949 379.66684 477
5234.32861 14208.40332 624.41174 499
5154.83936 13720.80371 -105.69067 483
5127.07812 13644.10645 133.84088 492
5137.02832 13672.34961 371.99384 431
5321.81250 14175.91113 624.30927 499
5239.40234 13686.61816 -109.30534 483
5209.37891 13613.18848 131.01089 492
5217.85449 13639.74707 369.16357 431
5407.32275 14140.02930 628.22375 499
5321.75146 13654.59277 -109.46447 483
5294.04150 13583.13477 133.37451 492
5300.67188 13604.92773 369.58911 431
5458.23975 14014.20508 623.41730 361
5404.12793 13622.85742 -106.10027 483
5375.14307 13551.11328 133.89154 492
5384.14160 13572.55371 371.72662 432
5545.15869 13983.73926 625.15277 361
5488.47168 13590.53027 -108.45525 483
5461.03320 13519.27246 131.84644 492
5468.16992 13537.97363 370.53903 432
5633.23389 13953.30176 622.08264 361
5686.08643 14086.15430 875.02728 499
5761.69189 14273.50586 1138.82593 462
5571.87891 13557.69043 -106.02421 483
5544.19531 13490.32520 133.15527 492
5552.18018 13510.12305 371.19608 438
5719.13770 13925.12402 625.09650 361
5772.18701 14054.84277 877.32422 499
5830.47559 14199.62891 1137.79553 477
5655.21094 13527.96484 -109.16379 483
5629.54834 13458.15625 133.40091 492
5638.99316 13481.21484 368.61227 387
5809.83936 13897.15430 624.35406 328
5861.31592 14021.19336 878.81805 499
5919.16504 14163.61035 1136.24365 361
5740.67725 13493.45215 -107.72435 483
5709.69775 13427.97559 132.43864 492
5722.64307 13453.65625 370.39389 387
5927.65918 13942.99219 628.14575 499
5935.61182 13964.68164 875.65350 462
5826.03662 13462.67090 -109.24001 483
5795.72461 13394.43066 132.19316 492
5910.52246 13664.97266 374.76590 499
5998.06494 13871.42578 625.31744 463
5998.59473 13877.38965 871.19824 462
6046.20459 13983.90234 1126.10962 367
5909.03809 13431.37207 -109.28279 483
5878.10547 13364.95117 130.16621 492
5996.00342 13635.56934 377.11893 499
6059.70459 13783.93359 624.30914 464
6062.70996 13789.51172 870.46332 463
6109.26123 13889.70605 1123.42249 367
5993.51660 13397.04785 -106.19845 482
5961.05029 13332.08398 130.94994 492
6083.52783 13600.87695 374.96414 499
6122.37744 13694.42480 621.08087 464
6124.17188 13702.10938 867.69623 464
6169.82861 13800.33691 1118.41895 368
6075.99365 13365.69238 -106.43311 482
6048.78027 13300.85547 133.33011 491
6168.67969 13568.16895 375.25650 499
6187.11328 13614.09375 621.94165 499
6190.84521 13619.85449 867.11957 499
6230.11475 13710.18945 1115.54224 368
6159.16016 13334.02441 -107.70721 482
6128.70508 13268.81152 132.59615 495
6251.89062 13533.49609 373.67117 499
6274.42090 13581.11523 620.58789 499
6276.89746 13587.18848 864.76038 498
6311.96777 13667.28711 1117.64832 389
6420.88232 13911.42285 1383.55896 485
6367.24219 13790.49512 2125.90698 302
6367.77100 13788.02637 2378.52002 482
6243.62598 13302.01465 -106.97085 482
6213.09912 13238.23535 132.49144 494
6335.95215 13502.91504 373.99826 499
6348.80420 13524.18457 618.97491 499
6348.88477 13526.24121 863.15924 498
6401.90088 13639.47461 1118.16016 389
6451.09668 13749.12695 1373.42725 305
6330.60449 13269.91797 -108.21491 482
6297.46289 13207.43848 130.40703 494
6424.48584 13468.17285 375.15439 499
6431.02637 13488.30664 621.25232 499
6431.93506 13493.99707 864.40369 498
6486.64746 13607.21191 1118.82666 389
6597.92676 13844.68652 1385.74976 485
6412.71729 13238.15527 -106.53657 482
6384.02295 13172.14648 133.17371 494
6510.37109 13437.48047 376.11075 499
6519.15234 13456.38184 621.28369 498
6518.99854 13460.85742 865.49078 498
6578.79248 13580.39844 1117.52234 389
6667.76514 13771.22461 1382.15198 453
6499.45801 13207.56152 -108.08662 482
6467.37598 13141.29883 130.83932 494
6594.56982 13404.27832 374.71826 499
6603.11230 13424.73242 619.22968 498
6607.61035 13426.58789 864.47162 498
6664.63672 13549.32324 1120.58289 389
6759.74072 13739.47656 1384.10742 470
6583.56836 13172.47949 -106.61766 482
6550.01855 13112.42188 132.43269 494
6680.55225 13369.99414 376.87033 498
6688.50146 13390.89551 620.37231 498
6692.07178 13395.50586 865.33600 498
6754.88818 13520.68066 1119.96436 389
6863.20312 13747.32422 1390.40894 484
6667.83301 13139.58105 -108.53539 482
6637.42480 13078.90625 133.88536 494
6766.07324 13337.31348 378.08347 498
6777.64697 13359.00391 619.84552 498
6778.77686 13360.66016 866.54053 498
6841.77246 13491.68848 1121.79834 389
6952.23389 13711.94824 1389.78052 484
6754.07031 13108.89648 -108.56841 481
6720.05371 13049.81836 133.66396 494
6852.50879 13306.70605 378.42099 498
6860.76611 13327.44922 623.68335 498
6865.80859 13328.33496 866.84009 498
6930.31104 13460.95996 1121.44299 389
6838.70898 13078.06445 -108.73329 481
6805.25391 13016.05371 132.17996 493
6959.34814 13317.94922 379.35910 498
6948.75391 13295.39453 623.91284 498
6951.10840 13298.48047 866.21472 497
7021.20605 13435.25000 1122.66003 389
6923.69580 13044.34668 -109.13580 481
6890.67822 12985.31250 133.25169 493
7046.72412 13281.74902 376.38931 498
7047.95703 13289.04590 621.25806 497
7049.26855 13291.06543 868.42615 497
7109.72168 13405.15430 1123.09705 388
7004.94434 13012.16992 -108.19117 481
6974.43701 12953.18555 134.11629 493
7134.77637 13252.19043 376.31937 497
7137.19922 13254.79883 625.29950 497
7138.39990 13258.12891 871.92816 497
7198.02490 13373.45312 1125.80701 388
7090.75781 12977.10059 -109.04655 481
7059.79346 12920.54980 131.33006 493
7218.87305 13218.06934 376.95035 497
7224.45898 13220.19824 623.73792 497
7225.12695 13224.55762 870.06354 497
7288.09180 13343.30273 1126.13806 388
7178.88965 12944.04297 -109.54131 481
7145.57471 12888.68457 131.51562 493
7306.17627 13184.87207 377.40118 497
7309.51660 13188.20215 623.09796 497
7313.18066 13189.22656 869.02161 497
7379.18408 13317.95801 1127.62695 388
7262.15234 12911.88770 -107.33891 480
7232.70264 12855.97363 132.20036 492
7395.80957 13151.45898 378.30130 497
7398.69043 13154.46191 625.81970 497
7398.55176 13157.82520 870.61505 496
7529.23877 13394.70898 1135.68298 466
7350.34766 12880.70801 -109.44403 480
7317.54736 12823.56641 130.25433 492
7482.09521 13116.17090 378.92813 497
7483.75391 13120.17188 627.27191 496
7484.11914 13122.75195 873.12823 496
7616.73682 13362.12891 1137.17542 465
7434.70605 12848.82812 -110.97115 480
7404.45801 12795.28223 133.28923 492
7575.09424 13097.62695 380.67581 438
7576.03662 13096.29785 627.93384 438
7574.94043 13093.39941 872.37866 438
7715.95850 13342.11914 1139.91394 437
7519.08887 12816.02930 -111.25188 480
7489.71582 12762.40234 134.02719 492
7685.29248 13101.79102 378.19287 464
7696.18311 13119.30469 626.92480 437
7699.05615 13121.14746 875.68341 437
7822.13135 13337.76660 1142.50476 437
31554.97852 54257.45703 15843.16211 1000
7576.92529 12792.89648 -103.10184 480
7543.93359 12741.58496 138.40173 494
7760.84082 13109.52148 385.23260 463
7789.52441 13156.60254 638.45154 436
7786.77490 13160.46777 888.78528 335
7662.34619 12761.98633 -103.16385 479
7630.13770 12708.29102 137.63306 494
7867.66162 13110.25781 388.14743 462
7899.28516 13160.73340 640.26666 461
7931.98242 13216.86133 893.31488 430
7749.30420 12726.91504 -104.17632 479
7718.68994 12676.02637 137.90121 493
7974.94629 13105.38965 388.59732 461
8005.52441 13159.11621 641.41675 460
7836.70117 12696.53125 -103.09924 479
7806.93945 12645.28809 136.88127 493
8084.65967 13104.98633 390.23422 461
8115.59326 13153.11328 642.10052 460
7922.12598 12663.70215 -102.93062 479
7894.05762 12612.91016 138.57027 493
8196.58398 13102.34766 391.53891 460
8012.81348 12627.10059 -103.68626 478
7981.50830 12579.51855 140.99884 492
8314.94824 13112.38281 393.71411 440
8097.74512 12594.45312 -104.75645 486
8070.18750 12548.74219 137.59645 492
8188.27002 12563.14648 -104.84772 485
8155.35693 12518.17480 137.81412 492
8273.31445 12530.67871 -105.19447 485
8244.95020 12483.98535 140.81552 491
8364.59961 12496.91113 -105.40524 485
8332.67773 12451.58691 140.00035 491
8453.81348 12464.73438 -104.68883 484
8422.69922 12417.97949 140.76318 491
8541.54590 12431.61816 -107.00168 484
8510.44629 12384.50293 139.71198 490
8629.09180 12399.63477 -106.24251 484
8599.72168 12351.47852 138.54170 490
8718.81250 12362.56934 -106.33921 483
8687.46289 12322.06445 141.05971 490
8809.33008 12333.15527 -105.16940 483
8777.46582 12289.64355 140.73117 489
8898.95703 12299.38379 -106.65674 482
8869.38281 12253.37305 140.38312 489
8991.27734 12265.66113 -105.72137 482
8958.55957 12222.55469 143.17140 488
9082.14258 12228.98047 -108.68807 482
9051.53906 12186.58496 141.01057 488
9171.85742 12197.17383 -106.09718 481
9141.36914 12156.22363 139.90092 488
9264.65430 12161.81641 -108.42649 481
9231.28711 12121.40039 141.35963 487
9410.29395 12201.00391 -360.63687 470
9355.89355 12129.51270 -108.42745 480
9325.26465 12089.18848 143.33981 487
9503.27734 12164.18750 -362.78445 470
9446.70117 12092.31445 -106.63523 480
9417.97168 12053.76172 144.17155 486
9595.00586 12130.47754 -360.63892 469
9541.02148 12058.52441 -106.21388 480
9506.53516 12018.91699 144.06409 486
9691.62207 12095.54883 -362.31451 469
9635.18848 12023.91113 -109.74883 479
9601.47266 11985.95312 144.01576 485
9782.01562 12060.14941 -364.64017 468
9727.33496 11989.70117 -106.93388 479
9694.09961 11948.98340 142.71303 485
9878.92285 12024.60254 -365.26920 468
9820.28613 11953.06836 -106.91498 478
9788.84668 11917.78906 143.03404 484
9971.83203 11986.82031 -363.91629 468
9914.48438 11918.08398 -107.48789 478
9883.59277 11880.19629 142.70993 484
10067.45312 11953.11523 -364.31091 467
10009.64160 11885.43262 -108.56305 477
9976.42871 11848.76465 145.30119 483
10161.72852 11919.30664 -368.10788 467
10100.94922 11849.25684 -110.81030 477
10072.01074 11813.07129 142.87126 483
10254.53613 11881.03418 -365.97379 466
10200.16797 11814.51367 -109.88010 476
10165.93066 11776.59375 142.50226 482
10354.16309 11845.65527 -368.61914 466
10293.12305 11779.35156 -111.16021 476
4634.40674 5345.01953 5.32272 368
10446.57227 11808.42480 -368.56671 465
10388.79492 11744.76562 -110.11819 475
10361.51172 11711.27637 145.98239 368
10545.73535 11770.73730 -368.52420 465
10485.87500 11706.11621 -109.56606 475
10460.90430 11680.33691 144.97981 367
10643.86426 11737.34277 -373.06470 464
10584.89941 11672.12305 -109.94833 474
10561.63086 11649.85449 146.58153 367
10740.22656 11700.55273 -373.78265 464
10679.93457 11635.81250 -113.71513 474
10665.81543 11620.07422 145.26639 367
10839.98438 11666.23340 -372.01321 448
10779.99805 11598.74512 -113.27009 473
10762.59863 11585.62793 144.31650 432
10948.83203 11638.23340 -374.74033 447
10877.74316 11560.19629 -112.64816 472
10861.07617 11545.01953 144.58157 431
11060.89844 11610.56055 -375.66193 447
10979.30273 11529.74121 -111.60919 449
10959.26270 11508.15820 147.20840 431
11171.79492 11585.30762 -379.55618 448
11087.99414 11503.75000 -112.20228 448
11059.74316 11470.26465 148.23343 397
11283.09961 11563.97168 -379.75354 447
11200.31641 11476.53613 -117.12347 447
11163.50391 11439.57422 148.02048 397
11395.32227 11534.74414 -381.06012 446
11313.21875 11454.52734 -116.17740 446
11276.52832 11410.47559 147.32854 396
11514.30664 11513.22754 -383.43256 445
11429.52832 11427.54004 -116.47859 446
11384.05859 11381.98047 148.36450 396
11650.40527 11508.18066 -387.01224 400
11544.01074 11402.51855 -117.83331 446
11491.96289 11355.25195 148.72266 395
26736.19531 26522.85938 2013.19958 1000
11804.93848 11517.04883 -390.26334 377
11661.15332 11377.16699 -117.79172 445
11607.51367 11326.47266 147.24820 442
11960.11719 11529.47949 -393.67740 376
11774.44434 11349.28027 -120.62014 445
11737.08203 11311.34766 147.32056 320
12119.35645 11540.17480 -398.48953 375
11914.49219 11345.56738 -121.28036 399
11865.34668 11299.05176 147.76753 319
12333.33398 11603.75000 -401.74014 282
12059.70508 11343.52832 -123.75651 398
12207.38184 11344.17480 -125.50727 397
12362.33887 11345.54102 -126.95540 375
12539.65039 11370.90039 -126.09974 347
12737.25098 11407.89258 -131.11673 346
13163.58789 11796.33594 148.72772 410
13229.14160 11709.86914 150.46748 384
41132.98828 34328.60156 -10455.35254 1000
2685.70630 833.31647 -87.57589 398
2685.32690 815.65906 -87.34632 499
2690.07959 817.38824 -42.60287 478
2695.27612 818.54211 2.07224 367
7747.61914 2349.15015 -1863.74915 1000
3953.63599 -488.49350 -54.27600 436
3932.20996 -510.01620 -53.94900 471
3966.40161 -538.79962 -119.89938 430
3917.75781 -532.44720 -53.01504 459
3946.14990 -560.39056 -119.18793 414
3905.01978 -554.56604 -52.84233 455
3920.59814 -580.41791 -117.08553 475
3893.70850 -576.33484 -52.93053 463
3907.58325 -602.93884 -117.28561 477
3886.35864 -599.79047 -51.93241 396
3894.85693 -624.42401 -115.76248 477
3880.63232 -622.57300 -52.73853 393
3885.89624 -647.66461 -115.44064 489
3874.97241 -645.14093 -51.64369 392
3877.32935 -669.66864 -115.32582 489
3870.37524 -668.15198 -52.59995 444
3868.64819 -691.98901 -115.87669 486
4049.80591 -725.01337 -60.68785 374
3862.24414 -714.45923 -115.11107 487
4054.00586 -751.55426 -61.11511 319
3853.31104 -737.27588 -115.12460 331
3930.98218 -752.60645 -56.04317 498
3842.22729 -758.48016 -114.90903 331
3896.38477 -769.53699 -54.74028 498
3832.28760 -780.38446 -113.88313 332
3894.05884 -793.63177 -54.96202 498
3824.54028 -803.70178 -114.23595 332
3892.05566 -817.13440 -55.17010 416
3818.37012 -826.17090 -114.37143 332
3812.02661 -847.98413 -114.24438 333
3933.45947 -875.56390 -57.25750 497
3806.14844 -871.45465 -114.06411 434
3888.19458 -890.48676 -55.42996 497
3804.93750 -894.67096 -113.68736 331
3879.68726 -913.15723 -55.55858 497
3937.32178 -927.04993 6.35832 497
3918.93311 -922.37891 71.67090 496
3802.64331 -918.61029 -113.97696 331
3924.74292 -948.45825 6.61772 497
3920.22607 -947.29132 71.86467 399
3800.77710 -942.51532 -114.96303 331
3799.90942 -966.12518 -115.04462 331
4010.05103 -1021.05219 -62.80360 287
3798.00049 -989.90131 -114.94478 331
3864.29761 -1007.50122 -55.20924 284
3796.71411 -1014.61639 -116.05097 331
3835.41895 -1024.83191 -54.37162 496
3794.71558 -1038.43469 -116.13207 331
3793.64941 -1062.04211 -116.59074 330
4042.65186 -1133.57312 -65.16399 445
3791.48267 -1086.42175 -117.08125 330
4035.01416 -1157.54199 -65.77297 443
3950.93164 -1133.51501 69.84801 488
3790.70142 -1110.77478 -116.95208 330
4027.16992 -1181.93579 -65.28311 445
3789.10278 -1135.58582 -117.44479 330
4022.89917 -1206.58362 -65.39588 434
3787.64575 -1159.44202 -117.59203 330
4019.07617 -1232.30640 -66.58694 434
3785.87402 -1183.91980 -118.42131 330
4024.92700 -1260.12402 -66.56746 324
3784.62817 -1208.96912 -118.38697 330
4021.68921 -1285.84973 -66.52378 324
3783.10718 -1233.67883 -118.86578 330
4017.99121 -1312.06714 -67.41136 324
3781.59302 -1257.80798 -119.71149 329
4013.70630 -1337.44702 -67.34883 324
3780.85864 -1282.61304 -120.51863 329
4011.42065 -1363.45044 -67.91718 305
3779.13574 -1308.12769 -120.67818 329
3777.81885 -1332.79065 -120.92216 329
8369.79980 -2993.81323 1299.20703 1000
2763.66357 -1994.80615 -84.92957 474
2769.91748 -1999.09998 -30.68062 471
2755.35596 -2014.35645 -84.58640 422
35543.99609 -47572.65625 1111.08557 1000
3629.04492 -4801.91162 -62.14518 399
3608.65405 -4836.04297 -62.63038 462
3589.70874 -4872.80713 -63.46142 435
38740.05469 -53908.14453 13333.66602 1000
3571.60767 -4910.94678 -64.07568 434
3553.75537 -4948.80566 -64.87780 430
3538.24170 -4991.16016 -65.61669 415
3524.64429 -5038.00732 -67.09975 409
3509.30396 -5290.04932 -74.07789 375
3508.25781 -5359.25635 -76.32317 374
3505.74194 -5429.88965 -78.37289 378
2523.14941 -3917.48462 -18.61886 440
21379.14648 -42551.69141 1011.48065 1000
2148.00586 -5004.85107 -33.67239 491
2001.90210 -5958.95605 41.01685 448
1957.00171 -5943.69238 41.47887 452
1912.64880 -5929.47803 41.18851 461
1869.05139 -5917.15088 42.27288 446
1826.31580 -5908.41602 42.31649 450
1786.15942 -5899.58643 42.33571 425
1744.01636 -5894.61475 41.77018 429
1704.87805 -5888.30615 42.92830 430
1711.96497 -5918.57568 142.06310 490
1665.09375 -5884.36328 41.81395 431
1673.70569 -5919.04785 141.44926 490
1624.51196 -5880.17871 42.29823 434
1634.43542 -5916.68701 142.68713 494
1585.15234 -5877.31543 43.08958 436
1594.09570 -5912.47705 141.21075 491
1547.52295 -5876.14453 41.76007 437
1555.31104 -5911.79736 141.80904 492
1507.82654 -5874.33008 43.29944 438
1518.47522 -5917.00195 141.97331 492
1469.63257 -5872.56152 42.03203 469
1479.15967 -5916.88184 141.26991 492
1431.42932 -5871.11084 42.11223 470
1441.30908 -5916.46875 140.59566 493
1460.01880 -5996.03027 242.75160 493
1393.60791 -5870.06201 43.38051 468
1406.99329 -5932.24316 140.50664 306
1421.30444 -5995.39697 241.24840 493
1354.80005 -5869.01221 42.46609 468
1405.31726 -6100.75146 141.00058 493
1382.09290 -5996.16699 242.43704 487
1317.71667 -5868.51367 43.57067 492
1344.47510 -5996.12305 241.31770 497
1279.68970 -5868.48584 43.15491 492
1310.79224 -6023.29297 242.57672 317
1241.86475 -5867.89160 42.90395 493
1204.93616 -5867.04102 43.09012 493
1168.19958 -5867.04834 43.69685 493
1131.28418 -5870.06738 43.16475 495
1092.92847 -5866.17920 43.41357 434
1057.60083 -5868.12354 43.31006 496
1036.69800 -5971.87012 41.45712 496
998.77942 -5966.44189 41.97320 418
996.56152 -5961.63672 139.96901 438
962.88837 -5976.64893 40.46620 426
961.24884 -5971.46289 140.81384 305
566.92145 -4654.38232 61.64416 458
411.51880 -3334.01685 26.96183 287
411.98312 -3340.29541 81.09576 410
384.08710 -3254.68091 29.05713 311
390.09268 -3323.61182 81.85279 476
359.99139 -3205.13159 30.45409 334
369.82169 -3325.15869 81.62943 476
336.30954 -3164.58838 31.70452 335
349.07465 -3325.43164 81.09628 476
314.49814 -3126.52002 33.42019 342
328.25516 -3327.29004 81.81815 478
293.46521 -3095.39575 34.24065 372
308.45370 -3328.59692 81.38419 354
273.59033 -3086.29224 34.58359 366
287.44427 -3330.75220 81.49337 354
256.09952 -3120.33179 33.08545 357
285.77075 -3672.11255 76.17970 382
239.01865 -3158.93286 32.03486 336
246.44966 -3324.34180 81.68505 313
221.59352 -3202.89941 30.89327 335
226.45404 -3324.30957 81.10703 313
203.35135 -3251.47852 29.21586 313
206.18460 -3323.51660 80.75038 313
185.82228 -3325.70776 26.95941 296
185.34599 -3321.93774 81.14983 307
-18692.16992 -67091.00781 3576.79248 1000
-222.11536 -1058.08972 150.59555 354
-221.98810 -1056.60522 168.57407 354
-221.58659 -1055.76013 186.61131 419
-221.32741 -1054.73718 204.84773 419
-221.21550 -1053.95459 222.94786 467
-221.13139 -1053.16101 240.80882 467
-228.39265 -1055.50732 23.88040 466
-228.06354 -1054.85156 41.98475 467
-227.99008 -1054.36780 60.12147 494
-227.78633 -1053.95593 78.47358 494
-227.92204 -1053.48938 96.38415 494
-227.67889 -1052.96802 114.47443 498
-227.75647 -1052.66150 132.58144 498
-227.60559 -1052.22668 150.62527 498
-227.37508 -1052.15149 168.69061 498
-227.58871 -1051.82227 186.64948 476
-227.59239 -1051.72241 204.73781 476
-227.34850 -1051.67126 222.72833 476
-227.34752 -1051.61633 241.06947 432
-235.03432 -1054.19910 23.65270 431
-235.12634 -1054.23462 41.97973 431
-235.16602 -1054.78406 60.12319 370
-235.32288 -1055.07141 78.17579 370
-235.68842 -1056.54675 96.31699 296
-747.18372 -1544.25439 247.24080 397
-757.44269 -1540.56262 45.23065 487
-757.20966 -1540.09985 74.43235 499
-756.70282 -1539.28833 103.47749 499
-756.43628 -1539.08057 132.24673 487
-756.48657 -1538.50916 161.08171 487
-756.52899 -1538.32800 189.53996 450
-756.52563 -1538.50562 218.40642 395
-757.01007 -1539.02551 247.32674 394
-23793.04688 -37446.96094 5973.60498 1000
-1274.79468 -2039.38843 171.68027 274
-1273.81592 -2037.50256 211.94821 274
-1272.72961 -2036.44067 252.09180 349
-30195.29492 -42188.62109 -10210.11914 1000
-63471.48438 -23361.27344 3437.38916 1000
90.08241 -3.02486 127.88395 373
90.08401 -3.02511 128.14330 374
90.03615 -3.03613 128.38570 306
88.89408 -3.32492 128.38762 302
90.18744 -2.91981 127.90136 374
90.18832 -2.92038 128.15727 375
90.07938 -2.94593 128.38612 306
88.93675 -3.22769 128.38680 302
90.29252 -2.81521 127.91917 376
90.29118 -2.81446 128.17567 376
90.12077 -2.85628 128.38535 306
88.97701 -3.12992 128.38680 302
90.39594 -2.71350 127.93551 377
90.39574 -2.71239 128.19005 377
90.16425 -2.76624 128.38718 306
89.01763 -3.03461 128.38708 302
87.68524 -3.34599 128.38591 298
90.49671 -2.61080 127.95288 378
90.49546 -2.61125 128.20511 379
90.20701 -2.67687 128.38667 306
89.06100 -2.93711 128.38669 302
87.73009 -3.23923 128.38759 298
90.59589 -2.51175 127.96661 379
90.59769 -2.51067 128.21840 380
90.25220 -2.58701 128.38609 306
89.10514 -2.84066 128.38614 302
87.77150 -3.13453 128.38573 298
90.69559 -2.41323 127.98373 381
90.69528 -2.41195 128.23438 381
90.29798 -2.49673 128.38759 306
89.14976 -2.74278 128.38664 302
87.81287 -3.03066 128.38649 298
90.79338 -2.31367 127.99679 382
90.79510 -2.31510 128.24669 383
90.34232 -2.40654 128.38560 306
89.19321 -2.64714 128.38718 302
87.85821 -2.92428 128.38771 298
90.89214 -2.21707 128.01210 383
90.89139 -2.21560 128.25960 384
90.38899 -2.31680 128.38733 306
89.23880 -2.54846 128.38609 302
87.90084 -2.81648 128.38734 298
90.98823 -2.11977 128.02568 384
90.98846 -2.12052 128.27216 385
90.43296 -2.22948 128.38580 306
89.28563 -2.45226 128.38704 302
87.94666 -2.71434 128.38576 298
91.08317 -2.02421 128.03873 386
91.08302 -2.02423 128.28583 386
90.48131 -2.13777 128.38617 306
89.33194 -2.35514 128.38530 302
87.99357 -2.60809 128.38635 298
86.41479 -2.90488 128.38525 294
91.17753 -1.93150 128.05083 387
91.17852 -1.92951 128.29617 387
90.53027 -2.04810 128.38727 306
89.37933 -2.25709 128.38702 302
88.03943 -2.50184 128.38640 298
86.46072 -2.79057 128.38730 294
91.27186 -1.83620 128.06400 388
91.26984 -1.83615 128.30988 389
90.57589 -1.95945 128.38628 306
89.42749 -2.16023 128.38623 302
88.08696 -2.39585 128.38834 298
86.50739 -2.67551 128.38760 294
91.35281 -1.74494 128.07220 469
91.35423 -1.74714 128.31654 470
90.62634 -1.86861 128.38657 306
89.47269 -2.06418 128.38541 302
88.13478 -2.29116 128.38731 298
86.55604 -2.55822 128.38690 294
91.37560 -1.66423 128.06589 470
91.37344 -1.66547 128.31079 471
90.67461 -1.77896 128.38751 306
89.52236 -1.96735 128.38593 302
87.97269 -2.22199 128.34348 350
86.60380 -2.44276 128.38501 294
91.39695 -1.58384 128.05943 470
91.39703 -1.58436 128.30167 471
90.72620 -1.68954 128.38527 306
87.74043 -2.15817 127.98752 349
87.74020 -2.16001 128.28676 349
86.65199 -2.32901 128.38528 294
91.41895 -1.50452 128.04982 471
91.41895 -1.50253 128.29556 472
90.77389 -1.60079 128.38705 306
87.49997 -2.09298 127.92294 347
87.50201 -2.09433 128.22806 348
86.69872 -2.21357 128.38567 294
91.44016 -1.42178 128.04248 471
91.44102 -1.42097 128.28717 472
90.82706 -1.51121 128.38745 306
87.25140 -2.02793 127.85897 346
87.25147 -2.02699 128.16866 346
86.74832 -2.09956 128.38654 294
91.46095 -1.34095 128.03590 472
91.46112 -1.34179 128.28178 473
90.87749 -1.42018 128.38531 306
87.09486 -1.94292 127.81269 444
87.09605 -1.94307 128.12645 445
86.79854 -1.98264 128.38728 294
91.48427 -1.25967 128.02831 473
91.48335 -1.25773 128.27423 474
90.92851 -1.33322 128.38530 306
87.03062 -1.84511 127.78780 302
86.99911 -1.85065 128.09846 444
86.85072 -1.86969 128.38803 294
91.50559 -1.17557 128.01988 473
91.50580 -1.17746 128.26526 474
90.98372 -1.24331 128.38615 306
87.07990 -1.73386 127.78866 302
86.90453 -1.75456 128.06847 443
86.90442 -1.75593 128.38533 294
91.52791 -1.09304 128.01030 474
91.52653 -1.09321 128.25780 475
91.03662 -1.15290 128.38557 306
87.13050 -1.61807 127.78883 302
86.80807 -1.65763 128.03885 442
86.80663 -1.65759 128.35982 443
91.55030 -1.01201 128.00388 474
91.55022 -1.01073 128.24944 475
91.08819 -1.06406 128.38731 306
87.18234 -1.50780 127.78651 302
86.71171 -1.55787 128.00999 441
86.70857 -1.56117 128.33012 442
91.57218 -0.92948 127.99366 475
91.57259 -0.92768 128.24234 476
91.14355 -0.97469 128.38574 306
87.23504 -1.39301 127.78590 302
86.61185 -1.45866 127.97872 440
86.61167 -1.45745 128.30283 441
91.59337 -0.84682 127.98663 475
91.59440 -0.84665 128.23428 476
91.19866 -0.88599 128.38698 306
87.28603 -1.27901 127.78909 302
86.50683 -1.35876 127.94801 439
86.50899 -1.35826 128.27280 440
85.22538 -1.48680 128.38481 290
91.61709 -0.76199 127.97669 476
91.61677 -0.76072 128.22424 477
91.25405 -0.79734 128.38722 306
87.34044 -1.16638 127.78751 302
86.40681 -1.25352 127.91580 438
86.40321 -1.25598 128.24634 439
85.27837 -1.35931 128.38664 290
91.63854 -0.67896 127.96770 476
91.63905 -0.67875 128.21695 477
91.31158 -0.70595 128.38570 306
87.39655 -1.05301 127.78677 302
86.30282 -1.15090 127.88670 491
86.30354 -1.14828 128.21523 492
85.33687 -1.23520 128.38623 290
91.66314 -0.59492 127.96114 477
91.66038 -0.59516 128.20927 478
91.36783 -0.61731 128.38716 306
87.45027 -0.94128 127.78565 302
86.27464 -1.03887 127.86676 491
86.27481 -1.03539 128.20085 491
85.39357 -1.11047 128.38791 290
91.68526 -0.50965 127.95218 477
91.68453 -0.50939 128.20062 478
91.42482 -0.52948 128.38609 306
87.50579 -0.82813 127.78638 302
86.24511 -0.92209 127.84953 490
86.24234 -0.92193 128.18506 491
85.45216 -0.98478 128.38510 290
91.70734 -0.42401 127.94046 478
91.70806 -0.42391 128.19109 479
91.48087 -0.44099 128.38625 306
87.56515 -0.71401 127.78593 302
86.21416 -0.80669 127.83438 490
86.21194 -0.80842 128.17085 491
85.51206 -0.85945 128.38853 290
91.73066 -0.33974 127.93250 478
91.72896 -0.33968 128.18298 479
91.54112 -0.35304 128.38754 306
87.61935 -0.60129 127.78638 302
86.18356 -0.69309 127.81635 490
86.17969 -0.69089 128.15184 491
85.56763 -0.73161 128.38475 290
91.75301 -0.25374 127.92462 479
91.75298 -0.25522 128.17447 480
91.59876 -0.26290 128.38519 306
87.67913 -0.48996 127.78819 302
86.14890 -0.57713 127.79669 490
86.14961 -0.57620 128.13448 490
85.62950 -0.60677 128.38844 290
91.77568 -0.16815 127.91296 479
91.77663 -0.16793 128.16444 480
91.65730 -0.17440 128.38771 306
87.73632 -0.37435 127.78838 302
86.15997 -0.45881 127.78577 298
86.11933 -0.46032 128.12109 490
85.69077 -0.48179 128.38574 290
91.79949 -0.08242 127.90507 480
91.79749 -0.08265 128.15742 481
91.71791 -0.08532 128.38554 306
87.79565 -0.26454 127.78754 302
86.21849 -0.33641 127.78689 298
86.08502 -0.33950 128.10147 490
85.75241 -0.35432 128.38695 290
91.81993 0.00475 127.89446 485
91.82045 0.00428 128.14610 486
91.77908 0.00309 128.38757 306
90.62807 -0.04167 128.38521 302
86.27930 -0.21077 127.78792 298
86.05617 -0.22224 128.08340 489
85.81445 -0.22922 128.38567 290
91.79606 0.09011 127.87222 485
91.79762 0.08920 128.12486 486
91.79723 0.09009 128.37730 487
90.68826 0.05294 128.38797 302
86.33986 -0.09244 127.78635 298
86.02414 -0.10287 128.06714 489
85.87939 -0.10664 128.38707 290
91.77433 0.17528 127.85049 484
91.77528 0.17498 128.10516 485
91.77410 0.17529 128.35738 486
90.75130 0.14672 128.38632 302
86.40233 0.02940 127.78939 298
86.00352 0.02050 128.05385 485
85.94534 0.02113 128.38623 290
91.75208 0.26295 127.82592 484
91.75198 0.26238 128.08293 485
91.75197 0.26303 128.33647 486
90.81187 0.24292 128.38550 302
86.46404 0.15290 127.78853 298
86.03498 0.14554 128.04950 486
86.00983 0.14504 128.38437 290
-20467.58398 -422.59796 3528.50854 1000
91.72706 0.35014 127.80440 484
91.72700 0.35080 128.06125 485
91.72849 0.34861 128.31584 486
90.87692 0.33703 128.38664 302
86.52762 0.27415 127.78661 298
86.06731 0.26616 128.04131 486
86.06905 0.26818 128.38727 487
91.70464 0.43774 127.78018 483
91.70295 0.43820 128.03987 484
91.70226 0.43819 128.29590 485
90.93990 0.43203 128.38673 302
86.59287 0.39669 127.78626 298
86.10275 0.39254 128.03546 487
86.10263 0.39258 128.38156 487
91.68069 0.52943 127.75820 483
91.67876 0.52847 128.01785 484
91.67799 0.52838 128.27698 485
91.00465 0.52732 128.38669 302
86.65714 0.51599 127.78570 298
86.13490 0.51639 128.03146 487
86.13302 0.51491 128.37529 488
