# .PCD v.7 - Point Cloud Data file format
VERSION .7
FIELDS x y z rgb
SIZE 4 4 4 4
TYPE F F F U
COUNT 1 1 1 1
WIDTH 1050
HEIGHT 1
VIEWPOINT 5348.970703 -4118.481445 138.018372 -0.017636 -0.144865 0.003050 0.989289
POINTS 1050
DATA ascii
-196.73418 1.14604 53.35513 324
-196.79012 2.93350 53.32033 324
-196.72850 4.73245 53.35706 324
-196.75974 6.57654 53.31646 324
-196.79816 8.32393 53.35118 324
-196.77408 10.11413 53.36522 324
-196.68523 11.95520 53.34328 324
-65526.48828 5734.53125 14378.78027 1000
-283.94028 60.12378 35.71551 317
-263.33524 59.20239 34.45145 325
-277.94974 61.56746 37.19930 323
-294.03284 64.20245 39.96379 313
-259.79321 60.90132 35.30565 350
-274.42255 63.35945 37.98885 346
-290.55411 66.09159 40.60889 341
-257.85455 62.74492 35.82207 350
-272.40283 65.36025 38.37509 347
-288.66617 68.12247 40.98453 341
-256.03952 64.65519 36.14947 351
-270.58163 67.33956 38.76279 345
-290.08710 70.90821 40.54687 318
-254.07513 66.51389 36.57397 351
-270.31979 69.61518 38.65417 321
-252.33282 68.39825 36.96496 325
-272.34195 72.34818 38.05270 319
-254.18179 71.04842 36.31967 322
-277.01965 75.57683 36.75711 261
-256.30157 73.74176 35.71627 321
-258.30200 76.35639 35.05212 321
-37765.71094 10796.51074 -1142.66968 1000
-5047.99072 2067.54492 1522.93176 1000
-43457.92969 25864.26953 -12533.93750 1000
-1467.67871 1888.88257 52.97652 495
-1472.47449 1893.94214 92.87799 423
-1459.41443 1901.77441 52.83295 425
-937.61353 1397.72156 18.98449 439
-943.50348 1405.70459 47.26634 307
-926.10498 1400.55469 19.26833 498
-928.62054 1403.90564 47.42542 497
-931.92548 1408.35876 75.92770 478
-936.01654 1414.11414 104.01503 373
-919.12817 1408.68201 19.00748 461
-921.83557 1412.10876 47.46258 461
-924.18610 1415.63403 75.89248 410
-927.11749 1420.12659 104.32030 314
-16156.83887 25118.84375 3089.76392 1000
-439.92053 920.34705 10.20728 393
-443.19611 926.04218 27.10359 323
-431.22659 918.55817 10.95260 450
-432.77814 921.08954 28.01572 450
-434.25180 923.55786 45.48718 449
-437.10535 928.33746 62.45877 338
-424.86688 919.91174 11.30511 499
-425.88785 921.72644 28.40162 499
-426.83508 924.00073 45.77246 486
-428.21313 926.28229 62.99622 483
-429.18103 928.00397 80.17151 486
-430.71811 930.53339 97.65842 445
-419.42490 923.58282 11.04616 488
-420.46143 925.53656 28.22642 488
-421.46051 927.41730 45.58142 488
-422.82394 929.87280 62.74797 489
-423.85318 931.77734 80.32675 328
-424.49472 932.77124 97.66057 490
-415.23459 929.42908 10.89941 453
-416.26282 931.54675 28.14356 453
-417.84323 934.15741 45.33307 398
-419.80429 938.01837 62.62301 392
-413.82431 940.63586 9.56082 328
-13078.64941 24802.64258 -4967.62744 1000
-17644.32227 33900.01953 2024.88306 1000
-333.82639 15452.74902 -119.75217 462
-331.83871 15346.41797 137.27592 467
-237.39778 15410.36719 -116.09773 462
-235.70021 15311.25000 135.20695 467
-139.88580 15373.30273 -114.72257 470
-140.85161 15276.72168 132.96587 472
-140.07156 15287.97559 383.77484 450
-776.43719 57409.44531 11563.48340 1000
-45.91982 15342.08691 -115.72687 471
-44.93693 15244.64551 135.13696 472
52.92731 13343.62793 -1179.63416 1000
45.39222 15309.81055 -117.04228 471
47.09873 15215.16113 134.02208 473
139.26851 15280.46387 -114.81987 472
140.57834 15184.03223 136.01752 473
234.63928 15246.17676 -113.57850 472
231.88905 15152.68066 134.45587 474
329.79752 15218.27930 -113.94769 473
325.08875 15124.56445 133.27774 474
422.62637 15185.32910 -115.95879 473
416.76840 15090.91797 133.04579 474
513.05823 15157.78906 -114.94289 473
512.61951 15061.35547 132.62296 475
605.84631 15124.84082 -114.05441 474
604.21985 15031.83008 136.46190 475
2272.34326 54283.14453 -6108.91357 1000
697.62689 15094.22266 -112.42262 474
691.75720 15001.20898 133.90421 476
788.73334 15064.22266 -111.70766 475
786.67981 14972.84277 132.45111 476
880.15314 15036.94629 -113.91753 475
875.62274 14943.25488 135.64174 476
972.04431 15004.25586 -112.40302 475
966.03430 14913.44141 135.29532 477
1061.18359 14976.11719 -111.21140 476
1055.87183 14885.32227 132.63234 485
1150.13110 14943.98828 -111.29705 476
1147.46973 14857.40527 134.85184 485
1241.49805 14917.10059 -109.29484 476
1233.43079 14825.35840 133.53723 486
1330.32727 14887.06641 -111.00354 477
1325.05127 14798.77148 134.88150 486
1419.80566 14857.37695 -111.06160 477
1413.56799 14769.08887 133.30818 486
1510.29102 14830.06641 -108.63145 477
1501.51440 14739.78809 135.40196 487
1598.69189 14797.86816 -109.66410 478
1589.24194 14712.92578 133.63715 487
1685.92334 14767.77344 -110.23473 478
1679.08850 14682.33203 132.46440 487
1774.52905 14740.43359 -106.73363 478
1765.99426 14656.89551 133.29691 487
1863.79346 14713.38672 -108.20392 479
1854.04614 14626.43945 133.91916 488
1951.49609 14682.71875 -108.01554 479
1943.70654 14600.69629 132.09732 488
2042.05823 14651.53223 -108.91530 479
2028.77295 14571.60645 135.77313 488
2127.60474 14625.60449 -106.83674 479
2115.90625 14541.64355 131.94794 489
2214.38843 14597.37598 -109.22996 480
2205.56421 14515.12109 135.48509 492
2303.85327 14567.14062 -106.31163 480
2290.44775 14485.42285 134.02597 492
2390.65454 14537.16309 -109.01812 480
2379.62842 14460.19336 135.81253 492
2477.30225 14510.25000 -104.99667 480
2465.25977 14429.85938 134.90147 493
2562.09180 14480.89844 -108.33897 481
2551.35938 14404.61719 134.40175 493
2648.95825 14452.13965 -104.61385 481
2638.48657 14377.17383 135.35344 493
2738.11719 14426.47656 -105.08592 481
2725.04077 14347.20117 133.18930 493
2821.11255 14397.35156 -106.92641 481
2810.22461 14323.00000 132.12793 494
2531.47949 12443.25391 -3264.01147 1000
2909.46216 14368.40918 -107.22401 481
2895.33276 14292.85449 134.33752 494
3038.71777 15023.16016 384.50058 489
2994.88892 14339.45117 -106.15306 482
2980.15796 14266.82812 135.27875 494
3123.78564 14978.17773 382.58093 490
3130.11621 15015.41992 634.18066 410
3082.23462 14310.87305 -107.25722 482
3065.71289 14237.68359 133.23283 494
3210.15210 14931.98535 384.48456 490
3220.28027 14969.53027 632.83557 410
3165.80688 14281.47949 -107.41919 482
3153.49585 14211.24707 133.90349 494
3296.42236 14887.22070 381.04922 490
3304.13110 14924.64062 633.49213 411
3251.04224 14255.63477 -106.32603 482
3237.95557 14183.40820 133.57330 494
3383.64502 14845.88379 384.27515 491
3390.61255 14881.31836 632.71442 411
3337.26880 14225.43848 -103.50024 482
3322.77271 14155.16602 135.00392 494
3470.45776 14798.66797 379.82779 491
3475.61987 14835.13770 631.84998 411
3423.52173 14199.59863 -105.93514 482
3408.90649 14127.96680 134.09447 495
3554.24072 14756.33203 380.30612 492
3565.14282 14793.78418 632.19806 412
3507.77661 14170.48047 -103.73216 482
3491.24097 14100.04395 132.28197 495
3639.75513 14709.97559 381.06528 492
3650.41016 14750.34961 632.08978 412
3594.38257 14141.12109 -104.50016 482
3577.47925 14073.26953 132.61450 495
3724.81030 14665.03418 379.04950 492
3734.75586 14703.37695 631.15314 412
3680.77930 14115.90820 -104.96033 483
3662.30273 14046.09277 132.90103 495
3808.66968 14620.28027 381.76605 493
3820.54150 14661.37305 630.73981 412
3766.82666 14088.43555 -103.23036 483
3748.07422 14019.41113 135.22685 495
3894.22314 14586.50684 381.96024 499
3906.93799 14625.53906 628.38934 417
3849.06445 14057.10840 -105.46381 483
3832.74829 13993.30273 131.90973 495
3985.62402 14561.11133 379.35004 499
3995.05542 14598.58691 627.83337 417
3935.39844 14030.92480 -106.25042 483
3917.78149 13964.29980 132.59015 495
4070.20190 14528.45996 380.69922 499
4082.80347 14572.51953 627.26288 417
4019.22681 14002.71387 -103.19981 483
3999.79980 13939.88379 131.49725 495
4159.56250 14501.18066 377.89459 499
4170.75342 14545.10449 629.49622 417
4105.72900 13976.62109 -106.14751 483
4085.14502 13911.91113 135.00522 495
4246.16455 14471.44141 380.36786 499
4258.62207 14515.30273 627.63867 417
11119.79590 38389.19922 2097.30371 1000
4188.27588 13948.50293 -106.21136 483
4171.82715 13885.00000 135.10674 495
4334.73779 14444.87988 378.54037 499
4350.33887 14488.16699 629.32281 417
4272.78711 13917.49121 -103.39265 483
4256.49121 13855.67383 135.25700 495
4422.01074 14414.98340 378.51962 499
4439.93701 14461.53027 629.28857 417
4358.95557 13890.17773 -102.66013 483
4339.38379 13830.77539 132.43903 495
4512.12891 14384.30469 378.04941 499
4526.52197 14434.07129 628.85767 417
4442.32324 13862.48730 -103.85464 483
4426.84326 13801.75391 134.91907 495
4566.51221 14256.26465 378.06537 388
4612.74219 14400.36719 626.29565 499
4529.85986 13835.74902 -106.54992 483
4508.86475 13777.78809 134.13873 495
4652.64355 14226.51270 376.35559 498
4703.48682 14374.93652 628.64404 499
4613.51025 13807.88379 -104.15839 483
4593.09521 13750.22363 133.42686 495
4740.28076 14194.62988 375.96558 498
4789.64844 14345.84082 628.33282 499
4697.86621 13780.86328 -105.08916 483
4680.49121 13720.90820 134.97440 495
4827.42334 14166.28711 375.61157 498
4878.01807 14313.50977 628.59033 499
4934.23779 14480.32422 884.86285 433
4948.56787 14522.92871 1137.83606 377
4784.84570 13754.05762 -103.05984 483
4765.20557 13695.00781 131.57767 495
4915.14111 14140.01953 379.22812 498
4964.45459 14284.25098 628.67096 499
5014.10254 14426.79297 882.14276 352
5019.05225 14443.74805 1134.43884 377
4867.02588 13724.29785 -104.69836 483
4848.94531 13666.60840 132.98228 495
5004.77002 14110.32324 378.62811 449
5054.22119 14255.57129 629.34027 499
5140.64062 14507.28125 888.09882 311
4953.20215 13696.65625 -103.17424 483
4933.11377 13640.06055 134.65944 495
5122.76123 14174.30566 379.29102 461
5123.60498 14181.04492 624.05475 461
5127.94092 14187.57617 872.35724 460
5038.22607 13670.45605 -103.68541 483
5019.76807 13612.08594 130.98105 495
5188.58984 14089.48828 378.63943 462
5194.44385 14095.55176 623.92773 461
5193.97607 14102.62891 871.16797 461
5123.56982 13642.96289 -104.37987 483
5101.84326 13587.25195 132.84193 495
5254.69775 14001.91504 377.03448 462
5258.26123 14011.02734 620.27063 462
5261.98682 14019.15625 868.76233 462
5206.01514 13614.32324 -103.55075 483
5188.98291 13557.86133 130.98463 498
5324.36084 13918.93750 374.79477 463
5324.10693 13926.70020 618.57037 463
5330.48438 13932.61816 862.57336 463
5294.94873 13586.82422 -105.30411 483
5270.85645 13533.27246 132.88499 497
5398.89551 13865.08887 376.64792 499
5401.05957 13870.18652 617.27258 499
5405.27100 13874.32617 863.83820 499
5509.33887 14145.16797 1126.54907 452
5694.85303 14632.42676 1417.85010 493
5695.01562 14638.24512 1678.54590 492
5697.58105 14647.22949 1936.63916 492
5703.88379 14652.50293 2200.69263 483
5378.43359 13558.94141 -103.42907 483
5358.82129 13503.66797 132.04785 497
5488.01758 13836.49316 377.47568 499
5487.24268 13843.57129 617.25513 499
5489.77197 13846.64648 862.15045 499
5594.89160 14117.49902 1128.20789 452
5461.61328 13530.98828 -105.94568 483
5442.80078 13478.47266 132.23677 497
5573.28076 13808.18652 376.99872 499
5566.02686 13784.75391 620.03979 499
5576.82520 13819.50684 861.82397 498
5685.23633 14090.13379 1125.14502 452
5717.28711 14166.76855 1384.96558 485
5548.03467 13502.94336 -106.42375 483
5525.77148 13449.00977 134.43719 497
5660.97510 13780.95605 377.06421 499
5649.42432 13755.55957 617.37976 499
5662.81885 13788.49902 863.75348 498
5774.10938 14059.57422 1127.45520 470
5805.96191 14138.69531 1381.38428 484
5633.69971 13475.61914 -107.16193 483
5614.20117 13425.84863 134.16638 497
5746.80127 13753.13281 374.16922 499
5739.41797 13730.18555 618.21149 499
5750.53564 13760.85254 863.83862 498
5860.54248 14029.62402 1125.12085 470
5894.81836 14111.49805 1385.43750 484
5717.49805 13444.81055 -104.25320 482
5696.78418 13398.68262 134.08235 497
5836.30469 13723.40039 375.67081 499
5824.17725 13700.80371 618.33826 498
5839.69287 13731.78027 863.82190 498
5949.12305 14001.86719 1126.10901 470
5985.57031 14083.38574 1384.05396 484
5803.46729 13419.30762 -106.13838 482
5784.35205 13370.82715 131.71899 497
5920.69482 13694.86719 376.60574 498
5913.02490 13672.84863 618.73602 498
5925.23975 13701.49414 863.22363 498
6040.65137 13971.04297 1125.86572 470
5891.12354 13392.40137 -106.09963 482
5868.66064 13341.69434 132.28549 497
6011.20166 13663.60742 377.99603 498
5999.69141 13642.23242 618.75488 498
6014.36719 13676.31152 865.82867 498
6127.18506 13939.12793 1129.85364 470
5976.42969 13364.08496 -104.59350 490
5954.51025 13314.88184 132.38992 496
6097.97070 13638.64453 377.36285 498
6087.44092 13614.84570 620.56830 498
6099.86865 13646.99023 865.51294 498
6217.30225 13912.26270 1128.82153 469
6060.79541 13334.54980 -105.82133 490
6040.98438 13288.62891 132.45863 496
6182.27002 13606.79688 375.17172 498
6172.56836 13584.04688 619.28882 498
6130.53613 13493.09082 857.84180 375
6305.67822 13880.11328 1129.84485 470
6148.31836 13306.32324 -107.70860 490
6125.11084 13260.63965 131.90338 496
6271.06494 13580.83594 376.06564 498
6273.20947 13584.44629 619.22534 498
6150.74316 13316.28418 851.34595 377
6397.87744 13854.69043 1128.16394 470
6231.86816 13280.61426 -106.50224 489
6214.05859 13235.16211 130.65346 496
6360.21289 13550.63770 375.97467 498
6359.68311 13552.77832 622.78717 498
6222.87451 13253.92383 848.25079 497
6487.84521 13825.62695 1130.18127 470
6320.40381 13251.83691 -107.00841 489
6299.90576 13208.04102 132.80092 496
6445.67041 13520.07227 376.13736 498
6356.57568 13329.49609 616.29266 492
6308.66064 13224.15137 849.06122 497
6576.09521 13799.46387 1132.31079 470
6446.12500 13303.24609 -351.76505 478
6407.38477 13222.67578 -108.82476 489
6383.77002 13177.06934 132.97937 495
6534.05615 13491.35938 377.85590 497
6457.95947 13328.98242 614.65991 361
6394.11426 13194.72754 850.69843 497
6667.91699 13768.61328 1130.94189 470
6531.44238 13274.49707 -351.01050 478
6490.94043 13196.84277 -109.18152 489
6471.40234 13150.83105 130.79294 495
6623.64893 13463.25879 376.97522 497
6626.06494 13468.59570 622.13800 497
6477.93604 13168.29688 851.94568 497
6757.94971 13740.59277 1135.32715 466
6616.48193 13246.21094 -349.80972 478
6580.06592 13168.85156 -106.81992 489
6558.22021 13126.05859 130.89928 495
6711.38525 13433.48926 377.06201 497
6710.96973 13439.02637 621.02100 497
6565.29590 13141.30469 850.70929 312
6845.80859 13712.62598 1135.62561 465
6704.10156 13218.70312 -352.56024 478
6666.52881 13141.71289 -108.61556 488
6644.14111 13096.98828 133.78474 495
6813.18750 13432.60059 379.83334 440
6811.96191 13433.89355 624.84052 440
6833.21729 13472.37695 873.66980 435
6949.02246 13709.03027 1136.93140 445
6794.44629 13189.44434 -350.43222 477
6752.54492 13111.72363 -109.25170 488
6729.61475 13069.07812 131.23456 495
6923.58105 13448.97852 380.14102 465
6930.67578 13462.08398 627.17096 439
6954.45898 13506.42480 877.17432 434
7059.31494 13716.13477 1142.99780 437
6881.19482 13161.38770 -352.95959 477
6839.99854 13085.04883 -109.78326 488
6819.19629 13039.55566 131.06859 494
7027.23633 13448.95410 378.51666 464
7050.12988 13493.91797 631.67792 438
7073.82275 13539.58887 879.64532 433
6968.66553 13132.41113 -353.53174 477
6926.55225 13056.20801 -108.03616 488
6903.74414 13013.24609 131.30531 494
7136.75342 13452.38672 379.52118 463
7164.05664 13506.24023 631.78204 462
7194.85352 13568.62402 883.39349 432
7057.01221 13103.64844 -354.80389 477
7016.05811 13029.98633 -107.62295 487
6992.02344 12983.87012 130.57904 494
7242.56055 13453.15430 382.04312 462
7270.13574 13509.25488 634.58838 461
7144.00684 13076.79297 -353.39102 476
7103.66357 12998.89355 -109.94564 487
7079.28906 12956.76953 134.45175 494
7347.78467 13455.07227 383.00870 462
7231.30420 13046.11230 -353.31052 476
7193.25146 12970.35938 -108.07587 487
7167.51807 12929.93262 130.56853 493
7457.13281 13457.68164 385.46613 461
7320.91113 13016.84570 -353.04788 476
7278.58447 12944.48438 -110.07860 487
7256.95068 12901.56152 134.45949 493
7408.56396 12987.07422 -356.22018 476
7369.07227 12916.16895 -109.85497 486
7343.52930 12876.22461 132.36519 493
7498.32031 12958.75977 -354.93045 475
7458.54492 12886.61523 -109.82560 486
7432.86475 12845.65039 132.52203 492
7589.68311 12931.01562 -355.37851 475
7544.61426 12857.29102 -110.51795 486
7522.15967 12816.95215 131.97348 492
7632.52295 12921.86523 -346.12158 475
7591.21924 12851.16602 -100.57191 485
7567.58496 12808.32812 143.57599 492
7722.92529 12893.97266 -345.99329 474
7678.66064 12821.82227 -102.97225 485
7656.80225 12781.35059 143.51918 491
7810.52490 12864.69238 -349.10608 474
7768.85498 12793.28809 -101.56992 485
7745.53516 12752.89453 142.85812 491
7900.49951 12834.67871 -351.22128 474
7859.67969 12766.40137 -102.49947 484
7836.60938 12725.43848 143.64349 491
7991.92578 12806.05957 -351.25922 473
7949.09961 12735.01465 -102.26351 484
7925.04639 12697.82520 142.41364 373
8084.06494 12777.74414 -351.73441 473
8041.81787 12708.97070 -104.75640 484
8019.68457 12673.72852 144.16447 373
8174.82275 12749.11426 -351.94705 473
8128.69971 12678.37695 -104.41338 483
8114.43945 12649.27734 143.12762 372
8266.23633 12720.12012 -353.11169 472
8223.77832 12648.96973 -102.56682 483
8206.11230 12624.25195 141.81720 372
8356.14941 12689.69824 -352.52826 472
8312.91895 12621.03418 -106.13505 482
8299.91602 12600.65625 141.39319 439
8451.85059 12661.29785 -354.10541 472
8403.98340 12589.74316 -103.21447 482
8392.08203 12570.40723 143.97298 439
8541.72168 12629.69238 -355.19708 471
8499.30078 12561.89160 -103.61417 482
8481.26953 12538.27148 140.71140 439
8636.32520 12599.31934 -355.20401 471
8591.51270 12532.22754 -105.66574 481
8575.51758 12509.67383 140.44388 438
8726.84277 12571.96582 -357.97198 471
8683.41699 12504.18262 -107.72446 481
8667.96094 12479.48340 143.51485 438
8821.38184 12539.36816 -357.09741 470
8775.82812 12471.61328 -107.28589 480
8760.65234 12450.26367 141.92039 437
8916.17676 12510.10254 -357.93195 470
8869.92090 12444.36621 -109.24959 480
8853.50488 12419.03027 143.36893 437
9009.37598 12478.35645 -361.93970 469
8963.31152 12415.86914 -107.64413 479
8943.53516 12390.42090 143.31552 437
9103.86328 12451.09570 -360.12424 469
9059.03027 12386.03320 -106.79148 479
9036.57910 12357.51465 139.93929 436
9201.39160 12419.06152 -364.38431 468
9150.81641 12353.82617 -111.04443 478
9134.29785 12329.44531 143.40195 436
9296.24023 12387.21484 -364.76343 468
9246.48438 12324.17676 -108.47697 478
9229.02148 12297.15723 140.92067 436
9388.53320 12356.32227 -363.22003 467
9340.94434 12294.25684 -109.45158 478
9323.50879 12268.70703 141.73265 435
9485.90234 12328.54395 -366.67633 467
9439.58887 12264.28223 -112.17597 477
9417.41309 12236.53809 143.45587 435
9583.41992 12296.54590 -365.67841 466
9534.25098 12231.25488 -112.56544 477
9516.77930 12210.43652 139.35367 293
9680.59961 12263.84277 -367.56830 466
9628.79980 12203.83301 -113.24042 476
9619.60254 12186.74316 142.51205 293
9775.17773 12236.09180 -371.93491 466
9728.35156 12169.57812 -112.94486 475
9723.06836 12164.95020 141.99489 293
9875.66699 12204.34375 -369.93381 465
9824.67480 12140.26465 -112.32087 475
9826.55957 12142.42773 139.60718 293
9973.27930 12169.78223 -371.85873 464
9925.07617 12110.53027 -113.96315 474
9933.57715 12120.73730 142.09705 293
10072.02148 12141.15234 -373.23590 449
10022.44141 12079.79004 -117.01268 474
10180.37305 12119.20215 -375.65302 449
10119.98340 12048.37598 -116.84157 473
10470.33691 12465.73047 141.28584 407
10292.39941 12098.58789 -378.33347 450
10222.26367 12015.37402 -116.77179 473
10522.61133 12369.99707 142.79860 408
10401.79590 12079.46875 -378.73206 449
10328.91211 11994.86035 -117.56535 449
10572.60742 12282.76855 140.06879 408
10513.08496 12060.33789 -379.43872 448
10441.79004 11974.16504 -120.59872 448
11426.72656 13113.05371 142.38857 426
10628.65430 12039.81934 -383.71036 447
10552.44629 11956.66602 -118.80732 448
11524.77148 13062.90820 139.67931 426
10741.13672 12019.48438 -383.83884 447
10668.19531 11937.28516 -122.67310 447
10641.34277 11906.59766 141.89789 467
10866.78223 12008.34668 -387.62027 401
10782.68750 11917.36328 -120.67492 446
10748.13770 11882.38281 139.69342 468
11005.73047 12016.91113 -391.02722 379
10894.18457 11896.61621 -121.03927 447
11817.11914 12907.37988 143.09622 465
11158.75391 12034.37598 -394.02124 378
11010.99316 11875.54590 -122.86547 446
11905.12793 12849.39551 142.53226 465
11312.86816 12052.40039 -397.48532 377
11137.86816 11865.68262 -123.74300 400
11995.81055 12788.57715 141.60406 371
11469.81152 12072.58496 -403.46478 349
11280.86621 11870.36328 -126.71762 400
12085.68457 12725.04785 141.30646 370
11728.80566 12195.57520 -409.17200 282
11424.03418 11875.90918 -126.72493 399
12170.04590 12655.96094 138.69305 395
11567.59961 11884.78125 -131.60367 398
11726.63770 11896.08398 -131.63582 375
11913.03125 11942.37793 -136.55099 348
12110.25000 11988.03223 -136.42905 347
11932.26660 11810.59961 139.71831 381
12109.54688 11841.30176 138.81314 385
12295.87305 11882.54688 140.78052 356
48011.67969 39692.31250 1174.50098 1000
2461.92456 945.28735 -76.97430 486
2468.42065 947.83997 -35.23442 454
2467.60254 930.47443 -76.90987 453
2478.47559 934.90088 -35.32588 338
3775.34912 -326.64084 -49.48878 381
3756.25781 -347.83771 -48.51920 466
3742.57861 -369.45670 -48.09832 467
3727.67480 -390.75156 -47.84497 484
3717.81567 -412.26300 -47.55458 484
3709.03027 -433.38068 -47.20673 486
3701.01685 -455.31259 -46.98636 492
3694.09888 -476.38019 -46.72967 492
3687.80078 -498.27753 -46.72087 493
3681.55566 -520.44543 -46.21175 495
3677.15479 -541.59192 -46.78228 464
3672.49561 -563.56702 -46.45412 464
3845.48218 -591.33344 7.07856 264
3667.98584 -585.79816 -45.86440 464
3742.88501 -598.07745 10.64865 498
3664.43799 -607.24548 -46.54798 464
3661.44702 -629.91681 -46.68695 464
3658.39624 -651.37170 -46.41953 463
3655.66382 -673.70367 -46.10231 463
3654.58618 -695.74744 -46.60773 462
3652.76636 -718.37561 -46.69271 462
3732.68408 -734.68384 10.29943 497
3650.53394 -741.15540 -46.96753 462
3648.82446 -763.39093 -46.80698 461
3773.23022 -790.07904 132.15546 496
3647.17383 -786.01147 -47.50308 461
3645.50342 -808.85370 -47.01937 461
3835.40869 -851.59814 5.60550 416
3644.08105 -831.19299 -47.25848 461
3695.76245 -843.11450 11.05944 404
3642.57446 -853.67993 -47.95438 461
3640.63306 -876.36328 -47.77127 460
3639.18335 -899.83838 -47.76124 460
3850.78931 -953.46240 68.50900 313
3636.79077 -922.35297 -48.44044 460
3705.39941 -940.04999 9.61872 485
3718.57471 -943.78473 70.25127 495
3636.03638 -945.31024 -48.02689 460
3633.62744 -967.78418 -48.17449 491
3632.09375 -990.87531 -49.03579 490
3631.22705 -1014.41742 -49.45724 490
3628.94971 -1036.87634 -49.01118 490
3627.46021 -1059.84570 -49.44156 489
3626.26367 -1083.88855 -50.14301 489
3624.68896 -1106.82959 -50.73649 489
3623.74927 -1129.78687 -50.88478 488
3621.34985 -1153.34814 -50.42662 488
3623.55469 -1178.20691 -51.72704 459
3629.55664 -1204.24768 -52.06813 458
3635.82129 -1231.00476 -52.93534 457
3640.93042 -1256.81616 -52.86468 475
38081.03516 -18693.82227 9998.62207 1000
2669.49878 -1875.10913 -24.59115 497
2675.34619 -1878.98389 26.85825 498
18532.17383 -15625.21680 1713.61572 1000
3776.88184 -4873.77539 32.38659 439
3730.54199 -4875.92529 32.50930 437
3686.27930 -4877.60498 32.72359 438
3639.87256 -4879.08105 32.17970 439
3595.73877 -4879.64600 33.72526 438
3563.19189 -4898.77344 33.23365 480
3550.38330 -4944.57520 33.24754 409
3552.37158 -5011.44580 31.30371 378
3561.69897 -5092.86816 31.09735 271
3559.50293 -5157.78174 29.70105 317
3561.30322 -5229.29688 28.35542 358
3563.12573 -5303.13037 27.65461 375
2512.52710 -3795.09766 -15.94896 479
2517.21948 -3803.47876 57.79000 449
24173.16992 -42625.65234 -13005.31250 1000
2220.08545 -4905.22412 43.10290 328
3028.33496 -7375.88428 -1859.74597 1000
2103.68262 -5878.20508 28.44131 341
2056.77881 -5856.76611 28.92274 391
2009.83508 -5839.70215 29.48250 439
1966.44446 -5828.98486 29.22127 441
1925.03149 -5819.20654 29.90848 468
1842.53516 -5939.95996 130.52934 265
1815.65540 -5847.93311 230.15877 407
1773.60693 -5838.74707 129.32054 492
1778.08508 -5849.51270 230.51295 420
1735.71289 -5838.40771 130.84093 495
1738.91724 -5849.11523 229.53539 420
1685.76868 -5794.68262 31.13990 489
1696.47522 -5835.81201 129.84836 493
1699.67542 -5848.44775 228.60309 421
1647.04260 -5796.55176 32.36614 491
1658.30701 -5835.64111 130.35385 493
1660.53870 -5847.57275 228.43718 421
1724.78955 -6083.07520 336.11282 496
1609.35754 -5797.99658 31.47534 492
1621.17529 -5843.03174 130.17708 491
1621.58850 -5846.43701 229.20766 423
1572.32520 -5798.91211 32.31583 492
1583.30273 -5843.43311 129.24338 493
1579.29309 -5829.35889 229.31372 474
1534.80847 -5801.01172 31.96295 492
1546.21570 -5845.21777 129.91949 494
1542.53442 -5829.99707 229.19145 477
1496.52588 -5802.55078 32.49265 493
1507.55530 -5846.52734 129.38774 494
1504.48364 -5831.83594 228.91222 479
1459.36145 -5803.07129 32.64252 493
1501.93274 -5982.17578 130.21141 436
1493.74670 -5949.24707 230.19582 279
1422.87891 -5805.02295 32.59443 474
1461.98682 -5975.44873 329.88770 490
1385.49536 -5806.92529 33.30448 474
1348.24878 -5809.79346 32.59799 475
1311.44250 -5811.95850 33.19191 475
1274.34900 -5812.76562 32.79616 475
1238.72607 -5816.01807 32.80404 444
1201.22607 -5817.79150 33.54594 444
1165.87659 -5820.33838 33.68552 444
1146.41077 -5925.61279 31.87944 497
1146.68030 -5917.98584 130.62056 471
1111.06763 -5931.67090 30.89113 494
1106.50818 -5906.06885 129.26427 472
1069.40002 -5906.48047 129.80376 498
1032.99805 -5909.06641 227.61377 360
434.68878 -3540.89233 73.03668 259
391.42746 -3305.70874 76.79061 324
394.45834 -3334.21265 130.97017 391
366.02835 -3250.41382 77.32492 337
372.43274 -3317.43750 130.67288 427
348.47491 -3277.85938 23.08586 315
343.26855 -3209.18750 77.92088 362
351.47540 -3319.47192 131.04082 477
325.07379 -3227.71924 25.19958 321
321.30368 -3176.52930 78.69368 371
331.66061 -3321.38818 130.98128 477
302.24521 -3188.90747 26.05911 342
299.34662 -3144.48486 79.45660 373
310.90958 -3323.21655 130.55284 477
281.81299 -3179.03638 26.70599 298
278.58142 -3117.08643 79.61072 381
291.19852 -3325.68555 131.03645 476
263.14267 -3185.39941 26.76761 298
258.13565 -3092.43701 80.15945 385
269.96100 -3327.24463 130.64598 476
243.21910 -3191.82861 26.59517 298
237.95268 -3081.61475 81.02575 359
250.11411 -3329.14697 130.86880 476
223.91412 -3198.67236 25.99929 298
221.07060 -3114.59985 79.81162 352
229.72946 -3331.60352 131.01938 476
203.04030 -3152.64648 79.88447 347
209.30377 -3333.39307 130.76355 476
185.29155 -3197.65918 78.90378 338
189.13164 -3335.27954 131.02220 476
166.69286 -3248.14771 78.01402 315
168.52240 -3346.60474 131.45326 398
147.71542 -3316.69263 76.95551 290
-316.65924 -28932.64258 -6624.28662 1000
-7037.40527 -39179.73047 -2489.02271 1000
-13112.63086 -50917.97656 -10345.31543 1000
-353.25275 -1077.27686 131.65376 315
-352.41382 -1075.57666 150.78194 387
-351.91785 -1074.02942 169.80910 445
-351.49960 -1073.19739 188.73659 445
-351.23761 -1072.38733 207.86995 483
-351.07880 -1071.92407 227.05968 483
-350.63391 -1071.15308 245.88814 498
-359.14813 -1072.78003 36.04423 482
-358.97983 -1072.23401 55.21193 483
-358.62360 -1071.51404 74.30946 499
-358.40082 -1071.40686 93.47543 499
-358.27582 -1070.96924 112.53770 499
-358.40048 -1070.63562 131.51395 490
-358.18729 -1070.43884 150.50975 490
-358.17392 -1070.36157 169.69254 458
-358.17886 -1070.50732 188.75954 457
-358.45941 -1070.88721 207.96999 404
-358.69492 -1071.53235 227.12721 404
-359.06094 -1072.74426 246.44336 336
-366.02213 -1071.15820 35.87647 404
-366.38373 -1071.63330 55.16774 404
-366.96878 -1072.80005 74.23040 336
-859.44476 -1586.64026 101.31425 348
-858.36084 -1584.29553 131.50471 414
-857.26904 -1582.88586 161.52606 464
-856.59955 -1582.06055 191.83765 493
-856.23285 -1580.83655 222.24402 493
-855.76935 -1580.11145 252.50418 498
-868.76312 -1580.01282 40.22292 436
-868.83966 -1580.19653 70.80482 437
-869.96503 -1581.65369 101.19044 304
-1350.38684 -2097.97046 256.49905 363
-1348.99890 -2095.56177 298.02017 363
-18360.40234 -25723.14258 4823.36377 1000
-4557.70117 -5783.88428 -1095.28784 1000
-30902.44531 -14535.26465 4069.64062 1000
90.06427 -3.04401 127.65903 369
90.06336 -3.04513 127.90919 370
90.06227 -3.04554 128.15611 370
90.16911 -2.93840 127.67762 371
90.16763 -2.93837 127.92467 371
90.16887 -2.93788 128.17079 372
90.03841 -2.97427 128.38536 302
88.85271 -3.29008 128.38728 298
90.27310 -2.83512 127.69717 372
90.27385 -2.83578 127.94275 372
90.27392 -2.83566 128.18802 373
90.08068 -2.88594 128.38539 302
88.89294 -3.19306 128.38591 298
90.37452 -2.73336 127.71408 373
90.37449 -2.73166 127.95786 374
90.37479 -2.73274 128.20288 374
90.12093 -2.79715 128.38528 302
88.93149 -3.09608 128.38603 298
90.47690 -2.62993 127.72945 374
90.47669 -2.63014 127.97501 375
90.47726 -2.63199 128.21574 375
90.16304 -2.70713 128.38594 302
88.97495 -3.00031 128.38582 298
90.57687 -2.52914 127.74812 376
90.57750 -2.53086 127.98951 376
90.57644 -2.53106 128.23105 377
90.20741 -2.61886 128.38538 302
89.01678 -2.90439 128.38516 298
87.61296 -3.24054 128.38817 294
90.67641 -2.43138 127.76353 377
90.67673 -2.43212 128.00424 377
90.67556 -2.43227 128.24396 378
90.25015 -2.52969 128.38757 302
89.06053 -2.80828 128.38765 298
87.65471 -3.13738 128.38631 294
90.77505 -2.33236 127.77818 378
90.77437 -2.33347 128.01686 379
90.77458 -2.33328 128.25737 379
90.29453 -2.44161 128.38716 302
89.10255 -2.71272 128.38739 298
87.69820 -3.03382 128.38773 294
90.87244 -2.23745 127.79343 379
90.87189 -2.23596 128.03139 380
90.87052 -2.23709 128.26923 381
90.34000 -2.35280 128.38615 302
89.14676 -2.61734 128.38683 298
87.74055 -2.92617 128.38643 294
90.96603 -2.14058 127.80806 381
90.96642 -2.14020 128.04410 381
90.96646 -2.14176 128.28061 382
90.38539 -2.26479 128.38710 302
89.19040 -2.52112 128.38673 298
87.78301 -2.82241 128.38690 294
91.06157 -2.04563 127.82080 382
91.06132 -2.04603 128.05872 382
91.06124 -2.04602 128.29318 383
90.43013 -2.17823 128.38615 302
89.23762 -2.42648 128.38788 298
87.82726 -2.71904 128.38632 294
91.15690 -1.95080 127.83462 383
91.15633 -1.95117 128.07121 384
91.15686 -1.95084 128.30431 384
90.47600 -2.08838 128.38654 302
89.28095 -2.33040 128.38579 298
87.87450 -2.61160 128.38536 294
91.24940 -1.85798 127.84763 384
91.24857 -1.85901 128.08153 385
91.24775 -1.85813 128.31601 386
90.52293 -1.99976 128.38707 302
89.32951 -2.23450 128.38756 298
87.92042 -2.50956 128.38820 294
91.34178 -1.76792 127.85981 386
91.34106 -1.76592 128.09296 386
91.34089 -1.76701 128.32707 387
90.56987 -1.91271 128.38773 302
89.37574 -2.13671 128.38795 298
87.96534 -2.40439 128.38585 294
86.27712 -2.72013 128.38771 290
91.37003 -1.68678 127.85390 468
91.37006 -1.68694 128.08820 469
91.36903 -1.68775 128.32213 470
90.61736 -1.82307 128.38780 302
89.42320 -2.04048 128.38788 298
88.01325 -2.29939 128.38623 294
86.32635 -2.60679 128.38837 290
91.38968 -1.60838 127.84864 468
91.39001 -1.60893 128.08195 469
91.39045 -1.60737 128.31425 470
90.66656 -1.73590 128.38576 302
87.94927 -2.21387 128.07997 353
87.95067 -2.21267 128.36732 353
86.37127 -2.49067 128.38606 290
91.40977 -1.53013 127.84122 469
91.41045 -1.52960 128.07663 470
91.41003 -1.52895 128.30872 471
90.71431 -1.64664 128.38649 302
87.72907 -2.15529 128.02629 352
87.72599 -2.15551 128.31598 352
86.41940 -2.37800 128.38829 290
91.43131 -1.45036 127.83501 470
91.43192 -1.45183 128.06789 471
91.43130 -1.45194 128.30180 471
90.76424 -1.55935 128.38684 302
87.49693 -2.09327 127.96983 350
87.49878 -2.09189 128.26422 351
86.46854 -2.26037 128.38795 290
91.45414 -1.37232 127.82518 470
91.45332 -1.37201 128.06203 471
91.45438 -1.37181 128.29453 472
90.81594 -1.47195 128.38788 302
87.26176 -2.02886 127.91029 349
87.26056 -2.02920 128.21138 349
86.51772 -2.14637 128.38507 290
91.47588 -1.29137 127.81940 471
91.47433 -1.29327 128.05379 472
91.47572 -1.29325 128.28847 473
90.86513 -1.38526 128.38614 302
87.10292 -1.95223 127.86816 447
87.10342 -1.95080 128.17299 447
86.57042 -2.03139 128.38490 290
91.49619 -1.21157 127.81185 471
91.49555 -1.21183 128.04729 472
91.49645 -1.21283 128.28169 473
90.91694 -1.29587 128.38763 302
87.01024 -1.86209 127.84073 446
87.01043 -1.85980 128.14655 446
86.62235 -1.91795 128.38579 290
91.51697 -1.13328 127.80434 472
91.51706 -1.13261 128.03964 473
91.51776 -1.13299 128.27390 474
90.96964 -1.20773 128.38583 302
86.91727 -1.76869 127.81178 445
86.91876 -1.76814 128.12085 446
86.67131 -1.80040 128.38815 290
91.53876 -1.05316 127.79609 473
91.53950 -1.05209 128.03331 474
91.53817 -1.05153 128.26671 474
91.01989 -1.12093 128.38542 302
86.83823 -1.67275 127.78753 298
86.82288 -1.67412 128.09444 445
86.72387 -1.68691 128.38849 290
91.56073 -0.97072 127.78736 473
91.56017 -0.97175 128.02469 474
91.55994 -0.97301 128.26077 475
91.07415 -1.03323 128.38748 302
86.88812 -1.55754 127.78642 298
86.73014 -1.57870 128.06894 444
86.73146 -1.57845 128.37819 444
91.58317 -0.89004 127.78056 474
91.58154 -0.89158 128.01697 475
91.58310 -0.89213 128.25261 476
91.12683 -0.94483 128.38524 302
86.94058 -1.44647 127.78641 298
86.63357 -1.48432 128.04094 443
86.63425 -1.48113 128.35498 443
91.60440 -0.80936 127.77119 474
91.60281 -0.81128 128.00946 475
91.60468 -0.81092 128.24417 476
91.18118 -0.85714 128.38644 302
86.99366 -1.33311 127.78737 298
86.53539 -1.38519 128.01097 442
86.53491 -1.38611 128.32892 442
91.62628 -0.72906 127.76379 475
91.62457 -0.72886 128.00110 476
91.62519 -0.72998 128.23601 477
91.23474 -0.77164 128.38699 302
87.04654 -1.22107 127.78917 298
86.43378 -1.28447 127.98443 441
86.43546 -1.28280 128.30142 441
91.64690 -0.64688 127.75491 475
91.64650 -0.64839 127.99379 476
91.64854 -0.64864 128.22873 477
91.29060 -0.68314 128.38666 302
87.10004 -1.10657 127.78762 298
86.33543 -1.18142 127.95580 440
86.33370 -1.18254 128.27745 441
91.66810 -0.56661 127.74664 476
91.67027 -0.56705 127.98592 477
91.66862 -0.56639 128.22194 478
91.34583 -0.59704 128.38770 302
87.15335 -0.99128 127.78883 298
86.28242 -1.07381 127.93773 492
86.28238 -1.07555 128.26064 493
91.69150 -0.48415 127.73838 476
91.69193 -0.48383 127.97601 477
91.69194 -0.48504 128.21368 478
91.40073 -0.50841 128.38771 302
87.20653 -0.88142 127.78928 298
86.25391 -0.96525 127.92064 492
86.25482 -0.96578 128.24559 492
91.71399 -0.40231 127.72821 477
91.71412 -0.40100 127.96933 478
91.71412 -0.40079 128.20650 479
91.45897 -0.42128 128.38747 302
87.26155 -0.76606 127.78712 298
86.22350 -0.85234 127.90682 491
86.22598 -0.85164 128.23045 492
85.11172 -0.94537 128.38742 286
91.73621 -0.31931 127.72112 477
91.73488 -0.31789 127.95964 478
91.73429 -0.32025 128.19859 479
91.51680 -0.33567 128.38626 302
87.31963 -0.65512 127.78678 298
86.19320 -0.73921 127.89080 491
86.19446 -0.74169 128.21434 492
85.17341 -0.81983 128.38632 286
91.75827 -0.23647 127.71159 478
91.75833 -0.23531 127.95053 479
91.75825 -0.23538 128.19035 480
91.57367 -0.24863 128.38760 302
87.37567 -0.54409 127.78786 298
86.16440 -0.62612 127.87607 491
86.16172 -0.62627 128.20085 492
85.23380 -0.69054 128.38684 286
91.78050 -0.15253 127.70158 478
91.78080 -0.15406 127.94279 479
91.78055 -0.15261 128.18282 480
91.63062 -0.16224 128.38617 302
87.43335 -0.43139 127.78947 298
86.13332 -0.51337 127.85716 491
86.13446 -0.51060 128.18619 491
85.29572 -0.56744 128.38545 286
-19831.88477 -1268.97644 5135.55615 1000
91.80358 -0.07063 127.69334 479
91.80286 -0.06957 127.93469 480
91.80190 -0.07073 128.17395 481
91.69073 -0.07618 128.38655 302
87.49306 -0.31897 127.78608 298
86.10052 -0.39826 127.84359 490
86.10194 -0.39603 128.16866 491
85.35791 -0.44059 128.38815 286
91.81695 0.01342 127.68172 486
91.81791 0.01448 127.92329 487
91.81605 0.01409 128.16286 488
91.75011 0.00974 128.38754 302
87.54998 -0.20556 127.78838 298
86.07150 -0.28206 127.82371 490
86.07207 -0.28238 128.15671 491
85.41971 -0.31301 128.38579 286
91.79456 0.09463 127.66014 485
91.79591 0.09566 127.90285 486
91.79528 0.09708 128.14441 487
91.79441 0.09545 128.38319 488
90.61959 0.04417 128.38733 298
86.04047 -0.16461 127.80676 490
86.04189 -0.16521 128.13965 490
85.48203 -0.18894 128.38708 286
91.77255 0.17974 127.63892 485
91.77391 0.17882 127.88246 486
91.77390 0.17827 128.12531 487
91.77278 0.17819 128.36565 488
90.68095 0.13639 128.38724 298
86.00879 -0.04423 127.79097 489
86.00742 -0.04592 128.12503 490
85.54503 -0.06260 128.38618 286
91.75184 0.26268 127.61758 485
91.74956 0.26236 127.86282 486
91.75179 0.26223 128.10704 487
91.75067 0.26164 128.34758 487
90.74181 0.22881 128.38768 298
86.04891 0.07419 127.78846 294
86.01522 0.07623 128.11623 486
85.61172 0.06048 128.38644 286
91.72781 0.34779 127.59564 484
91.72720 0.34642 127.84212 485
91.72694 0.34691 128.08571 486
91.72883 0.34768 128.32997 487
90.80370 0.32266 128.38777 298
86.11388 0.19572 127.78968 294
86.04720 0.19599 128.10771 486
85.67816 0.18638 128.38605 286
91.70441 0.43180 127.57327 484
91.70586 0.43205 127.82041 485
91.70441 0.43397 128.06813 486
91.70539 0.43421 128.31238 487
90.86576 0.41544 128.38756 298
86.17644 0.32088 127.78549 294
86.08227 0.31704 128.10399 486
85.74423 0.31246 128.38715 286
91.68304 0.52061 127.55140 484
91.68285 0.51828 127.80014 485
91.68058 0.51953 128.04634 486
91.68056 0.51878 128.29292 486
90.93045 0.50755 128.38661 298
86.23898 0.44233 127.78689 294
86.11488 0.44109 128.09824 487
85.81314 0.43464 128.38535 286
91.65889 0.60669 127.52998 483
91.65881 0.60607 127.77856 484
91.65948 0.60783 128.02768 485
91.65883 0.60808 128.27359 486
90.99431 0.60041 128.38652 298
86.30554 0.56170 127.78731 294
86.14526 0.55904 128.09465 487
85.88083 0.55853 128.38548 286
91.63485 0.69475 127.50660 483
91.63457 0.69552 127.75848 484
91.63588 0.69624 128.00864 485
91.63440 0.69467 128.25533 486
91.05914 0.69277 128.38535 298
86.36918 0.68366 127.78829 294
86.17815 0.68353 128.08896 488
85.94955 0.68307 128.38657 286
