# .PCD v.7 - Point Cloud Data file format
VERSION .7
FIELDS x y z rgb
SIZE 4 4 4 4
TYPE F F F U
COUNT 1 1 1 1
WIDTH 1003
HEIGHT 1
VIEWPOINT 5296.160645 -4119.755371 139.185791 -0.009824 -0.144162 0.005724 0.989489
POINTS 1003
DATA ascii
-197.51833 1.39610 53.39519 324
-197.55753 3.19855 53.39598 324
-197.53572 4.98894 53.39809 324
-197.50214 6.75881 53.34038 324
-197.47809 8.60945 53.39938 324
-197.48735 10.42245 53.41440 324
-197.46715 12.20454 53.41382 324
-30856.74609 1386.40674 7380.10205 1000
-269.45853 58.11145 33.09001 319
-283.73529 60.30751 35.99142 317
-263.27722 59.37849 34.70790 325
-277.83398 61.72821 37.38510 323
-294.02750 64.36361 40.07010 314
-260.05051 61.10616 35.50780 350
-274.72528 63.63749 38.01155 346
-290.90927 66.35987 40.82024 341
-33748.26953 5722.97803 153.25964 1000
-258.13876 63.07590 35.84644 350
-272.60712 65.58942 38.45017 347
-288.94406 68.48817 41.17245 319
-256.24396 64.91622 36.32175 351
-270.86203 67.54715 38.85984 345
-290.95047 71.22392 40.58102 318
-254.31282 66.79949 36.75284 351
-271.11761 69.95305 38.68834 321
-253.04765 68.74358 37.00142 325
-273.12354 72.74812 38.01066 318
-254.99190 71.40339 36.33791 322
-256.93896 74.01918 35.71040 321
-259.03668 76.78470 35.03280 321
-64660.28516 19782.57031 -941.30103 1000
-36292.73047 11121.05469 7075.64111 1000
-32007.93555 27825.84766 -4043.72778 1000
-1386.42725 1906.93018 13.85466 473
-1390.50781 1912.07129 53.25715 472
-1375.36438 1916.84119 13.49716 470
-1378.94958 1921.38184 52.88875 423
-1384.29614 1928.81287 92.66150 282
-871.04486 1414.04175 19.91749 386
-857.24731 1412.88953 20.74765 483
-859.91321 1416.35120 48.42858 483
-862.78210 1421.28845 76.23740 385
-849.07324 1419.11865 20.77101 490
-851.22528 1422.32776 48.34870 489
-853.41394 1425.39282 76.06448 457
-27258.31641 46576.02344 4561.52051 1000
-370.02664 926.45691 -4.18555 408
-371.97348 930.16656 12.67747 408
-376.51276 939.24036 28.87492 266
-362.33661 925.34912 -3.54260 491
-363.64886 927.94391 13.43996 460
-364.96774 930.59979 30.17391 460
-366.48471 933.62933 47.00296 408
-368.74875 938.02246 63.73851 341
-356.02206 926.71405 -3.29870 499
-357.07330 928.86719 13.62819 492
-358.04666 930.93073 30.27270 491
-359.15628 933.32733 47.09143 491
-360.39053 935.47778 64.23064 496
-361.42743 938.05219 81.13226 456
-98.15321 205.77255 -30.02040 482
-351.78278 932.04089 13.53544 482
-352.66125 934.22681 30.19451 482
-353.61725 936.12500 47.09874 482
-354.50549 938.12732 64.05400 486
-355.70233 940.21594 81.18919 481
-357.96268 945.45691 97.88601 372
-346.30573 935.68909 -3.87749 442
-347.56143 937.99347 12.97910 441
-348.62378 940.09601 29.89990 441
-349.80518 943.05292 46.71923 383
-351.47598 946.44788 63.84946 311
-343.81174 945.06030 -4.79942 382
-8371.21191 37161.63281 -4255.59668 1000
-3665.91113 25899.62500 -4191.11426 1000
-47.92606 15445.66504 -123.07671 462
-46.95454 15343.74219 130.10201 467
50.32710 15403.37695 -121.03979 463
48.33027 15307.28809 131.31322 468
144.84946 15366.77051 -122.95068 471
141.57378 15269.10547 131.63316 472
237.46515 15330.73340 -120.48476 471
234.05505 15235.18555 132.13075 473
328.87988 15301.72754 -119.84038 472
328.28488 15206.72852 131.18587 473
425.36218 15266.03320 -118.65231 472
421.61340 15172.62695 132.11162 474
516.43146 15235.24414 -118.95403 473
515.76160 15142.56641 130.80055 474
611.06128 15203.46875 -118.29202 473
607.66034 15110.52441 130.01387 474
703.68347 15172.25391 -116.65643 473
696.63489 15078.25098 130.19002 475
791.55627 15138.27539 -118.14150 474
790.48517 15045.70605 129.49500 483
883.00439 15106.02246 -115.13544 474
879.12756 15015.28027 131.70340 483
977.56226 15077.66797 -114.93858 475
970.78778 14983.52148 132.22469 484
1066.92993 15046.72754 -115.15967 475
1062.44519 14955.65918 130.24350 484
1158.74939 15012.99023 -116.79790 475
1150.55408 14922.66699 130.70668 484
1247.52783 14981.78320 -113.59883 476
1240.21655 14893.19238 131.52617 485
1337.20178 14949.37500 -116.57030 476
1328.96204 14865.19824 128.93015 485
1429.83545 14920.77832 -114.22209 476
1421.36902 14832.98730 129.96858 485
1516.72412 14888.45410 -115.36233 477
1507.06384 14805.34961 130.14037 489
1695.86377 16752.54297 405.93958 1000
1607.88049 14857.56641 -112.87057 477
1598.26721 14774.79590 130.05563 489
1695.50623 14826.65527 -112.94191 477
1685.39392 14742.39844 131.93562 490
1783.59753 14795.46289 -114.97359 478
1773.00806 14714.68066 129.70895 490
1873.88086 14768.18164 -113.72713 478
1860.71606 14686.21680 130.09587 490
1960.09351 14735.72363 -113.42603 478
1949.91809 14656.61328 131.97690 491
2049.73755 14705.03223 -112.89529 479
2039.75330 14624.47754 132.53145 491
2137.98364 14676.64355 -112.42200 479
2125.51514 14597.09570 128.74089 491
2222.97070 14646.73535 -112.68517 479
2212.02466 14568.24609 132.54607 491
2310.22461 14615.14746 -109.03156 479
2299.00537 14539.02832 129.54338 492
2400.47339 14585.46680 -111.80358 480
2384.31445 14509.58301 132.06487 492
2483.38330 14555.51855 -111.16529 480
2471.84668 14476.79492 132.84830 492
2572.07788 14525.38672 -110.78951 480
2560.29663 14448.75781 132.86624 492
3643.81860 20791.93164 5413.69678 1000
2660.58960 14495.78711 -109.63616 480
2644.91650 14422.18555 131.57944 493
2746.08447 14464.95117 -107.76122 481
2732.91675 14390.04395 132.97285 493
2833.42017 14436.67480 -111.58502 481
2818.65039 14362.48340 129.27039 493
2918.90576 14405.09961 -111.26997 481
2904.04956 14331.75098 132.57619 493
3003.19116 14376.55957 -110.93665 481
2988.84912 14303.92285 131.40074 493
3091.30103 14348.12305 -109.96629 481
3075.90234 14274.19043 129.59610 494
3177.02588 14316.13965 -109.33969 482
3159.29712 14247.26562 132.73141 494
3319.14746 14981.84082 382.78409 489
3259.97314 14286.98926 -107.31419 482
3243.40381 14217.04004 129.21519 494
3406.21240 14933.29199 380.29544 490
3417.39380 14992.04297 634.85614 410
3346.60693 14257.49121 -107.95489 482
3332.61011 14190.16602 131.98265 494
3490.32251 14886.53418 380.21341 490
3502.64624 14942.93066 634.44629 410
3430.65308 14227.95117 -107.38121 482
3417.07471 14160.66797 133.10425 494
3574.83716 14842.72949 379.19495 491
3590.77051 14899.38086 631.32129 411
3516.19165 14201.12988 -108.93592 482
3502.61401 14133.67188 130.99913 494
3661.03613 14796.10449 380.77432 491
3672.69849 14851.01172 630.79114 411
3601.95068 14168.38574 -109.77686 482
3586.77808 14102.04199 131.75562 495
3746.05859 14748.33594 378.44772 491
3759.97729 14805.48828 629.59613 411
3685.81226 14142.82812 -109.38705 482
3668.61914 14074.71875 129.19913 495
3829.93457 14702.05371 380.59680 492
3843.19189 14761.07031 630.47784 411
3773.54297 14110.38770 -107.26487 483
3756.83984 14047.77148 130.43671 495
3915.47729 14658.36328 380.11761 492
3931.36646 14716.90527 627.80420 412
3855.40405 14084.51465 -106.79811 483
3840.59961 14019.08789 129.58246 495
3997.48267 14613.71680 378.07172 492
4012.20947 14668.69141 627.67993 412
3943.26855 14051.98145 -108.80271 483
3926.17725 13989.53125 130.17421 495
4082.78955 14564.71387 376.62329 493
4098.43701 14624.97363 629.03351 412
4027.70410 14025.67480 -105.59972 483
4010.41943 13962.32031 130.53972 495
4169.74805 14530.46680 377.68420 499
4186.37891 14589.47559 625.62439 416
4110.48389 13996.08789 -107.76048 483
4095.28711 13931.20312 130.03600 495
4255.37939 14501.78516 378.84592 499
4274.99512 14560.54980 626.74243 416
4196.95264 13966.14551 -107.77483 483
4176.73193 13906.21777 129.80020 495
4345.87451 14469.92871 378.04553 499
4360.13916 14531.55664 625.63489 416
4278.41455 13935.04297 -107.46609 483
4262.47559 13876.82715 130.75583 495
4431.63086 14438.68945 377.50909 499
4450.35742 14500.04590 629.02191 416
4364.32666 13908.73730 -107.32607 483
4346.03809 13849.36426 132.21344 495
4520.97607 14408.08496 378.66589 499
4538.71338 14473.14062 626.55103 416
4451.38281 13878.13477 -106.44875 483
4431.57812 13817.80762 131.41536 495
4607.63379 14376.24707 377.24463 499
4627.79590 14443.94043 628.27057 416
18892.23633 59847.47656 11542.24805 1000
4535.42236 13850.96582 -107.91555 483
4515.47363 13791.58594 131.85471 495
4694.86328 14348.22949 377.22958 499
4712.71045 14410.89258 625.46289 416
4620.17529 13819.27832 -106.26770 483
4601.04395 13761.22070 131.91841 495
4781.96533 14319.02539 379.68591 499
4801.24902 14385.42578 626.46515 416
4701.58350 13791.64453 -107.99174 483
4683.50049 13733.62109 129.99998 495
4838.35254 14196.32422 374.22159 441
4892.93311 14352.88086 625.39276 416
4788.19482 13763.63184 -107.16948 483
4768.19971 13706.87695 132.64639 495
4923.73584 14157.87793 375.44205 498
4974.01367 14301.04395 627.08795 499
4871.67773 13735.02930 -108.54479 483
4852.59180 13678.60645 132.18027 495
5010.08350 14126.13184 376.46497 498
5060.82568 14273.38086 626.85132 499
4957.83594 13705.85840 -107.07344 483
4935.64502 13649.11523 132.15771 495
5094.92480 14096.61816 374.65598 498
5146.56104 14242.66309 625.47327 499
5205.48926 14410.11523 880.59802 352
5039.24756 13676.95410 -104.75207 483
5019.54932 13622.23242 129.59589 495
5183.82520 14068.94434 377.64331 491
5233.71826 14210.30859 626.84595 499
5292.60791 14374.69629 883.22833 344
5300.29004 14391.04492 1135.94617 377
5124.04639 13645.69629 -108.56522 483
5106.82275 13590.16602 131.08041 498
5269.42383 14035.28125 374.98306 491
5321.70312 14182.49121 626.82013 499
5413.59277 14423.30762 885.15979 310
5209.11035 13617.86914 -108.58139 483
5188.70410 13564.87207 129.69118 498
5391.52344 14100.25586 375.93826 461
5392.62500 14105.19629 625.29858 461
5397.40576 14112.14355 870.80688 461
5293.89844 13588.80859 -106.94704 483
5272.87939 13533.91992 129.73593 498
5457.17432 14011.64453 375.42633 462
5458.21289 14018.37891 624.49493 462
5460.49121 14025.25977 870.35400 462
5377.25049 13557.15039 -105.70885 483
5356.90137 13507.26660 132.13533 498
5521.71680 13926.23242 374.15317 463
5524.11963 13935.00195 619.92279 463
5529.00146 13938.01953 865.94128 462
5461.68359 13529.10059 -107.24043 483
5443.01660 13479.82910 133.41502 498
5585.15576 13842.28320 374.49365 464
5590.24121 13846.57227 618.90631 463
5591.45361 13856.58301 865.84979 463
5547.26904 13499.02344 -108.59881 483
5528.82910 13450.57910 131.77904 497
5664.59033 13785.69336 375.37323 499
5666.57959 13788.60938 617.21869 499
5664.84521 13792.55273 861.64020 499
5779.60596 14070.46387 1126.78088 452
5972.83691 14550.74121 1418.05078 384
5974.03760 14552.61035 1675.50549 492
5977.65088 14558.60059 1938.53479 492
5979.21826 14567.66602 2202.36621 491
5983.50391 14583.43945 2464.31445 295
5631.46240 13470.93262 -105.59518 483
5611.52295 13423.13184 133.05548 497
5748.14502 13755.12598 376.39468 499
5749.21875 13759.04688 617.06561 499
5754.40527 13762.61230 864.48267 498
5867.04297 14043.15332 1124.67957 470
5718.87842 13441.02246 -106.49478 483
5696.31934 13395.13867 130.87296 497
5835.64307 13724.08105 375.88351 499
5826.62012 13703.03320 616.70618 499
5838.57471 13735.05762 863.91626 498
5954.52490 14011.92676 1127.07434 470
5989.42969 14087.16699 1385.07446 484
5801.03662 13412.74414 -105.11714 483
5783.58105 13364.58496 131.11374 497
5924.34961 13694.36523 373.65503 499
5913.24951 13672.47266 617.62030 499
5928.16797 13703.13086 864.51984 498
6044.74414 13976.86035 1127.43445 470
6077.11377 14056.29980 1385.63269 484
5887.61035 13385.27344 -106.84695 483
5865.45850 13336.75488 131.80235 497
6009.28662 13665.96484 376.34335 499
5996.89209 13643.00098 618.02826 498
6013.38477 13674.55273 862.71936 498
6131.14209 13946.06934 1128.15271 470
6166.75977 14025.50684 1386.53430 484
6009.80811 13436.15332 -348.84164 479
5972.40918 13357.12207 -107.08342 482
5951.99951 13308.26953 131.95215 497
6094.77686 13635.42188 376.33740 499
6086.12646 13611.19531 620.63397 498
6101.17871 13645.22949 864.16241 498
6219.22803 13916.25195 1127.02332 470
6255.86328 13995.58887 1387.22205 484
6094.57275 13407.70508 -348.72412 479
6058.37695 13325.39551 -107.65284 490
6038.94238 13282.03320 131.35921 497
6183.01318 13606.41309 373.96481 498
6174.15820 13579.98633 620.56842 498
6188.13525 13615.11719 865.90649 498
6309.42969 13886.24023 1127.28162 469
6177.93848 13377.62012 -350.23972 479
6144.36328 13297.66016 -105.48067 490
6122.07959 13250.31445 130.78011 497
6267.47852 13573.84766 376.00555 498
6259.85889 13552.28320 619.97522 498
6271.65479 13585.43066 866.50446 498
6395.11816 13855.72168 1127.72070 469
6266.12598 13348.11914 -348.52032 479
6229.83740 13269.28516 -108.68005 490
6207.26318 13223.28320 130.96399 496
6356.65723 13546.01465 373.84290 498
6346.74854 13523.70996 621.32758 498
6362.04736 13554.61426 866.46338 498
6485.63037 13820.33496 1131.18640 469
6352.43066 13319.85156 -350.48734 479
6313.17090 13237.72363 -106.80077 490
6293.33643 13194.72754 131.79535 496
6430.27295 13487.80957 375.72366 498
6434.15186 13491.81641 620.82074 498
6392.10205 13400.62988 859.25012 376
3358.61426 7142.51758 517.07788 470
6438.37646 13288.01465 -348.80124 479
6401.08105 13212.18652 -106.30461 490
6380.43799 13166.80371 129.98140 496
6531.96240 13484.64844 377.34323 498
6534.71826 13489.11719 619.77838 498
6408.96191 13224.76465 850.87958 377
6662.02441 13760.50000 1132.52747 470
6522.36914 13258.25586 -351.45514 479
6486.70264 13182.62891 -107.32130 489
6462.85742 13139.62598 130.20187 496
6616.94043 13454.13379 377.23096 498
6619.98486 13456.84180 620.17230 497
6476.90967 13159.28613 852.06134 497
6753.06738 13731.01562 1130.85278 470
6611.64551 13228.77832 -349.54404 478
6570.36523 13151.03809 -107.13881 489
6550.56299 13109.13965 133.18431 496
6654.12646 13321.57715 374.24100 425
6608.82275 13226.17676 613.75623 492
6561.29688 13131.07129 852.97699 497
6843.97754 13701.27539 1133.39502 469
6695.88965 13199.32715 -352.19696 478
6659.98486 13124.90625 -109.36001 489
6635.72217 13081.31836 130.18515 495
6793.26318 13392.58105 378.74414 497
6703.29688 13211.49609 614.85632 361
6646.47559 13101.23633 852.52698 497
6933.29736 13673.76270 1132.02551 469
6784.69287 13169.63086 -353.65231 478
6744.06006 13093.49414 -110.02764 489
6722.79541 13050.73730 130.94992 495
6880.14697 13362.76758 375.41754 497
6881.88965 13364.51367 623.42816 497
6731.63379 13069.61621 851.37524 497
7024.24805 13643.42773 1134.25159 469
6869.69824 13139.88281 -350.46756 478
6832.51367 13065.40039 -107.78582 489
6809.58984 13022.33594 133.51273 495
6968.98926 13331.52051 377.99591 497
6972.13721 13334.66406 624.32556 497
6820.84814 13043.85938 854.71716 311
7111.76758 13614.77637 1134.38831 465
6958.68262 13113.42871 -350.71216 478
6919.25488 13034.57520 -106.81199 488
6896.72607 12994.09863 132.21132 495
7069.51221 13326.57031 377.77667 439
7073.12158 13329.56348 622.79388 439
7090.64307 13368.77441 874.75232 435
7217.30127 13606.29492 1136.95312 444
7045.40137 13081.37402 -352.87619 477
7003.64648 13006.70410 -107.72679 488
6980.78174 12964.41504 130.78133 494
7181.28223 13341.32617 379.54370 464
7190.25146 13355.54688 625.59277 438
7215.23047 13402.06152 878.85608 434
7329.82520 13616.37500 1142.47375 444
7130.14697 13052.73340 -355.41620 477
7092.40137 12977.37988 -107.68333 488
7070.19482 12937.57617 133.42696 494
7290.37354 13341.60449 381.82880 463
7313.34717 13384.81055 629.08160 437
7339.40771 13433.80566 882.84003 433
7220.61768 13022.69531 -355.31674 477
7179.50293 12948.01465 -110.05580 488
7157.02979 12906.38770 132.43375 494
7396.42236 13346.09082 380.50119 463
7425.61963 13398.93262 631.14178 462
7461.72168 13463.50586 885.27246 431
7305.43750 12992.55859 -356.00842 477
7264.37939 12919.67676 -109.88186 487
7241.93555 12878.47461 132.21823 494
7500.50000 13345.70703 382.94601 462
7534.53662 13398.50684 635.94708 461
7393.04736 12962.28125 -355.02274 476
7351.62305 12889.52148 -111.21064 487
7328.69922 12847.82031 131.62508 494
7608.84961 13346.02637 382.54199 461
7481.64551 12933.97852 -354.83664 476
7441.66992 12858.58691 -108.11694 487
7415.99316 12818.38281 134.13940 493
7719.94727 13347.46582 383.66418 460
7570.87988 12902.97852 -357.04596 476
7530.17090 12827.66016 -110.44722 486
7507.26318 12789.66895 133.76006 493
7618.18262 12891.15430 -359.15973 476
7574.90723 12816.19141 -113.99301 486
7556.21143 12778.63867 128.96858 493
7706.28223 12862.08887 -360.13162 475
7666.34326 12788.51172 -115.55245 486
7642.22070 12748.71191 128.52182 492
7799.09033 12828.30469 -363.21472 475
7756.02344 12759.99512 -114.15001 486
7731.70361 12719.30176 125.94668 492
7884.95801 12799.99219 -364.45816 475
7841.93604 12730.18555 -117.92181 485
7821.56445 12688.60938 128.85986 492
7976.10889 12768.61230 -363.12213 474
7930.73633 12699.33984 -117.90016 485
7910.20459 12660.80566 126.27187 373
8066.23047 12739.46484 -365.82794 474
8020.80029 12667.59863 -118.41639 485
7999.49414 12634.80273 126.63191 373
8155.61914 12708.35840 -364.30954 474
8111.59521 12640.03223 -116.59352 484
8094.33984 12609.39941 128.58521 373
8245.27734 12676.58008 -366.75974 473
8200.05859 12610.61621 -116.15339 484
8183.51025 12580.04199 129.48778 372
8335.62109 12646.55176 -365.42200 473
8294.22559 12579.97656 -116.99860 483
8278.12793 12553.21875 127.32975 372
8426.46484 12617.25098 -368.04449 473
8383.06348 12548.43848 -116.62251 483
8369.72949 12524.98926 128.45224 440
8519.61523 12587.02637 -367.57901 472
8474.94238 12516.83301 -120.73033 483
8458.41797 12494.62500 128.77612 439
8611.16406 12556.39551 -370.42072 472
8564.15918 12487.29980 -120.08047 482
8550.08984 12462.83691 127.32281 439
8702.77441 12522.19727 -371.82233 472
8655.80469 12457.42285 -121.00328 482
8641.07324 12432.92188 127.21246 439
8794.06348 12492.41699 -371.44571 471
8750.10938 12427.41797 -118.85219 481
8733.34277 12404.51465 127.19216 438
8885.43555 12462.75684 -372.26480 471
8838.61328 12394.99707 -122.00562 481
8823.96289 12373.31250 128.94479 438
8979.08984 12430.49902 -373.39276 470
8931.19434 12365.80469 -120.05939 481
8917.01465 12340.02734 125.13921 438
9072.95605 12399.83008 -373.07776 470
9026.75488 12331.27148 -120.93348 480
9007.46289 12310.09277 128.91966 437
9168.77930 12367.66309 -377.37976 470
9118.42090 12301.73438 -121.16569 480
9102.83203 12276.39355 125.28793 437
9262.68066 12337.08105 -376.59021 469
9211.92676 12270.56934 -121.10529 479
9194.25781 12246.25293 128.59262 437
9354.13965 12302.49414 -377.92731 469
9305.40039 12239.55957 -124.13452 479
9289.83398 12215.03711 126.59834 436
9451.31055 12272.85156 -377.18823 468
9401.83691 12206.12598 -125.32542 478
9381.92578 12182.44336 126.49570 436
9544.73047 12237.79004 -380.83490 468
9497.77930 12174.19727 -123.68584 478
9474.75195 12149.93848 127.82879 436
9641.90039 12208.34668 -381.62051 467
9591.20020 12146.00488 -125.39445 477
9572.21387 12119.26953 127.17470 435
9735.78125 12176.25781 -382.79932 467
9685.82715 12111.05078 -126.31971 477
9667.30664 12084.43945 128.23840 413
9832.02930 12142.50000 -382.88434 466
9782.61426 12078.06641 -126.65842 476
9764.72070 12058.68652 126.71023 293
9931.71094 12111.70020 -385.67172 466
9879.66699 12048.33789 -125.61278 476
9867.00000 12035.39551 126.16922 293
10025.24316 12076.33105 -385.94916 465
9978.23926 12015.09180 -129.37772 475
9971.93262 12008.05371 126.55915 293
10123.82715 12044.03418 -385.69800 465
10072.35938 11983.71094 -126.56904 475
10072.97363 11984.01465 127.08736 293
10225.63477 12011.49902 -388.09940 464
10171.20703 11948.17773 -131.36818 474
10180.39648 11958.57910 126.37455 292
10322.98438 11978.74805 -391.11884 449
10271.97461 11916.95410 -131.50165 474
10283.19043 11931.28027 124.53815 292
10431.32324 11955.66699 -388.93103 448
10368.20410 11885.69824 -131.04970 473
10723.30078 12294.10840 127.79157 407
10542.17773 11932.29785 -393.45450 449
10468.83008 11852.23633 -133.35548 472
10768.84766 12193.48145 125.91443 408
10651.23730 11915.48438 -392.92767 449
10579.72949 11827.43945 -132.31395 449
10828.99707 12107.41211 126.13664 408
10766.32520 11890.57422 -397.01614 448
10691.52051 11806.94141 -135.53773 448
10930.67383 12076.35938 124.36673 408
10877.40332 11872.21094 -396.87405 447
10801.75000 11786.76758 -136.52322 447
11793.78320 12874.99414 125.63791 426
10993.27539 11848.17676 -400.63358 446
10915.94141 11764.84277 -136.63388 446
10887.93164 11737.39746 127.00179 467
11121.67383 11839.47168 -403.72958 401
11031.07324 11745.05371 -137.04439 446
11000.32617 11710.34277 124.24360 467
11261.33887 11848.66992 -406.72137 378
11146.79297 11721.47559 -138.64417 446
12081.24902 12715.51758 128.14975 467
11418.32617 11863.35059 -413.18152 377
11265.25684 11699.76562 -141.05305 445
12168.11035 12651.13477 125.20940 406
11574.55859 11880.37598 -415.60721 376
11394.29297 11693.64258 -140.59050 400
12255.12891 12583.64551 124.02752 370
11738.91602 11902.31543 -417.17282 349
11535.57031 11697.02930 -139.88753 399
12341.00488 12519.96680 123.97843 370
11683.28906 11699.36621 -141.59888 398
12427.02637 12447.29688 123.92470 395
11830.23535 11702.48828 -146.89012 397
12499.42969 12369.94434 125.41254 395
11990.94434 11720.48633 -146.46936 348
12572.10156 12292.84375 123.45248 407
12183.56836 11764.58203 -152.76985 347
12645.98828 12216.05664 125.66214 407
12381.66211 11811.40625 -154.18144 346
12712.94629 12126.51074 123.75560 495
12376.94727 11660.48145 126.97211 322
12558.23340 11686.56738 126.28286 384
43168.25391 24636.67383 -9762.44629 1000
29292.58203 14846.67969 -3109.25854 1000
2527.61865 902.09113 -82.36443 487
2533.09937 903.82410 -39.42414 486
2537.77515 905.32062 2.89079 499
2537.00195 888.11420 -82.30325 452
5278.19824 920.33887 -128.84598 1000
10656.89453 1209.84631 1528.58545 1000
6884.90039 232.20105 241.02675 1000
3822.58521 -401.57773 -53.06146 297
3797.98853 -421.59802 -52.67304 414
3780.64966 -442.50757 -51.95625 414
3767.57324 -463.57288 -50.98551 484
3756.85132 -486.07907 -50.22373 485
3746.74219 -507.06253 -50.01634 493
3739.14233 -528.80505 -49.63068 493
3732.25000 -550.43231 -49.61830 494
3725.15186 -572.48425 -49.97139 493
3719.56836 -595.01019 -50.10378 496
3714.65112 -616.30084 -49.12230 496
3899.53735 -647.77765 4.87710 276
3708.60107 -638.38342 -49.25858 496
3785.30957 -651.50739 8.32036 498
3703.85498 -660.86957 -48.89783 496
3782.79175 -674.98730 7.71487 498
3700.29858 -682.68488 -49.17969 496
3696.72290 -705.56329 -49.49154 496
3693.67212 -727.48792 -49.79905 496
3691.73584 -750.65125 -49.61838 495
3689.61621 -773.21661 -50.06613 494
3773.72485 -790.98944 7.52148 497
3687.23438 -795.20905 -49.91273 494
3685.55200 -818.63092 -50.21627 494
3811.33081 -847.18103 130.95381 497
3684.06445 -841.03516 -50.27362 493
3682.65503 -863.74561 -49.90015 493
3827.52173 -898.99945 4.90218 430
3680.67969 -886.88245 -50.38803 493
3731.42114 -900.00537 8.45751 496
3678.37280 -910.41193 -51.10213 493
3676.62524 -932.49213 -50.98898 492
3674.83643 -956.01959 -50.68798 492
3870.73877 -1007.98944 131.14371 396
3673.58325 -978.85278 -51.47010 492
3741.01807 -998.06073 7.72520 495
3671.53149 -1002.77246 -51.61264 492
3670.10352 -1025.47266 -52.22181 491
3668.26709 -1048.39026 -51.48158 491
3666.43115 -1072.08057 -52.47261 491
3664.54175 -1095.63770 -52.00637 492
3662.43970 -1118.66357 -53.13865 491
3660.86206 -1142.93115 -52.61982 491
3805.70288 -1189.28418 3.06127 422
3659.28857 -1166.45972 -53.04613 490
3657.67090 -1190.59583 -52.98037 490
3655.73267 -1214.24536 -54.19794 490
3658.91357 -1239.55981 -54.39680 460
3665.18945 -1266.85107 -54.67521 405
2691.79468 -1915.92004 -26.52974 497
2696.87061 -1919.97522 26.08864 493
42620.71094 -40785.34766 -836.86682 1000
3626.54224 -4737.65381 34.55524 401
3605.52856 -4769.56396 34.24162 460
3586.35498 -4804.25635 34.75733 468
3566.12744 -4840.09180 33.98573 461
3549.94116 -4879.04102 33.61928 455
3535.82593 -4924.01953 33.25870 438
3524.77759 -4972.02148 33.84545 425
3520.29370 -5033.37891 31.72364 385
3522.82666 -5101.74463 32.04437 384
3524.30664 -5172.31641 30.99781 382
3525.23804 -5244.20020 29.58306 381
3524.28955 -5313.79053 27.74920 380
3531.76489 -5395.63525 28.10297 373
2502.62427 -3832.41162 -15.74416 478
2508.82227 -3842.53931 57.70784 452
14835.07324 -23801.56055 -6880.74512 1000
2196.10303 -4935.16260 43.17038 385
6616.66016 -18698.28906 2407.10327 1000
2000.14233 -5940.53760 29.05213 386
2014.96790 -5981.69238 131.49872 442
1952.06775 -5911.72949 30.65838 266
1897.89734 -5866.77100 31.62276 350
1853.99744 -5852.15771 31.19408 355
1811.55701 -5840.69482 31.54885 412
1823.95984 -5878.79443 131.97647 465
1828.13501 -5893.28516 231.82634 258
1772.03296 -5834.48779 31.46502 420
1781.39172 -5869.07959 130.52486 466
1776.98779 -5855.65527 230.73509 422
1731.54639 -5830.43945 31.53649 423
1741.21619 -5862.06592 131.08911 491
1738.91528 -5854.30664 231.37505 423
1692.61145 -5827.63916 31.93154 428
1702.10925 -5862.32324 131.40283 492
1699.08655 -5853.45947 230.96034 423
1652.50781 -5825.64209 33.42958 431
1661.56677 -5857.69385 131.52664 492
1660.36658 -5851.89307 230.71075 423
1623.64575 -5859.19678 130.62744 493
1623.90234 -5861.69580 229.91858 493
1586.58606 -5865.67432 131.27373 493
1585.06152 -5855.76221 231.10762 493
1549.28442 -5866.22998 132.11281 493
1546.25085 -5856.14453 229.79979 493
1510.87744 -5866.78271 131.68907 494
1510.55029 -5863.90723 230.64630 494
1472.70959 -5867.05566 132.37433 494
1471.99243 -5865.11621 230.60936 494
1494.85278 -5959.19971 332.65500 453
1464.37183 -5994.58252 131.56494 300
1469.61572 -6016.14014 232.35031 300
1459.37976 -5971.65967 332.74747 422
1425.28894 -5992.63965 332.29593 497
1388.19141 -5996.26953 332.62946 358
13523.21484 -64021.64844 7651.57764 1000
4184.43506 -21488.73828 -3481.33179 1000
1231.57739 -5985.16064 130.86464 496
1172.15454 -5867.36426 132.50043 366
1182.04675 -6132.05713 130.94193 496
1109.31726 -5935.22998 132.41864 470
1070.04810 -5922.59521 131.94714 471
1032.74487 -5917.12305 132.55424 499
1011.76703 -6025.18750 132.14790 337
991.45856 -5892.96875 230.05287 409
597.15253 -4641.88623 132.29274 438
389.33481 -3295.80981 78.04322 301
393.91260 -3343.82544 132.08289 299
364.82681 -3244.45557 78.77995 258
371.68439 -3321.59692 132.46745 417
342.20685 -3206.87769 79.19196 366
351.06586 -3321.66040 131.75154 477
319.39197 -3171.70190 79.77451 361
330.22760 -3323.28589 132.13623 477
298.03027 -3138.96118 80.90274 365
310.07593 -3325.07617 132.33978 477
276.65204 -3110.47363 80.94473 373
290.32733 -3326.92603 132.06300 476
256.44708 -3084.04028 81.50049 376
269.80682 -3327.75830 132.58180 476
237.68321 -3081.87622 81.23980 361
249.47311 -3330.01123 131.71962 476
219.60875 -3114.46582 81.11781 355
228.97047 -3332.05005 132.28813 476
202.17937 -3145.83398 80.64086 354
207.97183 -3333.75049 131.86104 476
183.87589 -3189.12012 79.89469 346
187.68202 -3335.06909 131.72124 476
165.34349 -3240.10229 78.96818 303
167.60118 -3343.35278 132.25723 401
147.46864 -3330.35840 77.99190 278
20.35179 -5004.54297 -863.40283 1000
-9846.44141 -47845.48828 137.38342 1000
-319.69232 -1069.08008 132.19930 378
-319.19238 -1067.53003 150.91591 378
-318.88217 -1066.53735 169.83162 438
-318.50992 -1065.57605 188.36560 438
-318.18076 -1064.79248 207.05173 479
-317.86948 -1064.08484 225.94118 479
-317.59326 -1063.31592 244.63646 479
-325.93658 -1065.25281 38.16893 479
-325.65640 -1064.59363 57.03430 498
-325.59454 -1064.24548 76.05663 498
-325.21936 -1063.77527 94.81961 498
-325.27393 -1063.51355 113.37622 493
-325.00931 -1063.00513 132.10704 493
-324.83777 -1063.02820 150.81834 493
-324.76474 -1062.84570 169.55698 463
-324.66223 -1062.73633 188.34961 463
-324.90686 -1062.71362 207.04884 463
-325.00510 -1062.82349 226.02579 412
-324.97583 -1063.23096 244.90909 412
-333.29935 -1064.74841 38.01752 411
-333.51590 -1065.65540 56.82290 345
-17171.05273 -39985.54297 -7785.73584 1000
-24294.60156 -48135.82422 1908.02991 1000
-823.40997 -1569.18701 251.40092 342
-822.42126 -1567.21887 281.41431 371
-835.01611 -1566.78418 42.67278 460
-834.24176 -1565.65747 72.44502 491
-833.65533 -1564.75183 102.54434 499
-833.36993 -1563.84265 132.57448 499
-832.86194 -1563.29395 162.04225 481
-832.69141 -1562.68201 191.82181 441
-832.77167 -1563.12708 221.75977 441
-833.04034 -1563.73193 251.62904 382
-1338.16223 -2080.56006 91.11897 284
-1337.12915 -2077.49487 132.81868 359
-1335.37451 -2076.48389 174.01572 359
-1334.82458 -2074.47510 214.87032 359
-1333.97693 -2072.94287 256.46661 423
-1332.69763 -2071.79370 297.77826 423
-2262.24072 -1673.68884 -443.64691 1000
-45925.60156 -20888.26172 4283.00391 1000
-11349.12793 -4532.18213 2793.44287 1000
90.15437 -2.95439 128.06331 371
90.15401 -2.95303 128.30748 371
89.47365 -3.13412 128.38625 306
88.33665 -3.43731 128.38763 302
90.25649 -2.85083 128.08098 372
90.25787 -2.85041 128.32468 372
89.50629 -3.04529 128.38571 306
88.37022 -3.34024 128.38507 302
90.35945 -2.74793 128.10059 373
90.35755 -2.74903 128.34300 374
89.54107 -2.95629 128.38524 306
88.40279 -3.24476 128.38756 302
90.45918 -2.64758 128.11832 374
90.45996 -2.64840 128.35938 375
89.57812 -2.86687 128.38762 306
88.43613 -3.14858 128.38750 302
90.55827 -2.54955 128.13518 376
90.55829 -2.55021 128.37433 376
89.61379 -2.77674 128.38589 306
88.47298 -3.04977 128.38499 302
90.65639 -2.45103 128.15022 377
90.64093 -2.45462 128.38757 310
89.64857 -2.68599 128.38742 306
88.50811 -2.95326 128.38525 302
90.75153 -2.35651 128.16747 378
90.68014 -2.37097 128.38535 310
89.68661 -2.59860 128.38614 306
88.54311 -2.85623 128.38777 302
87.21062 -3.16007 128.38806 298
90.84833 -2.26077 128.18192 379
90.71702 -2.28920 128.38657 310
89.72398 -2.50741 128.38576 306
88.57789 -2.76059 128.38676 302
87.24620 -3.05330 128.38792 298
90.94229 -2.16541 128.19730 381
90.75735 -2.20598 128.38617 310
89.76121 -2.41693 128.38605 306
88.61812 -2.66410 128.38693 302
87.28254 -2.95040 128.38776 298
91.03513 -2.07119 128.21242 382
90.79530 -2.12078 128.38675 310
89.80170 -2.32738 128.38618 306
88.65490 -2.56557 128.38545 302
87.32009 -2.84450 128.38615 298
91.12808 -1.97828 128.22807 383
90.83717 -2.03840 128.38548 310
89.83992 -2.23793 128.38651 306
88.69409 -2.47028 128.38687 302
87.35751 -2.73845 128.38834 298
91.22126 -1.88742 128.24039 384
90.87576 -1.95308 128.38594 310
89.88033 -2.14824 128.38773 306
88.73020 -2.37264 128.38530 302
87.39378 -2.63175 128.38721 298
91.31114 -1.79554 128.25401 386
90.91926 -1.87132 128.38651 310
89.91908 -2.06003 128.38792 306
88.76965 -2.27442 128.38722 302
87.43579 -2.52725 128.38646 298
91.36093 -1.71340 128.25638 468
90.95962 -1.78605 128.38638 310
89.95992 -1.96761 128.38753 306
88.81115 -2.17809 128.38603 302
87.47270 -2.42303 128.38647 298
91.38287 -1.63529 128.25127 468
91.00053 -1.70440 128.38586 310
90.00297 -1.87857 128.38594 306
88.00669 -2.23122 128.20212 353
87.51463 -2.31666 128.38629 298
91.40224 -1.55753 128.24512 469
91.04522 -1.61847 128.38663 310
90.04585 -1.78815 128.38791 306
87.79122 -2.17125 128.14326 351
87.55269 -2.21028 128.38611 298
91.42455 -1.48154 128.24004 470
91.08801 -1.53530 128.38737 310
90.08791 -1.69837 128.38646 306
87.56644 -2.11162 128.08504 350
87.56329 -2.11075 128.38124 350
86.01280 -2.36310 128.38655 294
91.44405 -1.40245 128.23291 470
91.12997 -1.45320 128.38577 310
90.13033 -1.60821 128.38750 306
87.33263 -2.04706 128.02686 349
87.33092 -2.04882 128.32477 349
86.05576 -2.24731 128.38754 294
91.46675 -1.32576 128.22742 471
91.17632 -1.36892 128.38672 310
90.17372 -1.51875 128.38676 306
87.12877 -1.97834 127.97305 446
87.13030 -1.97978 128.27650 447
86.09718 -2.13239 128.38594 294
91.48747 -1.24741 128.22003 471
91.21915 -1.28546 128.38550 310
90.21915 -1.42873 128.38695 306
87.04066 -1.88712 127.94630 445
87.03766 -1.88734 128.25089 446
86.13892 -2.01793 128.38629 294
91.50876 -1.16656 128.21347 472
91.26508 -1.20032 128.38731 310
90.26321 -1.33828 128.38791 306
86.94815 -1.79639 127.91682 444
86.94971 -1.79813 128.22098 445
86.18353 -1.90374 128.38733 294
91.52897 -1.08905 128.20819 473
91.31222 -1.11857 128.38661 310
90.30899 -1.24848 128.38548 306
86.85438 -1.70341 127.88629 443
86.85464 -1.70678 128.19359 444
86.22644 -1.78869 128.38626 294
91.55125 -1.00963 128.20027 473
91.35703 -1.03431 128.38742 310
90.35540 -1.15916 128.38588 306
86.76039 -1.61259 127.85442 442
86.76352 -1.61267 128.16585 443
86.27020 -1.67346 128.38661 294
91.57094 -0.93108 128.19394 474
91.40450 -0.94932 128.38715 310
90.40065 -1.07089 128.38780 306
86.66689 -1.51507 127.82641 442
86.66554 -1.51688 128.13857 442
86.31593 -1.55600 128.38687 294
91.59182 -0.84977 128.18614 474
91.45091 -0.86643 128.38596 310
90.44767 -0.98001 128.38515 306
86.56998 -1.41893 127.79487 441
86.56898 -1.42005 128.10901 441
86.36069 -1.44171 128.38567 294
91.61388 -0.77059 128.18109 475
91.49868 -0.78219 128.38542 310
90.49596 -0.88932 128.38550 306
86.58253 -1.30671 127.78829 302
86.47103 -1.32045 128.08061 440
86.40890 -1.32586 128.38550 294
91.63598 -0.68988 128.17404 475
91.54821 -0.69804 128.38657 310
90.54519 -0.80056 128.38672 306
86.62657 -1.19571 127.78925 302
86.37285 -1.21893 128.05139 439
86.37066 -1.22178 128.37268 440
91.65710 -0.60886 128.16579 476
91.59743 -0.61643 128.38625 310
90.59172 -0.70948 128.38591 306
86.67685 -1.07998 127.78669 302
86.29342 -1.11845 128.02766 491
86.29332 -1.11807 128.35001 492
91.68033 -0.52905 128.15871 476
91.64491 -0.53120 128.38649 310
90.64211 -0.61965 128.38579 306
86.72457 -0.96836 127.78773 302
86.26760 -1.00909 128.01056 491
86.26522 -1.00845 128.33560 492
91.70111 -0.44836 128.15010 477
91.69513 -0.44935 128.38678 310
90.69285 -0.53028 128.38733 306
86.77188 -0.85317 127.78690 302
86.23452 -0.89579 127.99684 491
86.23608 -0.89876 128.32146 491
91.72367 -0.36537 128.14276 477
91.72373 -0.36765 128.38145 478
90.74123 -0.44003 128.38718 306
86.82035 -0.73971 127.78770 302
86.20580 -0.78544 127.97947 490
86.20480 -0.78624 128.30482 491
91.74358 -0.28361 128.13692 478
91.74491 -0.28495 128.37373 479
90.79362 -0.35048 128.38521 306
86.87227 -0.62376 127.78941 302
86.17703 -0.67362 127.96388 490
86.17686 -0.67251 128.29073 491
91.76629 -0.20223 128.12891 478
91.76574 -0.20263 128.36636 479
90.84328 -0.26113 128.38577 306
86.92209 -0.51071 127.78652 302
86.14456 -0.56256 127.95055 490
86.14700 -0.55897 128.27351 491
91.78790 -0.12134 128.11891 479
91.78884 -0.11952 128.35867 480
90.89706 -0.17118 128.38737 306
86.97232 -0.39657 127.78716 302
86.11469 -0.44816 127.93034 490
86.11635 -0.44774 128.25999 490
91.80939 -0.03727 128.11090 479
91.81141 -0.03715 128.35068 480
90.94913 -0.08269 128.38629 306
87.02567 -0.28280 127.78844 302
86.08516 -0.33186 127.91428 489
86.08502 -0.33297 128.24316 490
84.96347 -0.38802 128.38655 290
91.80872 0.04404 128.09857 485
91.80930 0.04246 128.33638 486
91.00188 0.00767 128.38635 306
87.07764 -0.17058 127.78609 302
86.05242 -0.21585 127.90033 489
86.05257 -0.21487 128.22923 490
85.01847 -0.26261 128.38773 290
91.78809 0.12621 128.07675 485
91.78648 0.12562 128.31769 486
91.05495 0.09516 128.38593 306
87.12827 -0.05722 127.78919 302
86.02806 -0.12188 128.20418 489
86.02222 -0.10099 128.21602 489
85.07189 -0.13693 128.38507 290
91.76617 0.20722 128.05640 485
91.76524 0.20621 128.29979 486
91.11100 0.18547 128.38795 306
87.18413 0.05550 127.78617 302
86.00102 0.01817 127.86750 484
86.00024 0.01709 128.19875 485
85.12966 -0.00971 128.38774 290
91.74309 0.29151 128.03664 484
91.74407 0.29101 128.28088 485
91.16472 0.27621 128.38683 306
87.23922 0.17023 127.78601 302
86.03258 0.13768 127.86172 485
86.03075 0.13633 128.19374 485
85.18282 0.11570 128.38548 290
91.71953 0.37512 128.01520 484
91.72059 0.37418 128.25941 485
91.22034 0.36425 128.38702 306
87.29405 0.28381 127.78938 302
86.06291 0.25817 127.85733 485
86.06290 0.25837 128.19206 486
85.24033 0.24040 128.38707 290
91.69669 0.45888 127.99471 484
91.69805 0.46073 128.24057 485
91.27574 0.45384 128.38734 306
87.34951 0.39679 127.78944 302
86.09563 0.37835 127.85126 485
86.09922 0.37982 128.18494 486
85.29915 0.36718 128.38866 290
91.67471 0.54559 127.97321 483
91.67402 0.54500 128.22122 484
91.33433 0.54263 128.38696 306
87.40845 0.50927 127.78721 302
86.13081 0.49888 127.84584 486
86.12848 0.49983 128.18037 487
85.36006 0.49510 128.38597 290
-20297.88281 -168.56274 131.88574 1000
91.65198 0.63325 127.95149 483
91.65214 0.63127 128.20049 484
91.38958 0.63140 128.38771 306
87.46242 0.62460 127.78741 302
86.16042 0.62057 127.84182 486
86.16071 0.61908 128.17578 487
85.41719 0.61685 128.38710 290
