# .PCD v.7 - Point Cloud Data file format
VERSION .7
FIELDS x y z rgb
SIZE 4 4 4 4
TYPE F F F U
COUNT 1 1 1 1
WIDTH 699
HEIGHT 1
VIEWPOINT 4169.913086 -4093.498047 127.189445 -0.001986 -0.123592 0.003981 0.992323
POINTS 699
DATA ascii
-273.52594 58.18308 33.19282 320
-288.11472 60.49277 35.80992 264
-267.29962 59.36510 34.77728 326
-281.46594 61.71768 37.44338 323
-297.61646 64.38377 40.07653 313
-263.14749 60.87743 35.72491 351
-277.54193 63.39476 38.32531 347
-293.30618 66.05139 40.96674 342
-261.25406 62.77715 36.19294 351
-275.49216 65.33142 38.71552 348
-291.36749 68.15442 41.35736 341
-259.35977 64.69627 36.56923 352
-273.69781 67.35027 39.04647 346
-292.82040 70.82851 40.87417 319
-257.53485 66.54319 37.00162 352
-273.39868 69.50914 39.03550 322
-255.72597 68.42302 37.38065 350
-275.24524 72.18589 38.44700 319
-257.47586 70.93897 36.78836 322
-282.61438 76.06015 36.44329 261
-259.42856 73.49377 36.11932 322
-261.32379 76.21334 35.46521 321
-38142.38672 9992.90723 1976.89978 1000
-48834.26562 15726.32129 12872.68457 1000
-46066.44531 27530.27734 -13454.63965 1000
-41635.53906 33670.32422 902.51788 1000
-9449.09473 7696.69971 2130.28809 1000
-25975.67578 27935.11328 7661.72510 1000
-4422.04346 5142.65039 793.87469 1000
-4565.76611 18425.75586 -3342.20239 1000
-346.86194 1919.44690 422.12155 1000
-265.39694 1944.64429 0.83396 452
-267.24692 1954.14331 32.97383 330
-252.50648 1943.17346 1.03642 498
-253.38910 1948.45251 33.46077 498
-254.32436 1953.63574 65.33994 497
-241.96922 1952.26355 0.55650 393
-243.01479 1959.69702 32.92375 323
-64.95431 68899.17188 11476.75977 1000
1192.25757 15434.51074 128.74722 469
1189.33521 15339.75879 376.85025 487
1287.38159 15396.08887 125.17620 469
1277.79724 15308.05957 376.55667 487
1378.32141 15358.33398 128.27399 476
1371.46411 15273.51855 376.91550 488
1470.57666 15325.27832 126.79607 476
1464.09680 15240.85449 379.59930 488
228.27646 1451.24805 11.69293 437
228.86768 1456.93359 35.28720 379
1562.33398 15296.80762 126.84550 477
1553.23999 15210.00488 378.91489 489
236.65411 1445.14587 12.12830 498
237.24957 1449.43433 35.80635 479
237.70818 1453.93726 59.62516 496
238.11894 1457.88733 83.19967 476
1653.79297 15265.25293 126.98965 477
1643.39050 15176.06445 378.95529 489
245.69868 1444.79150 12.16875 492
246.18727 1449.07983 35.82881 491
246.52478 1453.49316 59.34231 489
247.45384 1458.87695 83.12537 410
1746.52344 15233.08301 127.89810 477
1736.16589 15146.74805 374.97650 489
255.18446 1449.31519 11.75496 411
256.34320 1457.61182 35.33183 344
1835.92212 15201.51758 125.46056 478
1825.09473 15115.13965 377.52829 490
1927.85876 15171.49414 128.24318 478
1918.40820 15085.38672 378.01547 490
2018.77832 15137.95801 129.03690 478
2006.67883 15055.20117 376.80414 490
2107.82642 15108.50488 129.72583 479
2098.49951 15022.43457 377.42813 490
2197.62720 15078.50684 128.60873 479
2187.59839 14993.76367 374.45743 491
2288.83765 15047.51953 127.28959 479
2274.66748 14963.37891 376.54156 491
2375.86938 15018.35742 130.18958 479
2365.70898 14933.25977 373.71884 491
2469.11450 14985.62598 126.60072 480
2453.28638 14902.20410 375.58212 492
2555.49463 14956.21875 128.54234 480
2542.09570 14872.97852 373.01877 492
2647.45361 14923.62695 129.48259 480
2633.21167 14843.34180 374.68848 492
2733.99487 14894.28809 130.42493 480
2719.31641 14809.73145 373.28186 492
2822.67310 14864.55469 126.69878 480
2807.93457 14781.32520 375.88379 493
2909.92236 14831.62793 127.84225 481
2896.32422 14753.21191 374.22079 493
3000.71045 14804.60840 128.30916 481
2986.03857 14722.55273 375.13077 493
3090.37891 14773.72070 128.06897 481
3070.91553 14690.60742 372.21310 493
3178.84131 14744.55469 127.06660 481
3161.69238 14661.50879 372.47031 493
3269.35547 14730.67188 133.34717 481
3247.25171 14631.66309 373.86929 494
3350.66699 14683.68457 128.36855 482
3334.44702 14602.55762 374.36661 494
3438.74341 14652.57520 129.39511 482
3420.70093 14572.32910 373.17679 494
3529.55957 14621.73730 130.64009 482
3508.04370 14540.73242 374.86874 494
3616.33643 14590.36133 129.61671 482
3597.76294 14510.51855 372.60730 494
3703.62793 14562.28516 128.58267 482
3685.29346 14482.42676 375.21310 494
3788.96313 14530.67773 129.15366 482
3770.06885 14453.61621 375.05576 495
3877.73608 14501.37793 128.92870 482
3856.31226 14421.96582 373.42780 495
3965.60522 14472.91699 131.05067 482
3945.15088 14395.17090 372.86142 495
4052.20728 14443.83008 130.81955 483
4029.52612 14364.39355 373.35489 495
4139.52148 14413.36621 128.21045 483
4116.55518 14333.29590 372.65930 495
4225.24707 14383.79785 131.59190 483
4203.07471 14304.06738 372.14297 495
4313.30957 14353.75293 130.71997 483
4288.22803 14275.55957 375.63318 495
4400.61963 14324.76660 129.45346 483
4376.78906 14244.19336 374.84656 495
4589.26123 14944.02344 643.23181 494
4601.27783 14986.98926 899.25720 413
4485.13135 14292.09473 129.05386 483
4462.31934 14216.68848 373.24002 495
4674.79102 14899.81836 642.28961 494
4683.86035 14938.59277 897.62836 413
4573.59375 14263.23047 128.59157 483
4548.65332 14188.01562 374.54248 495
4758.75879 14851.87012 638.52228 494
4770.58398 14887.67676 896.74854 413
4659.08496 14235.18555 132.04472 483
4636.82324 14158.52148 372.01852 495
4843.07910 14802.34668 637.93005 495
4852.55762 14837.51855 893.89081 414
4747.49658 14204.70801 129.42975 483
4721.07422 14129.27930 374.57028 495
4929.99512 14754.89551 640.56952 495
4937.03125 14789.45117 896.38153 414
4834.58496 14174.10742 129.12074 483
4808.55078 14098.64551 373.95984 495
5012.33252 14708.19141 636.21796 495
5022.97021 14738.67969 895.27356 414
4922.55371 14144.54004 128.91006 483
4895.37695 14071.14160 375.47626 495
5095.60352 14660.14258 637.81293 495
5106.08105 14688.18555 894.65936 414
5007.84473 14113.90234 130.86464 483
4980.92920 14037.49902 372.53131 495
5181.51270 14615.31934 637.86383 496
5188.58350 14638.09277 892.85126 414
5095.88330 14085.49902 131.56221 483
5068.52832 14010.48047 375.91455 495
5264.89453 14568.63184 638.66992 496
5274.26562 14590.39551 890.62469 415
5181.42676 14056.42578 132.64336 483
5153.81201 13982.15918 375.73688 495
5348.93115 14522.48633 634.53247 499
5358.28857 14544.56934 890.10803 417
5266.35059 14026.81934 132.46623 483
5240.16748 13949.79199 374.92407 495
5442.11670 14491.96484 637.81964 499
5444.85596 14509.02051 889.68695 417
5355.98193 13994.43359 129.73357 483
5324.99561 13923.13770 372.69669 495
5530.04346 14457.62695 638.40942 499
5536.85742 14475.89648 892.64069 417
5439.82568 13965.92676 128.89848 483
5413.00537 13893.16309 373.28973 495
5618.51855 14429.16211 635.59723 499
5623.25098 14443.23047 891.29462 417
5528.59619 13936.75781 129.08772 483
5498.25928 13863.51172 373.62375 495
5707.26953 14395.02148 636.97382 499
5715.26758 14410.67773 888.74927 417
5617.25146 13908.46094 132.05190 483
5586.53955 13835.01855 376.22287 495
5795.11377 14363.94922 638.96100 499
5801.50781 14378.61621 890.70892 417
5702.91602 13879.10352 129.23152 483
5671.58301 13804.45215 372.65866 495
5885.47168 14330.65332 635.66333 499
5891.24805 14342.59961 889.40851 417
5789.97607 13847.86914 130.23605 483
5757.40381 13774.33594 373.18597 495
5974.86328 14300.21582 639.08698 499
5978.26709 14308.53418 890.30731 417
5875.77441 13819.53125 131.80469 483
5844.54443 13742.07910 374.99680 495
6063.63379 14267.42090 637.33588 499
6070.85059 14276.57812 891.70233 417
5964.83887 13789.70996 131.77592 482
5933.34473 13713.35742 376.35373 495
6075.57129 14054.97070 629.25793 484
6157.76807 14245.12402 893.43201 417
6051.30127 13757.73242 131.00522 482
6017.95459 13686.49512 376.22418 495
6147.80078 13984.83301 632.05688 485
6249.12451 14212.13184 891.20367 417
2027.37793 4600.16455 -0.15472 482
6104.86182 13655.70605 376.14569 494
6228.11914 13931.50684 630.06787 499
6337.36475 14176.06445 892.76831 417
6351.56152 14212.89062 1147.46179 498
6421.73828 14371.00195 1418.20288 482
6226.68359 13697.58496 129.58072 482
6192.97021 13627.40430 375.75940 494
6318.20215 13901.14258 631.10992 499
6424.33789 14144.21289 893.07605 417
6439.86426 14177.91895 1148.00940 498
6495.28369 14302.88477 1416.84363 482
6313.42432 13667.69336 130.92694 482
6281.72559 13596.93164 376.63947 494
6402.29736 13865.91406 627.97662 499
6514.25439 14112.31543 890.86176 417
6533.38184 14146.29883 1148.44055 498
6399.73877 13638.30176 131.73354 482
6368.50244 13565.93652 373.81491 494
6493.18164 13835.97559 631.94110 498
6601.61230 14072.99023 894.35553 469
6601.57617 14072.68555 1145.91162 469
6488.33740 13607.06152 129.79463 482
6453.36328 13534.86621 378.02896 494
6581.02197 13803.20898 630.87988 498
6667.25244 13988.68262 890.17938 470
6666.23633 13984.48730 1143.34363 470
6731.83984 14126.72168 1412.52051 372
6578.67920 13577.74707 133.42229 481
6543.82568 13506.79688 378.19479 494
6669.42920 13770.52344 630.16400 498
6731.78125 13900.00000 887.47137 471
6731.68994 13900.20996 1140.07385 471
6795.80713 14033.69629 1404.87085 372
6666.24854 13548.68555 132.27081 481
6631.85645 13474.16699 375.49234 490
6756.23779 13739.37305 631.93719 498
6793.57422 13817.15625 885.11609 471
6796.12158 13815.70605 1138.98779 471
6854.10449 13938.00879 1403.77161 372
7139.87646 14524.02148 2255.46729 331
7135.23633 14517.02344 2523.92969 488
7133.93164 14518.14648 2795.66504 493
6751.88477 13519.02637 131.68553 481
6718.73242 13447.52637 377.42517 490
6847.27979 13708.54883 631.57391 498
6868.20020 13751.64551 883.94806 498
6868.63232 13750.21777 1135.34473 497
6923.05859 13860.49023 1397.72424 389
6958.58643 13932.21582 1660.64771 406
6958.37793 13936.00195 1918.60303 406
6842.47803 13486.57324 130.19833 481
6804.64648 13417.21191 377.79565 490
6935.42725 13674.92773 632.99390 498
6957.17480 13719.89355 883.71704 497
6956.28369 13718.74316 1136.10388 497
7010.11914 13827.11719 1401.06372 389
7119.30420 14039.87598 1676.45117 484
6931.20068 13455.55957 131.60571 481
6895.04346 13385.38477 375.11713 490
7026.95996 13644.61328 633.21204 497
7033.76807 13660.18750 884.86243 497
7031.39111 13659.39160 1134.80334 497
7099.52148 13794.52734 1401.00977 389
7209.92236 14008.75098 1676.95862 483
7018.55664 13426.68652 130.09933 481
6980.95850 13355.13867 378.30319 489
7113.45264 13613.75391 633.79266 497
7122.52148 13629.61914 883.12653 497
7122.57324 13627.51270 1138.74573 497
7191.39502 13761.42383 1402.02087 389
7284.60254 13942.54883 1674.47278 453
7108.56104 13397.34863 131.70447 480
7069.85449 13327.42090 377.39462 489
7204.80664 13580.21582 634.67303 497
7213.58691 13597.03613 886.36493 497
7212.86816 13597.45117 1137.55383 497
7282.01611 13728.05273 1402.10095 388
7372.55029 13902.50488 1679.08118 466
7198.28223 13366.47461 132.76105 480
7157.23486 13294.90039 377.72845 489
7291.77344 13547.96680 635.54889 497
7301.66406 13563.40137 885.73499 497
7303.31445 13562.70801 1137.27014 496
7371.19385 13694.78516 1403.87268 388
7483.59570 13906.68262 1683.12195 483
7287.32031 13333.63379 133.23618 480
7249.23975 13265.83496 378.58813 489
7383.86768 13516.46582 632.62585 497
7390.48682 13532.04492 885.65497 496
7389.68262 13532.18262 1137.96606 496
7459.35352 13660.60938 1402.72766 388
7577.20801 13875.18848 1686.49719 483
7372.77637 13304.27734 132.60909 480
7337.48242 13236.49902 376.61777 489
7472.23096 13482.61426 636.21716 496
7480.33203 13498.58398 886.18115 496
7479.62402 13498.65723 1138.37292 496
7551.85352 13628.73438 1403.53149 388
7462.72510 13275.13477 130.69730 479
7423.63867 13203.62402 377.49289 488
7563.05029 13449.62695 637.22546 496
7572.43018 13467.29004 888.70404 496
7569.90234 13466.05176 1139.56299 496
7644.51709 13595.09180 1407.94092 388
7553.95215 13245.19043 133.22861 479
7513.59668 13175.44141 380.49561 488
7651.61914 13416.89453 633.88007 496
7661.52734 13434.93555 888.63184 496
7676.34326 13461.50879 1142.84998 495
7731.49561 13562.84180 1409.14539 388
7645.66455 13215.01074 131.01904 479
7601.94434 13143.18945 377.46439 488
7742.16309 13383.82129 635.14618 496
7765.06543 13429.12988 891.13544 495
7768.64502 13429.91406 1146.87415 495
7826.61182 13531.08496 1410.28662 388
7735.61035 13184.13281 130.92108 479
7693.52100 13112.53320 381.40094 487
7832.73975 13353.35254 636.66595 495
7859.71777 13397.98242 894.36877 495
7856.57373 13398.44922 1146.22510 495
7916.34424 13496.55469 1409.60022 388
7822.66455 13149.44434 127.87277 478
7783.98682 13081.06152 376.16595 487
7921.06445 13319.41016 632.42828 495
7870.45654 13236.43945 880.73389 424
7851.15820 13203.44434 1131.82715 386
8005.73633 13466.42383 1408.53992 387
7914.87256 13120.69922 130.35144 478
7874.77393 13050.52344 376.64886 487
8013.83252 13289.48340 634.83569 495
8038.57617 13333.57715 891.72229 495
8035.96436 13335.41016 1145.14587 494
8098.54004 13431.36816 1411.44641 387
8005.05029 13087.59668 127.10236 478
7962.63135 13019.63281 379.88928 487
8102.02734 13255.62500 635.48206 495
8131.26807 13300.27441 892.20428 494
8131.11279 13300.47852 1146.20593 494
8186.24316 13396.70801 1410.69849 379
8097.35840 13056.81836 130.02043 477
8054.08350 12988.82910 377.83273 486
8196.57617 13225.15332 638.15656 494
8222.27734 13268.00195 895.68695 494
8223.23535 13269.15918 1148.11060 429
8310.10547 13412.81055 1419.66895 342
8187.79883 13025.32812 128.03258 477
8145.04004 12957.59473 379.62247 486
8156.93408 12983.55566 631.20337 383
8351.49805 13293.84375 898.58203 428
8352.06836 13295.55371 1155.58228 428
8453.18457 13460.56543 1427.41235 341
8278.24219 12996.02832 128.22267 477
8233.22070 12927.85547 381.61548 486
8249.39551 12952.19043 630.63013 383
8477.64062 13318.29492 903.43591 456
8482.66113 13325.39551 1161.27466 427
8372.00879 12963.37793 130.77116 476
8325.45117 12895.04688 379.78403 485
8338.07129 12920.65918 630.04474 383
8594.99023 13315.49219 908.07013 455
8617.00098 13354.13184 1167.69116 426
8463.81055 12933.48730 131.97676 475
8418.20020 12867.18555 382.63095 485
8429.04883 12884.80176 632.13391 383
8707.92676 13312.93945 909.10907 454
8556.67285 12900.33008 131.49159 474
8510.40527 12836.19434 383.48782 484
8523.74805 12851.48730 635.00989 432
8824.17480 13315.11230 914.64496 453
726.65814 960.12500 18.24051 429
729.44226 964.60938 36.74661 367
8646.04492 12869.48145 128.72504 474
8603.08496 12803.82617 382.81186 484
8613.24121 12819.84961 635.83929 432
729.86517 952.16187 18.86446 474
731.67377 955.25891 37.52780 474
733.80878 958.11981 56.30217 385
735.71149 961.40039 75.07455 430
738.67578 965.42676 93.65539 367
8742.49902 12837.12207 128.98421 474
8694.64453 12772.27246 383.85602 484
8704.10254 12790.55566 634.81384 431
735.11859 947.54034 18.96487 495
736.88965 950.03619 37.60836 494
738.71460 952.69379 56.25023 405
740.88867 956.36090 75.12600 499
741.88098 958.05438 93.77048 497
8833.96484 12805.67578 131.72882 473
8786.62695 12738.38770 383.15469 483
8797.43945 12757.08984 636.73120 431
742.03400 945.11182 18.60644 468
743.92847 948.04028 37.32950 468
746.38824 951.45856 56.18008 355
748.57117 954.83997 74.75178 404
8927.15332 12775.38477 131.76889 473
8881.75293 12709.40723 382.97885 483
8893.21484 12723.65137 637.49756 431
751.97174 947.09235 18.06580 355
9022.06836 12742.85254 133.89124 472
8974.04102 12673.71973 384.49115 483
8984.48828 12690.49707 637.99713 431
9116.48340 12710.73828 131.63948 472
9067.04883 12641.48340 386.96112 482
9075.74902 12658.78613 639.08575 430
9211.85352 12676.23535 131.62201 472
9160.15918 12610.13574 386.86584 482
9169.60449 12624.27832 642.52869 430
9303.14062 12645.46875 134.61449 471
9257.53320 12577.09961 389.52017 481
9263.89160 12593.05078 643.59052 430
9401.44922 12614.10352 134.68448 471
9352.51465 12548.55176 388.76541 481
9361.47754 12558.33789 644.69055 423
9497.65430 12578.09668 131.08475 470
9444.52637 12513.44434 389.51480 480
9455.20410 12528.73828 645.08099 423
9593.33594 12548.41992 132.07513 470
9543.67578 12482.81836 388.65390 480
9552.35449 12495.71680 647.80176 423
9687.82715 12515.49707 134.21237 469
9635.92383 12450.46289 390.29456 479
9645.56836 12460.83594 645.90918 422
9785.08496 12482.11523 134.04248 469
9735.22949 12415.79980 390.82788 479
9744.67188 12431.33203 649.99365 422
9883.43945 12446.74023 132.32886 469
9829.68750 12382.38184 393.38474 478
9839.37988 12399.26562 648.39618 422
9979.27930 12414.82617 135.96381 468
9927.49609 12350.95703 393.24918 478
9937.14258 12363.46289 652.77753 421
10078.76270 12380.59375 132.56033 468
10025.81250 12314.43164 395.39740 477
10037.99707 12330.20117 652.19519 421
10177.53223 12345.18652 136.84457 467
10125.01074 12280.93164 393.14240 477
10136.39844 12296.13184 656.16406 420
10276.91016 12315.12988 135.70189 467
10221.74219 12249.02539 396.52383 476
10232.39551 12262.26172 655.23669 420
10375.06543 12278.93652 134.55650 466
10321.17676 12215.21094 395.36209 476
10332.70703 12228.62793 657.99060 420
10474.75684 12244.15430 137.17212 466
10418.16504 12182.93164 395.21918 475
10433.64551 12197.51953 659.04187 419
10576.81836 12209.61426 137.46574 465
10518.02637 12146.74023 398.38736 475
10532.00879 12162.43848 660.91254 419
10678.25391 12174.87207 136.73483 464
10620.12207 12113.24512 399.90320 474
10631.65430 12128.82715 662.22308 418
10779.64746 12141.43652 137.90990 464
10718.74707 12075.76953 398.96640 474
10734.12891 12096.41992 664.28687 418
10879.86719 12107.21582 134.85887 463
10823.88281 12041.68848 400.47787 473
10837.61426 12060.71973 665.92163 413
10980.07520 12072.45801 137.15500 463
10921.84277 12009.59375 402.85666 472
10938.85352 12023.47070 669.44672 413
11086.60645 12034.46484 138.40666 462
11026.57324 11972.57617 402.20840 472
11040.22266 11989.38086 669.62054 413
11187.47461 12000.14551 135.27196 462
11128.29492 11937.25391 404.23944 471
11144.53516 11954.76465 670.30255 412
11291.56543 11964.72266 136.53091 461
11232.08301 11904.39258 403.84375 471
11251.66504 11922.39453 674.35431 412
11397.22949 11929.89746 138.01662 461
11335.84180 11868.66309 405.09601 470
11352.03320 11885.11621 675.88263 411
11502.28906 11892.55078 138.79263 460
11439.41504 11830.08984 404.24933 469
11461.90039 11851.08984 676.98492 411
11611.48926 11862.02734 139.26416 443
11548.46484 11795.23828 406.83469 469
11563.39746 11813.43066 678.37079 424
11728.45703 11836.52148 137.04056 443
11655.10059 11757.50488 406.41318 468
11851.23145 11811.14551 138.87527 443
11762.16699 11724.74707 408.39658 443
11974.35156 11788.89648 138.06223 442
11882.69043 11700.81055 410.18610 442
12097.02637 11767.92090 141.73207 442
12003.74023 11676.94922 410.09085 442
12218.30469 11740.55566 138.55658 441
12126.80859 11653.10449 414.21906 441
12134.96094 11665.46777 687.44769 366
12350.83887 11724.25684 139.68562 394
12252.05664 11629.74023 414.89856 440
12214.89941 11598.74316 687.41418 460
12507.98926 11728.04688 141.87576 372
12374.02930 11603.14941 417.70029 439
12677.31152 11745.58691 138.73483 371
12500.46484 11580.40332 419.77652 440
12855.03516 11765.70801 139.37846 370
12637.25293 11566.38672 422.41064 393
13048.52832 11799.73340 141.45670 342
12796.66211 11569.62207 424.40244 392
12758.63086 11533.09766 700.10681 369
12957.23145 11575.86523 426.25311 391
12889.18066 11510.40723 703.48785 366
13125.86523 11579.94727 429.19656 369
13026.55566 11489.01074 706.27582 417
13323.35938 11609.78223 429.54651 341
13178.64551 11487.13574 714.33356 376
13549.37012 11662.64551 434.13672 340
13348.97461 11485.80664 717.61780 376
13539.18262 11509.34180 722.63721 377
13752.19922 11551.36719 728.91321 349
14407.35547 11515.04395 1650.52161 1000
40211.03516 25191.85352 4056.72705 1000
106.28358 10.59810 135.38181 1000
26203.93359 14250.74707 6078.40039 1000
3650.26343 900.75787 76.39799 373
3654.02783 878.38312 76.12740 415
66387.43750 14175.97852 -5347.90430 1000
66517.37500 14215.14844 3548.33057 1000
59170.38281 11129.23438 -781.59827 1000
23708.16211 1938.76685 -227.83574 1000
4910.16943 -404.17374 137.72958 471
4892.96777 -432.13928 137.64651 459
4879.35156 -461.03522 136.88480 463
4868.44531 -490.05710 137.87863 462
4861.85547 -518.01874 137.48041 394
4856.56396 -547.05927 137.35947 393
4854.04443 -576.45410 136.84802 423
5036.57520 -629.86169 138.18581 376
4919.30566 -644.55731 137.00755 499
4884.80127 -670.04791 138.08847 499
4882.99219 -700.83148 137.48128 498
5057.56299 -756.70374 137.68080 326
4926.59033 -766.98419 137.10107 498
4882.36719 -789.95203 136.92134 498
5054.17822 -850.72729 136.97614 327
5050.93066 -881.07135 137.11096 327
4946.24658 -861.80963 298.78091 498
5048.51611 -912.21533 137.94305 327
4835.81201 -902.85266 136.71019 497
4844.91943 -934.88416 137.27429 355
58236.57031 -11812.68945 -8605.47363 1000
5040.03711 -1004.77771 137.77551 327
5037.07959 -1036.07739 137.46339 327
4965.22754 -1020.55841 300.84146 497
5034.56396 -1067.24109 136.80182 327
5030.99658 -1098.07935 137.14159 327
5027.74072 -1130.11572 137.35728 326
5024.72070 -1161.16199 137.90698 326
5022.46680 -1192.39551 137.46167 382
5020.39893 -1223.14575 137.98349 381
5020.67627 -1255.77393 137.26120 310
64545.39453 -17260.54102 12343.08594 1000
55125.01172 -19179.39258 4006.94189 1000
13629.51660 -5000.25244 -563.75031 1000
3903.43384 -1680.87842 -137.55075 1000
5877.68066 -2853.73853 666.59998 1000
3769.21216 -1927.96692 67.06900 498
3776.83496 -1932.15149 135.55275 485
4669.06104 -4730.52588 135.22018 469
4647.72266 -4767.68018 135.07825 447
4628.94092 -4807.45410 134.59334 443
4609.38232 -4846.50928 134.10806 442
4593.06250 -4888.13916 134.67845 430
4578.65430 -4931.58301 133.89784 419
3556.63525 -3857.01514 133.32806 440
4561.52441 -5035.91895 134.85222 390
4563.32861 -5100.28809 133.22609 387
4564.18994 -5165.22852 133.78229 394
4564.93213 -5230.36377 134.71088 398
4566.62354 -5297.80713 134.84106 397
4568.78320 -5366.89746 134.69008 399
4570.60254 -5437.03125 133.85188 399
14484.08496 -17464.67188 1620.94531 1000
763.38269 -1032.25500 31.21221 476
763.46106 -1032.00427 51.66252 477
762.92773 -1031.72937 71.86852 477
762.80927 -1031.41858 91.88468 477
762.51807 -1030.88977 112.16413 477
762.28009 -1030.58020 132.41255 477
762.21588 -1030.33765 152.46506 498
762.26202 -1030.24695 172.80692 498
762.06903 -1029.87561 192.83145 498
761.76862 -1029.71838 212.88054 498
761.63373 -1029.43420 233.19051 497
761.64264 -1029.30371 253.65695 497
757.79205 -1037.41138 31.10943 416
757.60620 -1037.36206 51.51717 416
757.76617 -1037.45850 71.64836 416
758.01410 -1037.71716 91.87725 351
758.15118 -1037.79333 112.21237 351
758.22461 -1038.42236 132.50525 351
759.19714 -1039.56384 152.51746 275
3069.83643 -5891.62354 147.93404 424
3016.05322 -5872.59766 147.76984 436
2963.44238 -5861.36719 147.74109 439
2914.36133 -5850.25098 147.40309 335
2866.89136 -5842.50391 147.53009 451
2818.21948 -5831.89307 148.09351 460
2772.88477 -5826.17188 147.24989 463
2790.60840 -5868.87354 252.52109 477
2728.24609 -5822.72217 146.86148 468
2748.45239 -5869.07861 252.87381 478
2684.41040 -5821.24414 146.43193 472
2701.65845 -5863.13916 251.10507 478
2707.81128 -5876.38232 357.16373 422
2641.36499 -5821.44775 147.10587 477
2658.93628 -5862.71436 250.67265 479
2598.47656 -5821.59521 147.17020 477
2617.94604 -5868.35986 250.88744 474
2556.93799 -5821.14844 147.26637 478
2575.34619 -5868.67236 250.87177 480
1420.88342 -3196.78394 83.54708 264
2514.34326 -5822.61865 145.61844 455
2534.28027 -5867.60059 250.13834 486
2588.46338 -6000.28760 359.51846 435
1345.82666 -3070.51855 85.47453 308
1443.78113 -3310.76929 140.41064 351
2494.54907 -5875.72705 249.95244 499
2534.02417 -5974.36426 358.28979 478
1319.39160 -3059.19263 85.20992 425
1417.88086 -3304.46606 140.65797 466
2506.63574 -6008.48975 251.67393 342
2497.74243 -5988.38623 357.06635 482
1306.67017 -3082.27222 85.03712 424
1394.94580 -3305.86841 140.29593 467
2506.88721 -6117.88721 253.65488 340
2441.44360 -5952.98096 355.52924 488
1293.67920 -3104.68945 85.34738 420
1372.50989 -3307.06812 139.76062 466
2411.56567 -5984.31152 355.51184 302
1281.70801 -3129.93677 85.01855 416
1349.96716 -3309.52295 139.87933 467
1267.89966 -3152.35840 84.82700 423
1326.47656 -3310.92847 139.43942 468
1255.40405 -3179.49927 84.35893 376
1303.97107 -3311.98022 139.66985 468
2287.00269 -5987.83789 250.19855 484
1243.66797 -3206.92407 83.35654 415
1282.14001 -3314.09668 139.60185 469
1232.09058 -3237.36597 83.37852 400
1259.25574 -3314.93042 139.64560 469
1221.53345 -3272.92114 83.18269 391
1237.87903 -3319.10205 139.24181 457
1213.44543 -3313.86499 81.99090 324
1221.59778 -3336.39819 139.51709 466
1207.70593 -3366.07983 82.05833 322
1215.80396 -3388.34351 140.05130 319
2043.23865 -5876.08936 245.42819 490
1213.60107 -3451.50342 80.55661 299
2053.92627 -6033.34570 144.27295 345
1219.80115 -3543.64673 78.66875 304
2039.19470 -6112.68018 249.66090 463
1226.22058 -3643.62183 77.98286 303
1233.70728 -3746.51514 75.94032 341
3627.72559 -14362.16504 -2034.32886 1000
242.33611 -1531.88599 33.87598 490
242.49504 -1531.66003 58.85947 491
242.12100 -1531.21252 84.39397 491
242.35938 -1530.86511 109.69220 491
242.32381 -1530.32715 134.81227 491
242.22157 -1529.95166 159.74477 491
241.88089 -1529.59863 185.07445 491
242.07591 -1529.28882 210.09499 491
241.73091 -1528.88708 235.49538 491
-261.12241 -2037.55444 32.33055 453
-260.76544 -2037.41785 66.67725 453
-260.63110 -2036.76025 100.53404 453
-261.00223 -2036.54736 133.85779 453
-261.00476 -2035.71350 168.14886 453
-260.63351 -2035.58301 201.88327 399
-260.50073 -2035.20703 235.86372 399
-22956.21875 -28934.62305 -8493.21484 1000
-261.40698 -74.43887 36.08383 321
-259.42084 -71.76909 36.69851 321
-257.47250 -69.18717 37.39628 324
-277.51132 -73.19369 38.38328 318
-258.10553 -67.16452 37.31750 352
-275.44131 -70.46700 38.99572 321
-259.99527 -65.24391 36.87718 351
-274.54083 -68.00291 39.41714 345
-261.97046 -63.40354 36.46891 351
-276.29065 -66.03301 39.06782 345
-293.29700 -69.16601 41.37136 319
-263.83032 -61.57261 36.02294 351
-278.28036 -64.02598 38.62702 347
-294.27600 -66.91698 41.31940 341
-267.22354 -59.87355 35.23880 326
-281.31433 -62.22690 37.89609 324
-297.53305 -65.06123 40.66314 315
-273.06702 -58.59632 33.73524 320
-287.03998 -60.85342 36.55111 323
-21380.87695 -1232.15344 4775.16748 1000
