# .PCD v.7 - Point Cloud Data file format
VERSION .7
FIELDS x y z rgb
SIZE 4 4 4 4
TYPE F F F U
COUNT 1 1 1 1
WIDTH 929
HEIGHT 1
VIEWPOINT 5244.412598 -4121.558105 139.028580 -0.002708 -0.141952 0.005590 0.989854
POINTS 929
DATA ascii
-196.45128 1.35297 53.29192 324
-196.41275 3.15102 53.32970 324
-196.42154 4.99431 53.34641 324
-196.44722 6.77948 53.37513 324
-196.45499 8.61862 53.35768 324
-196.37624 10.35315 53.32419 324
-196.33484 12.19235 53.35434 324
-33988.74219 4700.87012 -421.97003 1000
-268.42151 58.04099 33.08171 319
-282.68216 60.24262 35.83121 317
-262.32523 59.34683 34.61288 325
-276.78873 61.66150 37.25446 323
-292.78171 64.27415 40.10270 314
-259.23938 61.05503 35.34815 350
-273.82980 63.53854 37.98785 346
-289.95108 66.29757 40.66883 341
-257.34964 63.00331 35.72654 350
-271.84146 65.56776 38.37528 347
-288.00009 68.35873 41.01197 341
-255.40395 64.83832 36.17595 351
-269.99359 67.48105 38.77436 345
-289.91885 71.14175 40.42226 318
-253.51498 66.73983 36.61749 351
-270.15662 69.90334 38.56225 321
-252.04732 68.73013 36.93216 325
-272.24350 72.56719 37.99288 319
-254.04320 71.29343 36.20353 322
-279.67868 76.44840 35.92253 260
-256.08057 73.98547 35.61197 321
-258.07629 76.65373 34.89635 321
-3162.76318 1107.72278 132.64230 1000
-16747.08789 11772.02930 2156.89453 1000
-10888.94043 9063.54395 2723.42773 1000
-1308.03442 1926.04700 15.37020 475
-1311.92322 1931.62292 54.10402 479
-1297.29614 1936.60144 14.67239 468
-1300.92969 1942.00049 53.53753 419
-789.55023 1423.26416 22.54136 451
-792.99658 1428.14807 49.40981 399
-779.72223 1426.46973 22.70175 499
-781.58783 1429.58118 49.67784 498
-782.96442 1431.66052 77.29518 499
-774.03064 1437.49744 22.03790 396
-28742.42969 60478.59766 -3164.97974 1000
-311.07565 934.01666 -1.88379 356
-302.66678 930.48236 -0.87982 469
-303.83963 933.60431 15.40687 421
-305.58212 937.03058 31.77644 421
-307.89676 943.08142 48.18337 282
-295.77795 930.39606 -0.48141 495
-296.87366 932.68518 15.97145 495
-298.05334 935.27954 32.21336 469
-299.21509 937.95435 48.90600 469
-300.25183 940.99756 65.15945 456
-302.05048 945.03448 81.66337 356
-290.04507 932.32758 -0.39327 497
-290.99594 934.36090 15.89652 497
-291.80884 936.59851 32.31306 497
-292.69092 938.91974 48.77185 497
-293.67044 941.41266 65.36829 498
-294.57526 943.60095 81.89716 494
-296.32880 947.39972 98.50933 438
-284.78812 935.87170 -0.69404 474
-285.96451 938.25079 15.88224 474
-286.65408 940.46936 32.33273 474
-287.77179 942.80920 48.68488 474
-288.57208 945.30829 65.17327 437
-289.72067 947.79382 81.89715 430
-280.65762 942.19409 -1.28404 429
-281.94357 945.01752 15.31119 429
-283.14838 948.69092 31.68491 367
-285.67041 954.85016 47.82652 293
-5330.40186 53517.31250 -10572.86914 1000
-4628.91455 61661.98438 -15364.68066 1000
237.22505 15456.84082 -123.66011 462
236.92825 15350.67676 130.20120 467
335.00827 15412.97656 -121.23980 463
330.30295 15314.31348 129.00581 468
332.81073 15322.84570 379.85016 461
428.33954 15377.50488 -123.01785 451
427.26077 15277.60645 130.49411 472
423.13861 15275.21191 380.87363 451
520.35236 15340.83594 -121.02018 452
520.00024 15241.62500 132.08366 473
1593.36377 53536.03125 13542.43750 1000
613.31000 15304.80957 -121.54765 452
610.28571 15211.29688 132.54126 473
705.56647 15270.81152 -118.32526 471
702.58990 15175.78613 131.38499 474
797.48639 15237.65234 -118.07916 471
794.71094 15145.24219 128.78526 474
892.66309 15204.71191 -116.31535 472
885.89227 15111.98242 130.76881 474
982.96442 15174.08398 -118.33588 472
979.31061 15079.74121 129.53331 475
1072.68359 15138.24902 -118.54027 472
1067.67773 15046.92480 130.15724 475
1165.30786 15105.97363 -115.80000 474
1160.52759 15013.95703 129.40070 476
1257.68457 15075.34766 -117.25022 475
1250.78259 14982.47754 132.91409 476
1348.22961 15043.00684 -115.51435 475
393.68451 4714.02832 -0.38850 476
1920.98035 21918.45898 1210.92664 1000
5840.97559 68852.54688 6931.44385 1000
1434.93921 15011.29004 -117.25520 475
1430.20422 14917.04980 131.38536 477
1527.21240 14977.37598 -113.54423 476
1516.52551 14887.30371 129.59647 477
1520.30005 14911.27637 377.54562 350
1617.01562 14943.60547 -116.90760 476
1606.64087 14852.18652 130.15907 478
1609.74023 14878.32910 375.39322 429
1704.03699 14912.20312 -115.95722 476
1697.41907 14821.73047 131.53416 478
1698.26843 14848.14453 374.54456 429
1794.73645 14879.56836 -114.48168 477
1782.52844 14791.33691 130.22804 478
1785.68665 14812.90332 374.06244 430
1884.76331 14851.20117 -115.85114 477
1870.42395 14756.93359 131.80772 479
1876.18433 14782.59668 373.08014 430
1970.52588 14816.78223 -112.36360 477
1958.46338 14728.67285 131.83826 479
1964.06921 14752.55469 372.56067 430
2060.47681 14787.37891 -113.88272 478
2046.54663 14695.94043 129.67809 479
2051.44067 14718.20312 373.42459 430
2149.52002 14756.53516 -111.63740 478
2135.94800 14664.02051 129.39078 479
2137.80493 14688.04004 373.51239 431
2237.76367 14723.94434 -110.75055 478
2221.30469 14632.44336 129.54497 480
2227.61743 14653.69434 374.77075 431
2322.72559 14691.21387 -112.60896 479
2311.29834 14601.46875 129.51285 488
2314.52612 14625.28516 374.97955 431
2409.52954 14661.63379 -112.21611 479
2396.24658 14572.52051 132.33728 488
2401.79712 14594.31641 374.81909 431
2497.87085 14628.53223 -110.62453 479
2483.24707 14541.94922 130.96959 488
2485.67090 14560.77441 371.34460 431
2584.41992 14597.89551 -112.65450 479
2571.67480 14509.22656 131.31284 489
2572.65869 14529.77441 370.63315 432
2673.63892 14565.91797 -110.21461 480
2658.07886 14480.25684 129.38432 489
2661.52319 14500.69141 371.14243 427
2757.40747 14535.62891 -112.05533 480
2742.82153 14450.80371 130.63651 489
2747.24585 14468.83789 374.05530 427
2845.38892 14503.60352 -110.75599 480
2830.04614 14418.00488 132.56636 489
2831.50146 14442.09082 372.60175 427
2932.09863 14473.07422 -109.74948 480
2915.38232 14387.96387 133.31973 489
2920.66626 14412.49023 371.91464 386
3016.49976 14440.57910 -109.69861 480
3002.31836 14358.81055 131.31897 490
3004.90405 14381.99512 372.46671 386
3105.60278 14409.73047 -108.15518 481
3085.42236 14329.80176 131.12837 490
3089.92407 14352.03125 372.01193 386
3188.22607 14382.42383 -110.98035 481
3172.32129 14299.00000 133.00084 490
3178.15991 14326.09180 369.97025 386
3273.95215 14349.51562 -111.27282 481
3257.17065 14267.75684 129.73621 490
3261.74390 14298.49023 369.00568 386
3361.44409 14318.37988 -107.86784 481
3342.12231 14239.03613 130.86279 490
3347.33325 14267.32715 369.07834 386
3447.49438 14288.39453 -109.89495 481
3429.49878 14208.59277 130.24144 491
3433.85352 14241.43848 368.94342 386
3596.89722 14923.10059 632.87866 489
3530.64014 14258.43457 -108.57110 482
3510.54248 14179.29199 132.81410 491
3680.57349 14871.17969 381.28995 490
3678.81128 14875.32227 632.36420 490
3617.26709 14228.53613 -109.27204 482
3597.23853 14147.28516 131.71690 491
3762.43604 14824.38867 380.40610 490
3766.26245 14826.14941 632.63000 490
3703.39795 14196.43750 -106.27601 482
3682.27124 14118.50000 130.62654 491
3850.45630 14777.92578 381.76300 491
3852.16992 14779.17383 629.36462 491
3788.26416 14166.49609 -109.42180 482
3765.19873 14087.54688 133.47247 491
3935.05078 14726.91016 378.91403 491
3933.35767 14733.40918 630.54724 491
3870.72949 14135.43457 -106.59109 482
3850.76782 14058.24902 129.75986 491
4019.87231 14682.46973 379.20319 492
4020.45679 14685.67773 629.39844 491
3954.92383 14104.34570 -109.07906 482
3937.05762 14028.05371 130.07123 491
4102.57178 14635.10156 378.19080 492
4102.21826 14637.96387 626.80469 492
4041.28027 14076.17773 -109.05180 482
4021.98193 13998.81641 131.64145 492
4186.19873 14588.99219 378.38083 492
4188.47754 14592.69043 629.19141 492
4124.81641 14044.84863 -108.87337 482
4104.20068 13970.75879 131.39343 492
4270.13721 14539.82227 379.06357 493
4268.46240 14544.96777 625.10919 493
4211.97314 14014.55566 -107.26906 483
4187.10059 13938.92969 131.80307 492
4350.49463 14492.85742 379.20685 493
4353.78271 14498.24414 627.96393 493
4294.38818 13985.52246 -106.60500 483
4274.34766 13911.47461 133.35941 492
4440.57324 14463.20996 377.16913 499
4441.43555 14466.02441 627.59045 499
4380.93262 13952.93555 -107.61913 483
4358.16064 13880.67969 130.55045 492
4528.06738 14429.70410 378.40399 499
4526.97852 14432.94238 625.98578 499
4464.83594 13926.12988 -107.79007 483
4441.96094 13853.00586 133.15019 492
4613.23877 14397.10645 376.41318 499
4613.57520 14404.54199 627.82275 499
4547.90234 13894.28125 -106.22047 483
4526.63135 13822.07520 130.75500 492
4699.36377 14369.22852 377.23236 499
4699.94775 14370.77734 624.10095 499
4633.79492 13864.13086 -108.22492 483
4610.11084 13792.56445 131.07347 492
4781.35645 14312.33887 378.14029 475
4787.27148 14340.65234 627.22192 499
4716.15625 13833.83105 -105.66660 483
4693.11914 13762.77637 130.57669 495
4852.93604 14241.88672 378.53275 476
4875.85352 14307.39746 624.44049 499
4800.05957 13801.42188 -108.66827 483
4779.41406 13732.62891 131.65144 495
4926.50488 14173.03027 375.20425 477
4961.60156 14274.65430 623.76111 499
4888.01660 13773.20312 -108.81600 483
4862.46289 13702.21582 131.32999 495
5002.65723 14103.62500 376.07596 477
5051.68262 14246.66602 626.59015 499
4968.41260 13742.31836 -106.55326 483
4944.24365 13674.91113 132.01749 495
5072.55957 14034.25195 377.32730 478
5138.95264 14211.58984 627.24878 499
5053.47705 13712.06738 -106.25453 483
5030.56982 13643.08203 133.56032 495
5148.10791 13967.06738 373.49182 479
5225.34473 14180.82227 627.36389 499
5137.89111 13681.59082 -106.58394 483
5115.87695 13615.72949 132.68803 495
5220.28809 13900.32129 373.60635 499
5310.54248 14151.21973 623.79736 499
5329.02490 14193.79980 876.95789 499
5224.46533 13652.76660 -106.90391 483
5198.69189 13583.94922 133.77878 495
5304.83008 13870.72266 375.30136 499
5396.80176 14117.71875 625.28491 499
5416.94531 14161.05273 874.97888 499
5476.16895 14322.52051 1135.24756 476
5307.99707 13620.67578 -108.47823 483
5280.43604 13556.24902 133.22966 495
5391.74268 13837.16504 373.83801 499
5486.98096 14086.95703 626.23041 499
5501.70850 14132.89160 874.29395 499
5549.67822 14255.69043 1133.16309 481
5392.35205 13590.70215 -108.96706 483
5367.88916 13526.18750 130.58870 495
5477.04736 13807.34570 372.70621 499
5572.48242 14057.69336 625.84998 417
5590.60840 14094.00195 876.02881 461
5477.42871 13561.20410 -106.09612 483
5451.45117 13495.41895 132.44902 495
5561.65137 13775.29492 373.40604 499
5650.17529 14004.16113 623.76910 462
5653.78809 14009.58887 871.91180 462
5561.44385 13532.29688 -107.65161 483
5536.32861 13465.94336 132.21310 495
5647.64355 13746.64746 374.28940 499
5717.29883 13916.29199 622.60223 463
5719.64746 13918.92090 870.05444 462
5774.52490 14057.04395 1124.90747 367
5646.90820 13502.08984 -105.91898 483
5617.68164 13439.19043 129.98108 495
5733.98975 13714.60449 374.65427 499
5782.33398 13829.97461 622.52203 463
5783.93262 13832.35352 868.28662 463
5834.81543 13965.22754 1122.12341 367
5729.97070 13472.82031 -108.08509 483
5704.33252 13408.37500 131.91071 495
5817.83936 13683.97754 375.23352 499
5844.59131 13745.07031 617.68921 464
5847.77783 13747.82910 865.92700 464
5899.47803 13875.52734 1118.24170 368
5814.13916 13442.13086 -106.40016 483
5789.24756 13378.80566 133.11800 495
5923.24707 13695.42578 375.92728 499
5924.76807 13700.52832 619.73914 499
5928.31152 13704.53320 865.64697 499
5969.28271 13809.54785 1117.18677 389
6009.01758 13896.74805 1370.21570 418
6010.31299 13899.50391 1621.45032 418
6011.86133 13900.02734 1869.00391 482
6012.19238 13907.09570 2122.57397 482
6015.34033 13911.60059 2373.63379 481
5898.10107 13412.32812 -106.71258 482
5870.48096 13347.00293 130.33395 495
6007.70947 13664.15234 374.70914 499
5999.56982 13641.51465 619.27515 499
6001.40771 13643.03125 860.76276 499
6058.07666 13779.10645 1117.94238 389
6154.99756 14005.57324 1384.15698 485
6337.64551 14425.26855 1679.75854 494
6340.02588 14431.85449 1939.19775 494
5983.26367 13381.23828 -108.85102 482
5955.00293 13317.87305 130.82956 494
6095.73926 13634.17578 376.45639 499
6086.75391 13610.69043 618.92352 499
6086.87158 13611.45508 864.71558 498
6148.36035 13750.31445 1116.64270 389
6246.41504 13972.09668 1385.68811 485
6066.74561 13349.25684 -108.97469 482
6041.94482 13290.42969 129.82123 494
6180.20898 13601.59961 374.64621 499
6173.28418 13579.37793 620.55072 499
6172.20996 13582.91895 863.95544 498
6234.91162 13721.92188 1115.90833 389
6315.90381 13905.98926 1382.77917 453
6152.20947 13321.12402 -106.30348 482
6125.90820 13258.43066 130.71167 494
6266.38770 13570.96582 377.28333 499
6259.31885 13549.52441 619.66217 498
6260.48047 13552.49316 863.61981 498
6323.86914 13690.60156 1118.17700 389
6401.71387 13869.41016 1382.57043 453
6239.67090 13290.96777 -105.71416 482
6210.31055 13227.95508 133.74442 494
6354.41162 13541.87012 374.80478 498
6344.67529 13515.52734 620.87494 498
6343.34912 13519.00488 863.70355 498
6411.02930 13660.51758 1119.81616 389
6509.63818 13878.35645 1385.53320 484
6325.74316 13258.28906 -106.14977 482
6297.37500 13198.69238 133.36084 494
6441.45166 13509.60742 374.96463 498
6430.47949 13486.08887 621.58759 498
6429.68945 13489.08301 864.56805 498
6500.67920 13631.69238 1119.11133 389
6597.86914 13847.97363 1386.08411 484
6407.68311 13229.12793 -107.07703 482
6381.41650 13170.40820 131.93633 494
6526.63818 13475.46484 376.97690 498
6516.82324 13455.17480 621.21588 498
6518.37451 13458.00586 863.96045 498
6585.84961 13601.27539 1118.34277 389
6494.14941 13197.78906 -109.46765 482
6467.46533 13139.07227 130.66379 494
6612.25342 13446.46875 375.12253 498
6603.99268 13423.43652 621.58063 498
6604.82422 13424.52734 864.60541 498
6676.67627 13571.26367 1122.37366 389
6580.06396 13165.86719 -107.28492 481
6550.62988 13109.39648 133.76326 493
6699.71533 13415.21484 375.84836 498
6702.90283 13419.85156 620.46191 498
6706.78076 13423.13086 865.14368 497
6765.39502 13544.62500 1121.18555 389
6667.11133 13135.72656 -108.86303 481
6636.65186 13079.84668 133.38210 493
6787.35107 13381.87305 377.97543 498
6788.24609 13384.65332 621.03394 497
6790.81201 13392.08398 867.03168 497
6855.02881 13514.84863 1121.69409 388
6751.68604 13106.06445 -110.03371 481
6721.97949 13047.91309 133.12407 493
6875.83105 13350.64160 375.54190 497
6876.46387 13355.91406 621.61469 497
6877.53906 13359.76758 867.61237 497
6940.92236 13483.31543 1123.44556 388
6835.72168 13074.75391 -108.51974 481
6808.52148 13018.53613 131.39323 493
6960.60303 13321.67188 378.22668 497
6966.23779 13324.47070 621.79449 497
6966.89990 13328.28613 869.84576 497
7033.08887 13454.02148 1125.65466 388
6923.50391 13043.75781 -108.33891 481
6892.47168 12988.71973 130.40062 493
7050.19629 13287.64355 376.45517 497
7050.33154 13291.84766 623.64056 497
7053.70117 13295.84668 871.59283 497
7123.15234 13426.78125 1125.54944 388
7008.15771 13013.57324 -108.79625 480
6977.65283 12961.13281 133.98006 492
7135.59570 13257.09375 376.75003 497
7138.35352 13259.67090 623.30664 497
7139.87061 13263.41699 871.80603 496
7269.42969 13502.83691 1132.89087 466
7095.04639 12984.06934 -109.20586 480
7065.32031 12929.01855 132.22507 492
7223.95215 13226.43359 378.26389 497
7227.84912 13229.40039 622.48920 496
7228.00684 13231.28223 872.43622 496
7357.85596 13473.11816 1134.68176 445
7182.78955 12951.35840 -109.73115 480
7151.88428 12898.43555 134.06300 492
7332.27100 13230.31641 377.56250 464
7338.84277 13238.84375 626.76483 438
7341.38818 13242.36816 872.71417 438
7465.03760 13473.44824 1141.02087 437
7269.40723 12923.57422 -109.21408 480
7238.28223 12869.36328 133.16144 492
7437.96826 13227.30957 378.57819 464
7459.90186 13267.62988 629.75873 437
7461.13574 13267.45801 877.40564 437
7570.15527 13469.91016 1141.10107 437
7355.05762 12890.57812 -108.74664 480
7324.08936 12837.83301 134.24245 491
7544.99658 13226.34961 380.27985 463
7572.78857 13278.33398 629.87494 462
7582.04980 13295.53516 881.73718 436
7440.25928 12861.76074 -108.42506 479
7410.90186 12805.95508 133.27132 494
7652.02588 13225.93457 381.55295 462
7679.42041 13276.86230 633.48761 461
7529.85547 12829.84668 -112.30011 479
7498.86230 12778.29004 132.21017 493
7757.69043 13224.11719 383.08679 462
7787.49414 13275.73828 635.69781 461
7577.94629 12815.81055 -122.07198 479
7548.74902 12761.97656 120.55476 493
7831.78174 13240.93945 370.41528 461
7665.90186 12781.76562 -123.99706 478
7638.52100 12731.33496 121.45399 493
7938.11914 13240.86914 373.90561 460
7754.24023 12750.78223 -121.54370 478
7724.39551 12701.50391 120.43286 492
8042.70605 13230.98438 374.67953 441
7844.16211 12722.20996 -121.66451 478
7814.15088 12673.18750 121.68204 492
7930.13184 12689.46875 -122.62938 478
7900.92432 12641.89941 119.43364 492
8020.40234 12658.72559 -125.00089 485
7989.14697 12609.30176 120.75394 491
8108.74365 12625.67578 -123.49062 485
8077.67676 12578.98242 120.53966 491
8198.72363 12594.42969 -124.27940 484
8166.35156 12547.80371 119.89512 491
8288.64746 12564.42090 -126.30176 484
8256.18555 12517.61133 120.30684 490
8378.95312 12534.22852 -127.21465 484
8349.25488 12486.22949 122.06773 490
8470.50781 12503.41211 -126.57621 483
8436.97559 12453.37988 118.69418 490
21421.03906 31389.01367 -3635.85498 1000
8560.06152 12469.86035 -126.09119 483
8526.07520 12425.58008 119.35173 489
8650.60059 12438.21289 -126.29623 482
8615.86328 12393.17480 119.64376 489
8740.70703 12407.14160 -128.23856 482
8708.65137 12360.85156 119.32690 488
8832.28906 12374.94336 -128.33788 482
8801.57324 12331.75293 121.86086 488
8922.35254 12341.68945 -126.37871 481
8889.97754 12296.20312 119.07370 488
9016.18164 12309.46875 -130.20305 481
8983.31055 12265.13574 120.48598 487
9090.43848 12248.65723 -105.14815 481
9075.08887 12232.37891 119.22513 487
9200.82324 12245.15039 -127.76614 480
9165.68848 12204.54395 122.39883 486
9292.17871 12213.00586 -130.07150 479
9262.79785 12172.30664 121.71747 486
9386.82617 12181.16309 -131.63783 479
9354.71094 12137.15430 122.59205 485
9482.46484 12149.25977 -132.33171 479
9447.95508 12106.78613 121.27249 485
9574.80078 12116.16113 -130.01268 478
9541.08008 12074.40137 121.12887 484
9670.90625 12081.97168 -132.04424 478
9635.17480 12039.08203 119.70744 484
9762.64648 12047.82910 -133.98251 477
9729.19043 12008.96582 120.30214 483
9859.58398 12018.12695 -130.91705 477
9824.90625 11973.72754 122.15765 483
9957.83789 11981.02246 -134.21083 476
9922.81348 11941.44531 120.81039 482
10050.14648 11947.58008 -131.84183 476
10016.31250 11908.81055 120.18748 482
10147.14746 11916.85547 -132.46117 475
10112.57422 11874.83301 122.35583 481
10243.78418 11883.99609 -134.17000 475
10212.37891 11841.49219 119.22356 481
10342.05957 11848.30371 -137.00127 474
10307.21191 11807.55664 119.41483 480
10443.52930 11813.40918 -135.51395 473
10406.75879 11771.28223 122.64539 479
10540.25098 11781.25488 -138.08138 473
10502.60840 11737.89844 119.31824 479
10641.10547 11746.49023 -138.54454 449
10603.06055 11706.31641 121.65472 478
10751.66699 11722.40723 -140.45660 448
10707.39844 11673.63965 121.52446 474
10862.26660 11702.11426 -140.61157 448
10812.21289 11644.04590 122.05205 473
10976.08203 11679.41602 -142.10080 448
10912.39941 11614.72461 119.93795 472
11090.12012 11658.97754 -139.84430 448
11021.78027 11583.99805 119.01205 472
11203.58203 11633.32227 -142.89865 447
11130.85156 11557.54395 120.01533 452
11321.76074 11611.69434 -142.99983 446
11248.12207 11534.49512 118.63585 452
11434.55371 11589.56055 -143.59300 445
11367.76172 11515.39355 121.27850 450
11576.25195 11585.37012 -145.40120 400
11487.78027 11497.60449 121.62357 449
11718.65430 11590.37402 -149.21106 399
11611.89551 11482.17383 118.30564 448
11868.76562 11591.60840 -147.87752 376
11735.58398 11462.52832 121.51805 447
12027.11230 11605.11914 -150.66927 375
11864.09668 11445.14746 121.06227 446
12207.81641 11639.46582 -154.12282 348
11987.14062 11428.17578 119.15652 445
12403.67871 11680.09180 -159.75281 347
12135.40137 11429.10547 122.31136 388
12140.82715 11284.91016 146.85744 445
12485.22266 11472.63477 121.40257 381
12668.17285 11502.67090 119.70149 380
12914.16113 11578.69727 121.84757 295
2592.92944 873.17725 -43.20177 452
2597.01538 874.66156 0.25278 442
2598.79443 857.44983 -43.14162 452
3879.06763 -431.64661 6.28193 425
3894.35181 -456.56744 -56.46531 431
3863.73999 -453.55197 7.10267 403
3876.11890 -478.52655 -55.86350 432
3855.44873 -476.11746 7.41464 391
3858.53345 -499.18546 -55.28799 433
3848.36108 -498.22760 7.59025 457
3839.38354 -520.35248 -55.01320 316
3967.46240 -538.62592 3.30743 365
3817.02246 -541.24664 -53.42957 323
6804.35205 -974.11261 1250.84167 1000
3799.34155 -561.27594 -52.97710 434
3790.36353 -583.47253 -52.12258 434
3780.51172 -605.24927 -52.05337 435
3772.20972 -626.36005 -52.58098 436
3861.24438 -689.34528 6.06469 498
3826.70068 -707.80139 6.85363 498
3824.66675 -730.16632 6.68023 498
3848.35205 -758.87183 6.41220 259
3889.12476 -816.25928 4.10269 371
3820.48364 -825.71948 6.22193 497
3813.31494 -848.18274 6.26524 497
3871.24121 -860.82556 67.77783 497
3886.16553 -888.66638 67.20030 497
3891.18945 -915.16180 195.04303 497
3958.74634 -955.90717 1.40880 496
3819.42969 -945.91315 5.91319 496
3770.53491 -957.90479 6.54831 496
3838.09204 -1250.99463 2.29893 320
4190.19385 -1396.60815 -656.36938 1000
55628.89844 -40443.46484 -5503.46729 1000
2732.46997 -1945.39734 -28.78382 371
2714.68091 -1957.21265 -28.28684 467
2722.63550 -1963.53796 24.30192 418
28524.89062 -26606.07031 -1781.13342 1000
3613.64941 -4782.33057 34.64202 440
3592.94360 -4813.10742 35.20528 452
3572.14893 -4849.13672 35.44479 460
3554.49683 -4884.71631 34.11893 462
3537.41895 -4925.00781 34.33144 449
3521.63062 -4968.52783 33.80624 442
3509.29297 -5016.12451 32.71811 426
3504.38428 -5075.18848 32.41158 387
3501.52002 -5139.48730 31.74592 385
3501.74219 -5208.32812 31.18568 384
3506.13818 -5284.42188 29.06282 343
3508.91675 -5360.46973 28.60055 372
3512.36914 -5439.43164 27.51620 375
2499.26953 -3879.26807 57.86632 494
6252.06934 -14206.09180 1914.58704 1000
2169.54834 -4962.54688 44.76569 481
2019.95972 -6004.82520 30.51795 312
1965.94934 -5964.72949 31.66645 394
1980.72266 -6009.64795 132.39514 368
1908.60596 -5906.14941 32.49736 285
1863.32678 -5885.90967 31.73152 349
1819.53528 -5872.37402 33.50270 407
1776.80945 -5860.62891 32.92485 412
1806.75916 -5962.96094 132.45853 373
1778.99927 -5867.10986 233.80968 450
1737.16321 -5854.21631 32.99471 456
1748.21704 -5892.85889 133.39970 465
1741.23877 -5867.68701 233.03748 472
1696.83215 -5849.77393 33.16576 459
1706.13232 -5885.62354 132.42712 491
1705.22681 -5881.16943 232.69090 423
1656.61646 -5847.89404 33.61286 464
1667.89136 -5886.07031 133.31149 491
1665.92151 -5880.02002 232.72121 423
1617.93835 -5845.91406 34.45000 467
1625.34680 -5871.58740 132.89549 492
1626.74866 -5878.87842 232.99992 423
1579.73462 -5844.32764 34.35130 470
1589.73621 -5881.12793 133.29881 492
1589.49548 -5877.10596 231.84325 424
7065.17383 -27362.45312 3385.89282 1000
1542.53271 -5846.82764 34.35756 434
1552.62073 -5887.32275 133.80392 492
1549.98767 -5876.97412 231.88541 424
1504.23718 -5846.85938 35.31931 435
1514.54797 -5887.06494 133.55229 493
1512.36121 -5876.20801 233.03534 457
1467.64111 -5848.73145 34.46494 435
1476.31067 -5887.64062 133.74811 493
1475.38635 -5884.85742 232.53870 493
1429.98169 -5850.48828 35.12819 440
1438.13232 -5887.23828 132.99898 494
1437.48779 -5883.93164 232.28003 494
1459.33203 -5981.28369 333.65930 453
1392.09875 -5851.71484 34.88256 384
1431.23438 -6026.14990 133.26167 302
1434.61658 -6045.54346 235.01367 302
1425.07532 -5996.97266 335.21991 397
1355.11682 -5853.88965 35.99617 385
1389.95837 -6011.58008 334.49518 497
1318.62756 -5856.82227 35.22435 379
1349.96545 -6007.59961 333.73697 312
1280.48010 -5859.48193 34.82950 379
1243.88281 -5860.68506 35.38508 304
1194.91638 -6001.42627 132.90187 496
1139.02576 -5898.63330 134.02989 496
1101.54980 -5899.41113 132.93724 496
1073.71362 -5948.52441 133.50438 470
1032.67163 -5935.55127 133.78699 471
996.13483 -5932.42432 133.66353 499
976.98798 -6053.54883 133.58855 292
958.12750 -5924.06592 232.38699 446
390.00275 -3304.73657 79.12311 322
393.30905 -3345.30908 133.36861 427
364.24307 -3246.86572 79.62441 338
371.05475 -3328.58350 132.92606 477
345.86200 -3265.31494 26.22064 306
341.74084 -3206.54199 80.39256 363
351.42068 -3330.52466 133.21898 477
322.41983 -3214.19946 28.01637 328
319.04660 -3171.81714 80.66631 364
330.59451 -3332.07568 132.81377 477
300.01477 -3173.40063 28.82554 336
297.50543 -3140.11353 81.42669 374
310.03641 -3333.00098 133.31831 477
279.88797 -3173.56055 28.73756 298
276.59146 -3112.74048 81.67686 378
289.63776 -3335.57104 132.93315 477
260.23941 -3174.57642 29.11175 298
256.18317 -3090.41040 82.68224 424
269.25720 -3336.82178 133.43584 477
240.96538 -3176.81714 29.22379 298
238.32474 -3112.72241 82.26445 365
249.00404 -3338.72412 133.02400 477
222.26891 -3182.99731 28.61539 325
220.20827 -3145.44189 81.82311 364
228.38240 -3340.55859 133.44753 477
202.28616 -3184.19214 80.98686 352
207.69322 -3341.60693 133.54100 477
183.81171 -3225.92432 80.31490 351
187.60254 -3343.48462 133.40871 477
165.22328 -3280.75977 79.42555 316
166.84409 -3354.94043 133.29810 419
147.47701 -3374.90918 78.30344 280
-915.82318 -25652.46289 -4097.51758 1000
-9229.33984 -32565.56055 -7752.10059 1000
-281.45938 -1065.14331 188.23405 295
-280.53778 -1062.59070 206.42577 369
-280.00488 -1061.28760 225.07111 369
-279.59531 -1060.27246 243.52321 430
-287.61612 -1061.75256 21.27663 430
-287.36279 -1061.22302 40.08254 474
-287.33386 -1060.59583 58.69540 474
-286.90652 -1060.00403 77.33429 475
-286.65643 -1059.39685 95.71342 475
-286.69070 -1058.91028 114.31465 497
-286.41956 -1058.22180 132.51567 497
-286.15323 -1057.95312 150.95659 497
-286.06702 -1057.45532 169.47743 497
-286.08951 -1057.18115 188.00706 495
-285.71265 -1056.90479 206.48563 495
-285.68503 -1056.73413 224.72345 495
-285.59570 -1056.49341 243.46805 468
-294.08081 -1058.84180 21.46456 467
-293.78760 -1058.88940 39.92852 467
-293.94946 -1058.97131 58.49967 419
-293.88394 -1058.81677 77.22034 420
-294.03754 -1059.20068 95.67084 420
-294.20032 -1059.44690 114.02132 355
-294.43073 -1060.53857 132.69681 280
-20689.94531 -53456.03516 8663.86523 1000
-804.94006 -1558.58801 74.00538 337
-803.74939 -1556.90637 103.42586 405
-803.05670 -1555.44067 133.03275 458
-801.99622 -1554.31812 162.49442 458
-801.43103 -1552.85596 191.58891 490
-800.90155 -1552.27930 220.90346 490
-800.66199 -1551.36011 250.23016 499
-813.68408 -1552.03259 44.49192 444
-813.59741 -1552.10461 73.76485 386
-814.24603 -1553.30737 103.22637 315
-1320.91248 -2054.28662 51.16641 475
-1320.59656 -2054.13525 92.21343 475
-1320.31787 -2053.00171 132.81000 476
-1319.88123 -2052.23682 174.27365 476
-1319.06763 -2052.15747 214.62051 476
-1318.83997 -2051.58765 255.73874 475
-1318.27393 -2050.59668 296.35571 426
-16516.27148 -12081.18164 3185.64697 1000
-58014.35938 -24246.61914 -12381.95117 1000
-39378.24219 -16187.20312 3638.60596 1000
90.14084 -2.96796 128.33983 371
89.37103 -3.17263 128.38747 310
88.30425 -3.45536 128.38585 306
90.24200 -2.86436 128.36086 372
89.40033 -3.08395 128.38753 310
88.33302 -3.36215 128.38678 306
90.34403 -2.76455 128.37859 373
89.43014 -2.99451 128.38553 310
88.36208 -3.26509 128.38551 306
90.40161 -2.67471 128.38570 314
89.46246 -2.90708 128.38597 310
88.38938 -3.17131 128.38609 306
90.43350 -2.59138 128.38751 314
89.49133 -2.81605 128.38780 310
88.41809 -3.07585 128.38820 306
90.46700 -2.50912 128.38660 314
89.52331 -2.72800 128.38530 310
88.45084 -2.97965 128.38579 306
90.49928 -2.42630 128.38615 314
89.55745 -2.64038 128.38724 310
88.47897 -2.88403 128.38705 306
87.24104 -3.16523 128.38745 302
90.53225 -2.34188 128.38776 314
89.58849 -2.55096 128.38519 310
88.51025 -2.78705 128.38550 306
87.27190 -3.06161 128.38788 302
90.56644 -2.25764 128.38661 314
89.62030 -2.46204 128.38666 310
88.54446 -2.69240 128.38704 306
87.30360 -2.95636 128.38634 302
90.60303 -2.17580 128.38719 314
89.65646 -2.37258 128.38580 310
88.57682 -2.59687 128.38631 306
87.33246 -2.85457 128.38832 302
90.63893 -2.09119 128.38524 314
89.69105 -2.28369 128.38780 310
88.61035 -2.49940 128.38705 306
87.36369 -2.74969 128.38765 302
90.67281 -2.00790 128.38747 314
89.72325 -2.19435 128.38733 310
88.64243 -2.40359 128.38690 306
87.39557 -2.64511 128.38716 302
90.70911 -1.92438 128.38780 314
89.76073 -2.10254 128.38637 310
88.67660 -2.30867 128.38631 306
87.42995 -2.54378 128.38589 302
90.74564 -1.84124 128.38614 314
89.79475 -2.01509 128.38719 310
88.71146 -2.21064 128.38686 306
87.46249 -2.44022 128.38538 302
90.78375 -1.75597 128.38699 314
89.83067 -1.92348 128.38683 310
88.04237 -2.23787 128.22093 352
87.49717 -2.33571 128.38776 302
90.82110 -1.67182 128.38542 314
89.86846 -1.83286 128.38629 310
87.82555 -2.18014 128.15952 351
87.53187 -2.22951 128.38649 302
86.07803 -2.47864 128.38794 298
90.85931 -1.58894 128.38614 314
89.90665 -1.74523 128.38557 310
87.60217 -2.12265 128.09764 350
87.56908 -2.12463 128.38643 302
86.11107 -2.36313 128.38664 298
90.89814 -1.50562 128.38763 314
89.94338 -1.65415 128.38800 310
87.37074 -2.05710 128.03687 348
87.36977 -2.05742 128.33603 349
86.14547 -2.25002 128.38806 298
-22660.74414 -3572.93896 2023.25391 1000
90.93895 -1.41937 128.38651 314
89.98309 -1.56534 128.38568 310
87.14430 -1.99094 127.97451 445
87.14446 -1.99247 128.27672 446
86.18263 -2.13771 128.38744 298
90.97782 -1.33661 128.38657 314
90.02266 -1.47334 128.38734 310
87.05199 -1.90329 127.94476 445
87.05302 -1.90157 128.25092 445
86.21949 -2.02230 128.38783 298
91.01929 -1.25182 128.38565 314
87.69241 -1.71159 127.78752 310
86.96449 -1.81347 127.91527 444
86.96333 -1.81149 128.22272 444
86.25783 -1.90943 128.38721 298
91.06096 -1.16834 128.38783 314
87.73319 -1.60714 127.78839 310
86.87274 -1.72104 127.88435 443
86.87083 -1.71874 128.19304 443
86.29326 -1.79701 128.38704 298
91.10169 -1.08325 128.38557 314
87.76933 -1.50138 127.78584 310
86.77850 -1.62522 127.85314 442
86.77728 -1.62695 128.16389 442
86.33332 -1.68171 128.38838 298
-14.17375 -1.69264 -3.82399 314
87.81137 -1.39641 127.78788 310
86.68140 -1.53372 127.82248 441
86.68183 -1.53364 128.13431 442
86.37051 -1.56940 128.38779 298
91.18537 -0.91521 128.38528 314
87.84971 -1.29435 127.78679 310
86.58725 -1.43747 127.78979 440
86.58667 -1.43727 128.10741 441
86.41187 -1.45424 128.38750 298
91.22956 -0.83141 128.38655 314
87.89180 -1.18879 127.78745 310
86.62171 -1.32316 127.78645 306
86.48652 -1.33653 128.07642 440
86.45272 -1.34259 128.38715 298
91.27256 -0.74667 128.38744 314
87.93282 -1.08170 127.78729 310
86.66326 -1.21125 127.78918 306
86.38902 -1.23943 128.04544 439
86.38998 -1.23962 128.36591 439
91.31773 -0.66121 128.38580 314
87.97425 -0.97853 127.78656 310
86.70279 -1.09883 127.78574 306
86.29850 -1.13545 128.01715 490
86.29973 -1.13608 128.34154 491
91.36258 -0.57812 128.38737 314
88.01684 -0.87438 127.78748 310
86.74560 -0.98509 127.78663 306
86.27252 -1.02803 128.00024 490
86.27203 -1.02627 128.32581 491
91.40749 -0.49319 128.38737 314
88.06043 -0.76876 127.78644 310
86.78838 -0.87256 127.78672 306
86.23986 -0.91532 127.98689 490
86.24085 -0.91756 128.31000 491
91.45300 -0.40809 128.38605 314
90.48933 -0.48263 128.38693 310
86.83264 -0.76050 127.78616 306
86.21217 -0.80457 127.97203 490
86.21062 -0.80604 128.29808 490
91.49860 -0.32246 128.38582 314
90.53612 -0.39091 128.38644 310
86.87789 -0.64794 127.78895 306
86.18286 -0.69322 127.95599 489
86.18409 -0.69350 128.28235 490
91.54434 -0.23820 128.38765 314
90.58355 -0.30155 128.38789 310
86.92271 -0.53545 127.78618 306
86.15161 -0.58209 127.93886 489
86.15010 -0.58176 128.26553 490
85.02431 -0.65606 128.38858 294
91.59377 -0.15570 128.38657 314
90.63105 -0.21012 128.38602 310
86.96944 -0.41970 127.78628 306
86.12121 -0.46781 127.92006 489
86.12045 -0.46952 128.25259 490
85.07038 -0.52798 128.38850 294
91.64122 -0.07040 128.38705 314
90.67862 -0.11879 128.38597 310
87.01479 -0.30723 127.78889 306
86.08913 -0.35704 127.90421 488
86.09285 -0.35628 128.23494 489
85.11658 -0.40430 128.38498 294
91.68937 0.01464 128.38745 314
90.72701 -0.02772 128.38553 310
87.06100 -0.19509 127.78667 306
86.05917 -0.23884 127.88660 488
86.06087 -0.24149 128.21924 489
85.16071 -0.28104 128.38493 294
91.73843 0.09990 128.38545 314
90.77556 0.06143 128.38681 310
87.11192 -0.08329 127.78819 306
86.02897 -0.12389 127.86991 488
86.02806 -0.12188 128.20418 489
85.21173 -0.15725 128.38489 294
91.77243 0.18302 128.38329 485
90.82504 0.15301 128.38777 310
87.16025 0.03279 127.78771 306
85.99762 -0.00556 127.85549 487
85.99824 -0.00713 128.18959 488
85.25739 -0.03004 128.38737 294
91.75005 0.26551 128.36215 484
90.87266 0.24393 128.38640 310
87.20644 0.14409 127.78609 306
86.02410 0.11499 127.85085 484
86.02523 0.11125 128.18250 485
85.30836 0.09552 128.38824 294
91.72822 0.34968 128.34344 484
90.92466 0.33404 128.38698 310
87.25919 0.25797 127.78762 306
86.06031 0.23244 127.84647 484
86.05852 0.23212 128.18221 485
85.35696 0.21792 128.38835 294
91.70383 0.43514 128.32277 484
90.97372 0.42206 128.38675 310
87.30802 0.37210 127.78572 306
86.08842 0.35186 127.84014 485
86.09116 0.35274 128.17525 485
85.40897 0.34186 128.38596 294
91.68073 0.51856 128.30515 483
91.02705 0.51365 128.38702 310
87.35875 0.48360 127.78783 306
86.12179 0.47354 127.83527 485
86.12080 0.47153 128.17458 486
85.46342 0.46928 128.38506 294
91.65788 0.60508 128.28513 483
91.07940 0.60424 128.38658 310
87.41208 0.59593 127.78861 306
86.15583 0.59503 127.83475 485
86.15544 0.59426 128.16913 486
85.51539 0.59141 128.38834 294
